ply
format ascii 1.0
element vertex 271
property float x
property float y
property float z
property uchar red
property uchar green
property uchar blue
end_header
1.6818562122450877 -1.1851076713204112 1.7686651689126351 48 47 47
0.5069285322932218 -0.42758063210772634 1.4556787763097538 130 133 132
0.77006382033434 -1.9486162186620797 1.0852868595688594 191 197 197
-0.16357296501633492 -2.48980409265045 2.5089108656567096 124 122 114
0.1545116911434591 -0.047783322299743594 1.0350712417354022 26 20 22
-1.6969810750741072 -5.118512336732537 3.906152984422123 122 118 111
1.048689233810865 -0.5063693019289857 1.321530331697174 20 20 16
1.0481924590839098 -0.506783237619837 1.3269254212782295 19 19 19
1.4519749928040488 -0.8881525949470158 1.4256388785596044 19 19 19
0.9436137074288533 -1.1891135688870533 1.7362944185765792 114 115 111
0.6004992087623577 -0.4800793419136928 1.4378719276308611 87 86 86
0.8565922531510719 -1.1265574781758951 1.7202100824328777 125 124 124
0.7584265398384247 -0.7427624737990355 1.700939429652395 128 124 113
0.5644749150226154 -0.5168107066493315 1.4989707960443568 117 118 114
0.4279376198963079 -0.4991719065425083 1.4818307904856054 141 147 147
0.40577822603715324 -1.0749976464989317 0.9189606910825049 188 191 192
0.26289664098355725 -0.24819716131520012 1.3836068369118015 135 143 142
0.10331735817373007 -0.06862440267034112 1.0252978598766074 185 180 178
0.13792225004692746 0.06666754834251297 1.0904316366739335 181 181 177
146.6356796109454 -173.51306392006023 85.66258435302038 114 110 101
146.6356796109454 -173.51306392006023 85.66258435302038 114 110 101
0.5309960635592257 -0.3841936360055238 1.414514649122842 104 105 101
0.520999538052846 -0.3711523363930411 1.3743037904560391 101 101 101
0.5146095955654536 -0.3615890117729387 1.3810574284050097 110 110 106
0.4676154237793222 -0.25574967965964984 1.3548227871293514 115 112 109
0.5526988856430711 -0.46430632179723785 1.3876464076047401 79 79 79
0.5765748824312417 -0.5225606119850204 1.4132858364751766 97 98 94
0.4889705500699016 -0.32158093470539345 1.368691946632324 124 123 123
0.4656618129700827 -0.26555324655373036 1.3577982240208044 104 99 97
0.4656618129700827 -0.26555324655373036 1.3577982240208044 104 99 97
0.4545976771197181 -0.24144869915424982 1.357487313456412 93 92 99
0.4545976771197181 -0.24144869915424982 1.357487313456412 93 92 99
0.46427295129303053 -0.267805214696501 1.3631668664853942 116 116 118
0.4920964872615137 -0.34152304364498476 1.3599033342258602 101 100 102
0.4375178304597896 -0.2126698688887123 1.335951589654475 130 130 132
0.4375178304597896 -0.2126698688887123 1.335951589654475 130 130 132
0.45051159096854776 -0.2505260811797143 1.3364538108390729 147 144 139
0.38196766417666966 -0.0795058622987309 1.2627459547500768 87 86 88
0.43256406624538996 -0.2069117534462259 1.3373629692559341 129 128 128
0.4440710838167354 -0.24278354601058078 1.3113380686103535 124 125 119
0.4498592746919504 -0.2556283804936595 1.340046548308076 132 132 128
0.44679694253163565 -0.2506423825142847 1.318036295029513 118 118 120
0.41686863152106673 -0.17233700396964263 1.31991753001619 124 124 126
0.4479136266449009 -0.2568711852103407 1.3084637090063227 101 104 103
0.41467043481219884 -0.16759316213324027 1.3143689769134776 101 100 102
0.424676505910603 -0.19418270430862647 1.330250802429062 101 100 102
0.43906289335898135 -0.2325144892407382 1.3162071810957503 131 132 128
0.43611251531973005 -0.2254843665242746 1.3201976938400313 130 130 126
0.4332677779833975 -0.22125929272741668 1.3106264739842728 105 105 105
0.4074617667476648 -0.15842582473857614 1.310240771895112 137 137 137
0.3889468113368718 -0.12116417379809917 1.300695137072439 143 143 139
1.4629480482307204 -3.4249656178254027 -0.05824023112403549 33 33 29
0.3546689250156219 -0.0595114803922428 1.2868971503771984 138 138 138
0.3132262729424499 0.04972141739551096 1.2296678861784311 136 137 133
0.3804647329221077 -0.19864101563824235 1.347685367571241 147 153 153
0.5053737949119106 -1.1388260579471141 1.788004173939658 147 147 149
0.02281872922720555 -0.3083116134650408 0.9567357081303882 158 150 147
0.030251685606306165 -0.30498847767336923 1.3630043441288637 194 194 198
0.7585827605570459 -0.7405856259771585 1.607883083404542 72 69 64
0.5481191237382261 -0.3777255936283379 1.4088330701312748 80 83 82
0.5481191237382261 -0.3777255936283379 1.4088330701312748 80 83 82
0.5292263906439026 -0.34546593045423674 1.3952306974931183 82 88 86
0.5292263906439026 -0.34546593045423674 1.3952306974931183 82 88 86
0.5369680389892795 -0.3676768000062622 1.382270460296234 92 91 91
0.2817328138763166 0.20846616018702455 1.1452012035859107 84 88 83
0.4965048425021224 -0.28503203987089687 1.3684223564803117 83 83 79
0.5600219191714467 -0.46556695137095006 1.4405267799722585 118 119 115
0.47100380406931885 -0.25936785660089495 1.3138399836892594 90 96 94
0.69421040151326 -0.8140678628200445 1.5074066277289597 92 95 96
0.4475460215376347 -0.20640838650089902 1.32991081297082 122 126 121
0.2768703154522219 0.21244845537090232 1.141337843719846 79 82 85
0.5776154663325872 -0.550184487701092 1.4132852163418264 88 91 90
0.5776154663325872 -0.550184487701092 1.4132852163418264 88 91 90
0.46233901108172804 -0.25350696858804467 1.3497149565167443 115 118 117
0.4861883348710274 -0.30283556580310633 1.3008888488842678 66 70 65
0.4081321590243808 -0.12598518018715998 1.3172166596897696 109 109 105
0.43277873056779786 -0.20538118558770777 1.2653770256998587 73 76 75
0.4533883947607655 -0.24917320054530281 1.340289770200754 131 138 132
0.4533883947607655 -0.24917320054530281 1.340289770200754 131 138 132
0.5381755362218648 -0.4840666238185743 1.359050815315465 69 69 69
0.42656044107423924 -0.18362829569963673 1.3151036220021501 140 144 139
0.39982352175088315 -0.12418142713174989 1.2557608366706114 107 110 111
0.3835457690021159 -0.08089768848254082 1.268472542298736 144 144 144
0.3790981735015229 -0.07445237480006633 1.242773449052525 110 111 105
0.30381249176497394 0.09437783414266875 1.2035602268004602 164 167 168
0.2828041441698541 0.14994421114314158 1.1805852443294003 155 158 157
0.23788209654784856 0.283511366866712 1.1245303874875292 127 134 128
0.3066671733086842 -0.15827007659273468 1.01036187757214 192 195 196
0.23050286721534374 0.16329146831013264 1.1071758369169504 27 33 33
0.23197187238515837 -0.14187197564177034 1.3472030285899586 119 118 118
0.14542537150135168 -0.08447608135870696 1.1207681655955783 38 36 45
0.14182996617615232 -0.10597813932916222 1.1267550036286944 38 36 45
-0.013870736599649169 -0.36683516615221584 1.040713266113503 180 180 182
-0.30819906421583443 -1.0912896179781726 1.1901590382979281 186 186 188
0.43344015736429675 -0.2605749689925326 1.0110332959158144 197 200 203
0.2673837395892899 -0.14677042651375002 1.3428848645759985 134 140 140
2.817248493971255 -2.070107600833477 2.322839189996339 15 20 25
0.2961288576626773 0.3316838473669538 1.0925410622214318 115 114 97
0.4427022631429173 -0.029607432626133072 1.2481722548474803 79 79 81
1.1692895563778507 -1.8350756175813006 2.011437152495737 101 101 101
0.2839202187758214 0.29585274105115733 1.1046766903854077 121 121 121
1.108333303359608 -1.8788738761674437 2.0253367820040595 130 130 132
0.3328748354256621 -0.7110529844908585 1.3609112661370566 64 74 77
0.26527867109978526 -0.3648281590526907 1.0736393466064764 189 189 189
1.0772425260365002 -0.4097469359465604 1.4587911862819882 106 99 91
0.7357778482829258 -0.059568907331716936 1.2388453148762564 24 24 20
0.4585118744122802 -0.6796932525108553 1.5204244467209098 152 160 159
0.38561403692589497 -0.233743971960305 1.0962499465001767 40 45 50
0.38561403692589497 -0.233743971960305 1.0962499465001767 40 45 50
0.5902654367190237 -0.5039615276580465 1.3263206419772315 185 188 189
0.5902654367190237 -0.5039615276580465 1.3263206419772315 185 188 189
1.0469343672552842 -0.41575271109057316 1.2959870554053168 12 18 18
0.45447025538085006 -0.00277078886816958 1.046260889265039 177 173 174
0.3364632012302584 0.24055337524111506 1.1141769698351656 174 174 176
0.3364632012302584 0.24055337524111506 1.1141769698351656 174 174 176
0.144520421073732 -2.605348818579066 1.3111239362301454 13 19 17
0.3619275335448781 -0.2693189851903642 1.3466063499150174 70 81 79
0.5775100451650356 -1.584253269943961 0.746783995085588 179 185 185
0.25330464268418745 -0.34056216507206133 0.9841848755765034 128 134 132
0.07856439572291835 -0.3182793131503032 1.277312442096825 26 31 36
0.010593237562941624 -0.40033047634020286 1.4706002458979885 41 44 47
0.5007122289215652 -0.22228734332777625 1.373428242316931 74 75 71
0.49657549642048876 -0.22422315448340902 1.3523821058031413 79 83 78
0.4962666955521989 -0.2250966364643054 1.357164062578339 77 81 76
0.555228007290517 -0.33474818269838874 1.4200091320213313 78 81 80
0.5009088150959308 -0.22490486423127537 1.3699914280097623 70 69 71
0.5340382913008836 -0.374518468605806 0.94586322369456 195 195 195
0.5467323627178915 -0.3322678073188567 1.480716663764487 90 91 85
0.5180152299888082 -0.39187362572236234 0.9475224914374102 168 167 167
0.42186776586779895 -0.20467167885672136 1.4593758043526057 119 119 119
0.44926863397448813 -0.4568367591921405 0.9336824751779922 186 189 190
0.429999807244658 -0.4988918208156705 0.9303955826781208 129 129 129
0.5698886065860272 -1.6047737420090173 0.9513500667034436 121 113 110
0.2935070074876624 -0.09220580234775827 1.0293229819139504 184 187 186
0.2901080155237576 -0.14656040025821318 1.1625962153706098 22 29 23
0.3379072245510303 -0.5734019952913102 1.182189012840227 23 30 24
0.2968675239200332 -0.302337519093799 0.9987616422113107 186 189 192
0.1548625896492002 -0.2121741539984856 1.232511890711859 31 30 32
0.08319632884018802 -0.20886630694830963 1.1723663060636176 27 27 31
0.08319632884018802 -0.20886630694830963 1.1723663060636176 27 27 31
75.69013585186187 -89.82569179180095 50.13900047932265 28 25 20
0.6866450037011181 -0.5375626863261679 0.9030210043848673 194 193 193
0.6941392463590842 -1.3747104619036599 0.7161889641165756 188 188 188
0.38321893535546026 -0.4694047442199316 1.316469057366892 53 53 55
0.32588609806372054 -0.3438587944154067 0.9644723455992595 177 180 181
0.2598562439447951 -0.5436471964595562 1.373998422076074 43 51 52
0.1069988199303305 -0.5719403075580055 1.2604589554139902 92 98 96
-0.08907375171699472 -0.4920273074065032 1.0535002702834653 158 161 162
0.338649269280877 0.3469695173971553 1.1697497890685187 82 81 66
-0.18874350993353822 -0.858426055090932 1.0011963781788795 171 179 178
2.499104493632492 -1.7324625105220453 2.2962999931297428 27 27 21
0.5033317432649488 -0.3755231034807014 0.9585019708106858 208 207 209
0.48229539396116494 -0.1579351653998324 1.2904105898242828 63 69 69
0.4811370680973059 -0.15686607930917215 1.295497840690065 65 71 69
0.47405261317692 -0.1159676324090083 1.285923201726647 77 85 84
0.4720029194770184 -0.11921124214450707 1.3097692342142568 82 85 86
0.3928191786530193 -0.11894049435761213 1.1949761616025625 196 202 202
0.3093939009288676 -0.11941385216554681 0.9809101376307379 200 200 202
0.29658773691990764 -0.12102073215193764 0.9826536829255598 200 200 204
0.36398270155710744 -0.12570682673300548 1.2543654013464764 79 90 88
0.3055900034463874 -0.22770957355651178 1.2243976577120874 48 59 57
0.3055900034463874 -0.22770957355651178 1.2243976577120874 48 59 57
0.33157555982660897 -0.12016610873198877 1.3600520660381568 118 117 124
0.22921435656763042 -0.10522168337937388 1.0540707034422037 192 192 194
0.2305968395606926 -0.10531293074616176 1.2411173190391078 205 211 211
-0.11842730189525881 -0.5203570417757613 1.151789460661028 181 181 183
-0.21327937019408136 -0.8121809140798187 1.4242876491153447 32 35 36
-0.1944959913554227 -0.6613526932602066 1.2750794869951116 20 23 22
-0.21554586216675303 -0.7175973367838155 1.405233223931129 189 189 191
-0.21070600114222465 -0.6590048523690347 1.3849177448398704 185 185 187
-0.21070600114222465 -0.6590048523690347 1.3849177448398704 185 185 187
0.4915956398294897 -0.5586033298327248 0.9211963119295288 204 207 208
0.37326607854106153 -0.226281889728141 1.0432184700044034 33 33 35
0.21351900358306408 -0.13139667109050113 1.2068058339568732 37 43 43
-0.005007614851723094 -0.25767484156262055 1.2495077541044906 59 47 45
0.6583345498040677 -0.9705228196732775 1.832816627994421 123 127 122
0.5283679925616279 -0.7754732984080183 1.2063351919725038 157 165 166
0.2010816276056241 -0.8459535405713328 1.7395820159288666 96 99 100
0.22105143363642227 -1.346327429132053 2.031650710778304 91 94 95
0.21411648636628916 -0.37489598802445534 1.1651088029174037 30 30 30
0.14551000252030788 -0.5124276916227302 1.3116121161678758 36 32 35
0.12436153139527048 -0.0013797194709080406 1.250309505555872 35 33 40
-0.7430082105353678 -2.949680412690331 0.983580044325859 20 23 24
0.16915425518832922 -0.8477937467829084 1.75240574246301 88 88 90
0.09003443937467075 -0.47351510887578574 1.2799337224132588 32 37 44
0.5992370842426007 -0.41173213440921724 0.9350388080405575 193 187 191
0.6786605755289834 -0.37197411087199483 0.8261547322683208 55 41 35
0.6424071726317583 -1.4004505769745 0.42920225695901565 28 25 22
0.4275426538140299 -1.286620579118502 0.8920633949605814 140 146 148
0.39990078844943633 -0.575805265362436 0.938938698081974 171 174 173
0.41976946968637685 -0.652945247675922 1.1855283433954913 28 34 32
0.37363469200578514 -1.153075396895663 1.4222383142460815 103 109 111
0.3109040792394162 -0.33462497574480843 1.2299054645628675 44 47 50
0.662704706925146 -1.331761826836033 0.5295141356072468 23 23 19
0.6165480136059431 -1.3956713477535685 0.5115928960589234 26 22 23
0.7067484584224838 -1.3658373319319357 1.6998095951819252 76 84 83
0.4402988638431248 -1.3345001028868244 1.5663942889937177 55 63 64
0.23410504417165096 -1.1934506291744376 1.1736677663913022 172 183 181
0.6756002193121244 -2.1722597387508285 0.27171068739311727 26 23 20
0.6756002193121244 -2.1722597387508285 0.27171068739311727 26 23 20
0.23791116888642616 -2.10837098358407 1.6696295156211178 40 48 47
0.1686457479778035 -0.02929564729991079 1.186036861155536 24 26 34
0.41371350713231153 -0.362525110682416 1.272327571143576 42 48 48
0.370027392501073 -0.19250333223256108 1.2038317565252867 192 200 199
0.370027392501073 -0.19250333223256108 1.2038317565252867 192 200 199
0.17049801500004136 -0.21887306668211395 1.1921325235263327 163 169 167
0.17049801500004136 -0.21887306668211395 1.1921325235263327 163 169 167
0.36080478302186153 -0.1507540881329878 1.361165907420514 99 99 95
0.3536820329468837 -0.1499328171566455 1.3612254336381306 108 105 102
0.3486509502239694 -0.15321265187556374 1.3646303669794901 161 161 161
0.3472942098450571 -0.15330950809253358 1.3629396126335291 122 122 122
0.34190983793641555 -0.15464454801110467 1.3617357601624571 156 162 160
0.34110406420852357 -0.15356837166274231 1.365314247811347 156 159 160
0.34129275396498904 -0.15665044477725917 1.3686949365977554 103 100 97
0.33741103436145 -0.15859119443912895 1.3656946327414 124 124 126
0.33558246601689573 -0.1574430406476687 1.3631791713584154 75 75 79
0.3317033112692009 -0.15787649310075147 1.3608095661605792 109 107 114
0.33164581068769 -0.15939744880066808 1.3682789964432491 174 175 171
0.3248221087925271 -0.15795993024443902 1.3523155340432933 98 94 97
0.32256657947107126 -0.1609478257085967 1.358842818922514 162 165 164
0.3212442665757447 -0.15979268647580888 1.3534524955152327 102 101 101
0.32052977556613044 -0.16253051888815007 1.3658605246111533 165 171 171
0.3201808710335358 -0.1617719484674726 1.3622131307599445 163 166 169
0.31861649654059815 -0.1654426726134988 1.37385109610136 120 116 109
0.3176765659240138 -0.16508161714919084 1.3669570874755503 165 165 169
0.31499500774918454 -0.16135601615571307 1.363000693462483 116 116 120
0.3156522791482628 -0.16668788450760075 1.3741369820339209 87 83 76
0.3134638019631302 -0.16351153799456794 1.3688681026673617 104 100 103
0.3134947562626773 -0.16378821877416147 1.3592822023924884 114 117 120
0.3137352277860261 -0.16584806912464503 1.3717119882730997 153 156 155
0.3120698140611954 -0.1658926755682655 1.367737666147522 157 160 161
0.3120698140611954 -0.1658926755682655 1.367737666147522 157 160 161
0.311327157775726 -0.16468957266691076 1.3637687069252633 162 162 162
0.31008290927881466 -0.16642096240351223 1.3703077025964754 116 119 118
0.30822586048836453 -0.1662002647402484 1.3645447844220917 161 161 163
0.307749359747479 -0.16783309066969035 1.3767329951971443 124 122 112
0.30434909600916454 -0.16935705467706894 1.372230322313593 102 101 101
0.30271557461860427 -0.16701097885712357 1.3602805073431947 156 159 158
0.30066074663756726 -0.16928733656570844 1.364860978510693 157 160 161
0.3000266158823994 -0.16906606129691037 1.37233577515953 117 117 117
0.29596189462868794 -0.1673888693674269 1.3590469974680615 120 123 124
0.29391851643120953 -0.16807374448618131 1.3571880654571564 101 101 103
0.2933706934178567 -0.17132906294592212 1.3769570388093646 126 124 114
0.2912402596009398 -0.16824267479418872 1.3594349681513007 144 144 146
0.2912402596009398 -0.16824267479418872 1.3594349681513007 144 144 146
0.2896971205026749 -0.16776273597760086 1.3612465535027722 108 114 116
0.28458242328425953 -0.17358589771403024 1.3725285315309252 159 162 163
0.284285457100082 -0.17138788344082864 1.3680485259017496 164 164 164
0.2834652958106243 -0.17090311582867423 1.3659590552931873 160 163 164
0.2834652958106243 -0.17090311582867423 1.3659590552931873 160 163 164
0.28262382040605494 -0.17284728892670645 1.376823735121365 98 96 88
0.28128664882740034 -0.17218832619017643 1.3681637025358784 148 154 154
0.2807352812902671 -0.17211835142082785 1.365627442953702 156 162 162
0.2792056543466826 -0.17329780184304067 1.3727381010284843 155 161 159
0.2778324479993376 -0.17166902529704078 1.363365586931102 94 94 96
0.2733127386229965 -0.16950703937974043 1.3492302651675219 141 147 147
0.2726778567361066 -0.17267438810354355 1.3636880709131074 107 107 111
0.2726778567361066 -0.17267438810354355 1.3636880709131074 107 107 111
0.26457735347202455 -0.17348244422138873 1.3641967163361783 92 95 98
0.2635937729912059 -0.1749777239677751 1.3675427729746572 155 155 157
0.26044950265461875 -0.17695526436981843 1.3707852365577906 143 143 143
0.2586527124331287 -0.17633999315649934 1.3683948978873257 145 151 151
0.25679935169799073 -0.17749904851310638 1.3714710461644117 152 155 154
0.2548816147731045 -0.17629882352967577 1.3684941332744602 143 146 145
0.24964798817195727 -0.17697685247225473 1.3639382551869617 149 152 151
0.2480740690908419 -0.17918415424374812 1.369649129362259 158 161 160
0.2446753528311677 -0.17849564161726084 1.3719392755313842 157 157 157
0.2439495149783322 -0.17720478617236307 1.361643457517741 112 112 112
0.23177978661028575 -0.17752071078973738 1.3596110401916077 148 154 154
0.22474691503099142 -0.1572462563103692 1.2408561215151606 30 36 34
0.18295206315729898 -0.15839641121675396 1.2061137824011323 23 26 25
