ply
format ascii 1.0
element vertex 714
property float x
property float y
property float z
property uchar red
property uchar green
property uchar blue
end_header
0.2793815335633189 -5.413926172348205 31.83074151901796 148 158 156
0.4653926066981856 1.1249610778166728 26.855099162166756 57 62 60
2.32123351123178 -5.330740446962778 31.108860273303545 106 109 110
3.6775066449697893 -4.640609548245899 30.51638908998201 174 182 181
5.063403919925463 -4.764249252296962 30.722317755531023 159 170 169
5.847445983542367 -5.074732193265236 30.83954276020483 139 147 146
6.224105995159517 -4.750889225286748 30.19437474812897 135 143 144
-5.110507126103022 5.56919056026253 26.249223729786255 202 203 204
-2.0874032404851763 2.61752829801248 26.28439849528092 39 47 48
-1.1827493036227503 2.025274791513311 26.479711201589602 192 199 203
0.2140277687871985 5.989237959506226 22.96601891333505 35 37 42
0.28125739818520246 4.764617106989699 24.560682928260462 35 35 35
1.9846950485242645 -6.001670409370433 33.61238462215218 100 106 104
2.178667835249874 -5.7760130472203155 32.964623017745026 150 160 158
3.7050877759959797 -4.929934403692411 31.801731328221287 113 117 119
3.7050877759959797 -4.929934403692411 31.801731328221287 113 117 119
3.2200367768849687 3.5364806542992655 24.383866697300938 29 35 35
3.704470612786203 2.063556430147145 25.097982170198225 189 200 200
4.671467038561799 -6.263909042719489 33.15530315403007 106 109 110
5.251607203537135 -6.33583775285982 33.238241278527234 109 109 110
5.858896963132613 -5.81786910767099 32.69491043521563 117 117 118
5.858896963132613 -5.81786910767099 32.69491043521563 117 117 118
6.141542750118907 -5.800158791045777 33.32037911379269 145 154 151
6.141542750118907 -5.800158791045777 33.32037911379269 145 154 151
6.0654777550846015 -6.637158098777946 32.15563601854854 84 85 81
6.1600124084576695 -5.161031903347667 31.37216177081306 151 159 158
6.635627395629041 -5.641313871994248 32.367264886917425 145 153 151
7.193058248320369 -5.465527961723697 32.74472113270272 132 138 138
7.306339700013342 -5.625421902783732 32.788235829062664 95 95 99
7.306339700013342 -5.625421902783732 32.788235829062664 95 95 99
6.532507313539129 5.686835367350564 22.3408608994726 31 34 35
-9.713850318842107 11.286973693690772 27.61160679226183 176 170 174
-9.190147784077073 10.96698599525679 26.81997749765372 186 177 180
-8.697920779888788 10.687542357521977 26.135538928689915 187 181 183
-8.697920779888788 10.687542357521977 26.135538928689915 187 181 183
-8.203923269895423 10.68089476024906 26.036869599762035 172 166 170
-7.728012206559712 10.384659892984354 25.381746697640356 166 160 164
-6.692623233179222 9.974797906925373 24.44417533574069 148 145 147
-6.409521871628004 9.87950016415982 24.032571608406375 147 141 145
-6.175804979833798 9.729667546822219 23.956207447227577 164 163 165
-6.175804979833798 9.729667546822219 23.956207447227577 164 163 165
-5.685926854595739 7.884085571589242 25.098473014688917 27 30 29
-5.6737729184297905 9.195439912259394 24.794872613643886 204 204 206
-5.288347132547381 9.478811511391765 23.018573265689536 153 150 154
-4.9301673790113805 9.401959701434246 22.809744542901985 137 133 136
-4.061714059873055 9.11258866408357 21.91309732905648 145 144 146
-3.894419916122762 9.051389060667903 21.922544491586955 159 154 157
-4.023014159491853 8.621063407520651 23.546016772655516 202 202 204
-3.4377470825399743 8.890300815574662 21.51570769013725 203 202 207
-3.1005891559395167 8.83303357622654 21.419547678286847 145 141 144
-4.672192488460676 -5.709654286436559 37.978353985679476 118 119 119
-4.672192488460676 -5.709654286436559 37.978353985679476 118 119 119
-2.572837642890764 8.307131778664834 22.356039858029053 202 202 204
-2.3549010526195633 8.655820005023456 21.0009271491264 203 202 204
-2.3549010526195633 8.655820005023456 21.0009271491264 203 202 204
-2.2769275270670164 8.627347754686179 20.938726803356253 136 133 134
-2.1324745168849826 8.712712150288596 20.91535892870061 142 139 142
-1.9162180131603952 8.629022166706676 20.739545904082505 131 127 129
-1.768939062711948 8.620453378537482 20.752470986019937 149 145 146
-35.04742351029643 174.82157136271724 623.9872402710857 31 32 33
-1.0709114905542814 8.48998045795248 20.375261791182307 137 136 138
-1.069471167647639 7.124838543418951 22.209117965814304 26 29 28
-0.622660844852537 8.443415976585621 20.212899126774296 131 130 137
-0.613668826192757 8.387314925932065 20.238434311753117 126 125 130
-0.6062080690574377 8.461376786353206 20.182529608030524 130 129 133
-0.5727590139383112 -5.706531431862174 34.30265377449459 149 160 159
-0.5333748534005023 8.389225523793906 20.10916774542383 193 196 199
-0.12541476096167514 8.417608520427827 20.14292440811486 160 159 161
0.018378297670408536 2.88978722226105 25.260341522817683 39 46 45
0.20637821732254052 -5.44224293559722 34.60922466847925 106 107 104
0.3478381649219882 -5.313343016421984 35.08790838053235 157 164 162
0.5849496111803708 -5.458911568620026 34.66243281898169 110 110 111
0.253996798058129 4.589891329934898 23.94545561783712 31 32 32
1.155985681305198 7.393173716861196 17.595458646625755 200 200 204
0.8448582565617507 8.264060273261094 21.5862698627635 191 194 195
1.1300375271192076 8.404605044364528 19.913549560089592 122 124 125
1.1300375271192076 8.404605044364528 19.913549560089592 122 124 125
1.246063853378923 8.33085335856027 19.739251230443866 197 198 202
1.3216743843220713 8.354875727661053 19.688708264512 125 125 129
1.3741856236669572 8.265607877669106 19.6947435588065 162 160 163
1.3741856236669572 8.265607877669106 19.6947435588065 162 160 163
1.529874233707752 7.86867528845521 20.82233657342618 190 193 194
1.6038526932549535 8.284878498602561 19.798127240377497 132 132 134
1.5957575457323017 8.391948541953738 19.713964979857455 192 195 199
2.122108452660616 5.788309552920228 22.12397046030593 184 190 190
2.3153183275158455 8.389645664488192 19.788305795087055 193 193 195
2.349849904830998 8.327314550320745 19.504592071934493 138 140 143
2.3812084105372793 8.2685855774324 19.73366809173175 141 139 143
2.578450222143276 8.45324691199167 19.96386784565566 127 127 129
2.591943249204537 8.504714692788172 20.05576927745314 127 127 129
2.8434859493541422 6.921875896646975 21.31663934613485 19 25 23
2.862487960641496 8.335377002116058 19.833775748783424 141 140 142
2.862487960641496 8.335377002116058 19.833775748783424 141 140 142
3.1482592034035695 8.339047665212226 19.77424565750152 111 111 113
3.1482592034035695 8.339047665212226 19.77424565750152 111 111 113
3.1493788622688696 8.403859327224966 19.680221978338167 116 120 122
3.1493788622688696 8.403859327224966 19.680221978338167 116 120 122
3.3010257138866166 8.408764463932224 19.780223162979834 109 109 111
3.4879829516273344 8.433599293428905 19.712294895549796 114 112 114
7.370819310752636 7.251749311232382 22.128313607818164 20 24 20
-27.341027751861564 -7.976140490392165 51.32897476382455 27 27 21
-5.213233821442185 -2.4274003861536775 17.321184685070683 66 66 68
-10.703840013349613 7.565769174971621 36.038463125018616 195 198 197
-4.899254176804849 -2.6546382673722997 17.535658134532028 96 92 93
-4.998681930478741 -2.747686244695735 18.946951389105305 138 139 138
-4.629611245931215 -2.7004226865541145 18.284936497663654 109 108 108
-4.629611245931215 -2.7004226865541145 18.284936497663654 109 108 108
-6.21381611458247 6.5495860703185835 27.7346145003289 41 35 28
-5.103474497304531 4.758318844993991 22.951960931686617 189 195 195
-4.205836616618342 1.4857265346982997 20.41224813482142 55 54 50
-5.229257660681906 6.310897815997459 25.485439778492598 34 40 41
-6.3515069667799064 -5.75733852319239 39.00907028033847 108 108 110
-3.97607812444637 0.8185703472490523 27.141570642241195 50 61 59
-2.9444752547525943 -4.564896869389945 26.290606557868653 100 103 104
-3.1125242120476515 5.55993891551316 24.69952050239466 24 30 28
-3.5750466505139835 -7.255738021513182 38.643589667276984 95 92 86
-2.64975260670262 -4.930062641639847 32.33884694230439 116 116 117
-2.64975260670262 -4.930062641639847 32.33884694230439 116 116 117
-1.7693169391447 -0.3260963071754196 21.095404274578435 68 78 84
-2.040027458769491 2.550338012312177 25.89803201242934 36 44 43
-1.8215883221599372 4.634527547052838 26.296757916538336 31 39 38
-1.0198215566810396 -5.4920221697397436 32.68544860209579 96 96 97
-0.09633171144017666 -5.049036012234902 32.20372923933279 96 100 102
-0.25251439216735994 1.0471120533425449 21.193014202215778 54 59 62
0.1436774624911198 0.7699926845140397 26.688989125310712 51 64 62
-0.0902326816800767 0.8401546776394446 20.346731287818418 189 196 190
0.4997965836158528 1.1560187402513127 26.788690697837247 49 56 60
0.38689171658243915 7.055781064026506 27.086759232534238 26 32 34
1.7633830824459433 4.155660328936075 25.201243780439512 31 38 35
1.6330776181156905 7.142374198114577 24.006797549608084 27 31 31
2.2346121066717832 -1.1755254239838009 27.310517110070347 194 198 197
1.132604263067139 1.661793424849239 17.361802790770344 39 47 48
1.132604263067139 1.661793424849239 17.361802790770344 39 47 48
4.365912502268014 0.7477384978096336 26.734592593157267 48 56 57
4.365912502268014 0.7477384978096336 26.734592593157267 48 56 57
6.12966620387442 9.455934656926823 33.18460335508001 28 31 30
23.847569923547443 4.2054744526765 88.17192703026043 40 46 46
4.2152667834643776 1.7441799130036877 18.004710577295562 35 41 43
6.19304948755232 4.298345191002461 24.081060899145708 163 169 167
6.19304948755232 4.298345191002461 24.081060899145708 163 169 167
8.545259304619988 3.6234040377912144 31.16852630789931 31 34 35
7.856589109020423 1.7432289219403303 26.11590711825658 190 195 193
6.926647692227985 5.67192089536125 23.051763812455555 170 176 174
8.724102000108436 5.900821620695402 28.08548430245061 24 29 27
9.263673511431655 2.4238763641993573 26.310297463832523 196 197 199
-5.871555318820235 9.166716490064806 22.288423925478217 199 198 198
-2.566851934078989 7.717780328913343 18.74787641640745 142 141 143
-5.921263345192241 -6.565458762838008 37.401317707856705 105 106 103
-5.64990062096087 -5.538047997035013 36.11595899832012 147 152 147
-5.4244941683361825 -6.279732008706903 36.162853575771926 143 149 145
-2.3306699578754984 8.31448679145774 20.18642650298668 134 132 138
-2.7317905561770788 -4.83276045864907 33.53870325126283 116 116 116
-2.7317905561770788 -4.83276045864907 33.53870325126283 116 116 116
-5.972764114594861 6.128904307758699 133.6510751192565 48 59 57
-1.9636108944353217 -4.786285897276164 33.055219207709946 119 122 125
-1.9636108944353217 -4.786285897276164 33.055219207709946 119 122 125
-3.6527924610372717 14.857581973341551 35.103637782810175 200 200 207
-1.2480477977855955 -0.48172457505168115 28.725810476111093 60 70 73
-0.5501971176305536 5.46283878081585 22.174801429745372 64 49 42
-0.017019639501242995 -5.808306505889003 34.08115135579518 89 94 94
0.19215619299880787 -5.070030134843948 32.15226811171782 106 107 104
0.686596213143859 -5.542850851546319 32.77191401552269 147 154 147
1.3810292536601985 -4.766077236135139 32.13756299790612 122 125 126
1.2053553287973306 3.7047485884863485 23.16036165440878 183 194 193
1.2768176104824591 8.080832921161647 19.0531882776563 125 125 129
1.5029934707287225 8.064818336188178 19.07090631466599 130 130 134
1.8893208224237814 8.165360097886126 19.287056212993157 169 168 172
2.1076272486074155 8.08577552909226 19.088761223178977 192 193 200
2.592922783315699 8.080907347634218 19.08724751861077 181 187 187
3.117688927256093 8.117212002637244 19.127588413031553 180 183 184
3.117688927256093 8.117212002637244 19.127588413031553 180 183 184
3.3713517112798463 8.092445106866437 19.169817735819763 110 109 113
4.853380318225713 0.5446660333057459 26.027533214767963 51 59 60
6.023492289117587 7.332326627616211 20.487045094500438 26 29 29
-7.966784572923135 9.06715480555962 22.28407067585178 154 151 152
-7.250058122553505 8.873580321344132 21.78224494153951 200 200 202
-4.46204510623974 8.322859522179563 20.29060822807693 128 126 123
-4.187517192372146 6.200367662583666 22.901545843076985 32 32 28
-3.8081397435820903 8.24618379439128 20.07742303388686 195 195 199
-3.736483471051549 5.737420657272783 22.562461200845 34 37 39
-3.9106985560088545 0.7704954773982936 26.645279155339757 50 61 59
-3.2817258285730633 8.100406301692923 19.740281508626744 145 146 154
-3.1862129229879783 8.184861467270489 19.737332148442132 140 137 138
-2.16517884314398 7.973675268165329 19.45499008738086 118 118 121
-1.9655644442002818 2.3666517584719204 24.446389433181647 36 44 43
-1.8970792600249913 7.982707070370909 19.270984795655433 197 197 197
-0.8015112500278162 7.927921070963672 18.959992752218223 132 134 136
0.08825869857976992 0.7156509575710671 25.148035706001878 51 64 62
0.40216140896219355 1.0535902361491762 24.823418256221036 49 56 60
0.2588993722499281 5.834113377454032 20.548522854145183 29 30 32
0.2588993722499281 5.834113377454032 20.548522854145183 29 30 32
0.519595411059922 7.758895138400095 18.699530754429645 108 108 112
1.1160377894742726 7.743361808366659 18.421915391587405 190 193 196
1.7140328493832384 4.223367522621432 21.956628001818196 30 33 32
1.4549520396190871 7.771388813595515 18.571184764100042 156 156 160
1.4549520396190871 7.771388813595515 18.571184764100042 156 156 160
1.4533421423677795 7.838058658819079 18.53103333867513 182 188 190
1.924866275746637 6.845317175917508 19.61677764739007 24 29 29
1.8577296333479751 7.760046867872183 18.493804736337168 178 181 184
2.60116981429881 7.804114390009792 18.42243586421094 138 140 140
3.036327965559155 7.812492256602539 18.514253713092035 113 113 115
3.102010600476861 7.815081460731635 18.521847515357074 178 180 182
4.8964047456147135 3.369369086173398 22.279113791067907 45 43 45
4.428806096683012 6.27804567788074 19.758080121096473 171 174 175
5.210249139748414 2.863640262276833 22.423116314149972 29 34 32
5.740631877427319 1.0817467261575076 23.955900525521418 40 46 46
6.056325557181977 0.6990898079997125 23.922154063449664 36 42 47
5.775164776441518 5.531089770404779 20.875022997749213 172 173 171
8.529535690415969 0.7379387411161878 26.18342349912255 39 45 47
-74.54211659001493 -23.85984987230019 153.31503893606052 106 101 90
-0.055548017225292214 2.7119616934529502 23.717111372053395 41 45 46
-0.055548017225292214 2.7119616934529502 23.717111372053395 41 45 46
-0.1671234111849191 3.8353685813668736 22.002694891654734 31 37 37
-0.1671234111849191 3.8353685813668736 22.002694891654734 31 37 37
2.0354370853233297 1.0596912299500003 24.889554027803683 48 54 54
3.859096527937952 2.3515434839030327 23.5432799886836 189 195 195
3.9193000520767156 4.109963535951137 23.18137896486699 28 34 32
3.4509580784097373 5.9407925769340855 20.851509820812147 24 27 26
3.4509580784097373 5.9407925769340855 20.851509820812147 24 27 26
4.177797778895301 6.920374525413806 20.24621771713692 24 27 26
6.685444061638094 0.6996705608044087 25.799660545518527 33 39 41
5.390174821217283 5.473694242869181 20.70477586321691 28 31 29
-30.84118457734 -10.296769684213425 58.40898758404282 122 118 104
-103.74469152007684 -45.19412250028816 255.50460206799536 38 28 21
-12.978298835658714 -9.260543232374669 52.60084843817504 87 85 85
-11.743404303337478 -7.296524478818509 48.87688185119609 97 100 101
-8.551873768909912 -6.40260720180701 42.44229808232788 162 167 165
-6.088247008583349 0.7145885620824236 31.148495899870223 52 63 63
-5.622263345071969 -5.781150392254229 38.6270835749734 124 130 128
-3.4790972881134192 6.760886764266616 23.239278978930518 30 33 34
-3.050449971597209 -5.165843811641826 33.10771429671247 161 170 170
-2.49479901271407 6.589045425407449 22.782525179492367 29 32 31
-1.2122174218904074 -5.447289778526452 34.13464288192822 159 165 160
0.13229029726486552 -5.997813276161687 32.72718923971618 94 99 99
0.4411796510577107 -5.965906468753459 32.40358151269943 93 94 95
0.3090526351090488 6.202446165067754 19.869003986836685 29 32 33
2.136654806138078 -5.730326715616925 32.311125744678264 82 84 83
2.9603477639910913 2.011145281472629 23.618079679662145 189 195 195
2.9603477639910913 2.011145281472629 23.618079679662145 189 195 195
3.3544456981469675 5.682026905863636 20.231369418241005 27 27 27
6.08108072149177 0.35503407085238625 26.186567348777213 42 43 58
5.770589210695242 2.3317961952150585 23.39465655618391 29 35 35
-8.272986779248427 9.893288672705033 24.158444699497927 186 177 180
-6.645198745836337 9.406118867842245 22.892055694166068 178 173 171
-4.194198330976493 -5.894752649625692 37.100976945574104 109 110 106
-2.8536381684534757 0.6257224483500454 27.67305797607637 53 59 59
-2.703669973505299 -5.185052870404904 34.81210603257302 161 167 167
0.025329602376513057 -5.737126692307823 34.273800338734816 146 154 151
0.3611395947675436 7.793868416714628 18.596212362068233 131 130 139
0.4775418506174038 7.8857670396751365 18.92581292249195 148 148 152
0.6941181781072759 6.249064726903695 20.314861367454988 184 191 193
3.937462322672199 1.2847627232169987 25.400218485375863 51 59 58
-6.4744052478188285 8.457208895432816 20.91438616158404 146 143 143
-11.257736037114375 -6.8666463403045945 45.54455689988849 79 78 79
-6.045631181601208 8.364221758093759 20.61227253759488 152 150 150
-5.5349288656549325 8.15148799955572 19.994615732218215 189 188 191
-5.5349288656549325 8.15148799955572 19.994615732218215 189 188 191
-7.422954675323531 -6.077828334304413 40.62595380716087 104 103 103
-4.541941521904352 7.878013721131694 19.28012637099534 154 153 156
-7.371017817973095 -5.940254863959251 40.36866446952867 163 163 163
-4.106783902015349 7.7923363559577155 19.08773076186846 153 148 150
-4.790253752295306 2.1973366669390386 26.59339563499759 186 197 195
-5.583224382850548 -5.383803790663954 38.01868930145565 131 130 131
-3.711735817574611 -5.330173538510444 35.00775593946379 117 117 119
-2.634040207181043 7.956209248591027 19.34945986853136 148 148 149
-1.935809888866168 7.406278875983211 17.951701165111302 122 122 126
-2.0313599283582793 -4.969607844920004 34.504111256212774 134 133 133
-1.754909391827816 7.362086530883576 17.862175269501822 123 123 124
-0.5751559165785327 -5.623143155631307 33.954662154638484 138 146 144
-0.15895857324131737 -5.554502781314152 33.4791206589722 140 147 144
-0.15895857324131737 -5.554502781314152 33.4791206589722 140 147 144
0.02267399846916142 -5.422485841741119 34.11466331932309 155 167 164
0.02267399846916142 -5.422485841741119 34.11466331932309 155 167 164
-0.6998446227575612 7.227469305932516 17.607521589067705 189 192 193
0.6414982636840425 -4.931243392533076 32.79916628663117 158 164 164
0.2757686408779435 2.2699601822831377 23.013167388066314 38 44 46
1.2714460819206592 -5.7121147605247335 31.6763938200867 93 96 97
1.666110426585098 -5.400148986563229 33.53382926285118 142 149 148
0.41723584798392727 7.1418670244632665 17.30281394094249 108 108 112
1.8933131977396382 -3.4813177010106204 23.512908823153104 101 106 105
2.5757566567840575 7.258960322402762 17.120783687540843 178 182 185
2.61366174602466 7.2202730913728255 17.196081745136528 138 137 139
4.937494037654468 2.2343099151373176 19.97442452716359 195 200 198
-27.212023572512226 -16.865528929073978 111.24904830602674 97 97 93
-7.190589665250876 1.1375565955497264 36.3761502670191 58 65 68
-3.5189148749474275 10.028667411993213 23.881791011232153 142 140 144
-3.403106719613148 10.175882109120247 24.384329760298 195 195 197
-2.5218484903625313 -5.090156675832259 33.36308994204191 104 109 110
-1.5117866350380782 0.7343756208985873 25.85896883926867 55 63 64
-1.6964771843286228 4.767333132375236 25.032680479089525 183 189 191
-1.6636344939086343 4.4395350953353 25.444085333613742 30 34 36
-1.5495363601798515 10.413439693917299 24.865324840291887 138 135 140
-1.0641597226172383 10.281956770855684 24.261051010301255 135 135 138
-0.0036115723506347877 10.558190799012905 25.03917275354859 126 126 129
-0.0036115723506347877 10.558190799012905 25.03917275354859 126 126 129
0.8404033541599603 10.181305889070545 24.059853441860042 156 156 164
0.8404033541599603 10.181305889070545 24.059853441860042 156 156 164
1.8043015599022896 11.213228869791754 26.294167867726934 147 143 148
1.8043015599022896 11.213228869791754 26.294167867726934 147 143 148
5.242651478579978 2.988783107894063 23.318663998725317 30 32 33
5.7460588161996515 3.959740512250996 23.653603468919147 27 30 31
-6.487551162188423 -3.756536705565269 25.63644048666094 114 110 107
-5.517194882060495 9.573077166247865 23.229379712880696 194 197 198
-4.376478966590701 6.694180266957014 24.560404572276937 28 32 27
-3.8376965720323253 4.725169256022203 25.124970703854352 35 34 36
0.2609211497616864 -4.308280308702332 26.396650847114035 148 154 152
1.288804691673344 10.614544180185925 25.143909520796175 113 113 117
3.3567159312022454 10.786984937669054 25.16423127755822 175 176 179
3.3567159312022454 10.786984937669054 25.16423127755822 175 176 179
4.903575578763759 10.667699679597664 24.70476621198032 112 111 113
-10.202717098801193 -8.696040228826124 55.20574613650139 118 118 118
-6.991032938439163 -7.25492235684748 41.524383945461814 99 105 104
-4.355275743704276 -5.627407255714444 36.95825782171395 120 124 122
-4.355275743704276 -5.627407255714444 36.95825782171395 120 124 122
-4.609731949515493 -6.461039201749855 41.6007177095122 163 170 172
-2.693583504242675 -5.324659101199527 35.4784094777446 163 169 169
-2.808981185742495 -7.395982980618364 42.09911942706167 113 121 121
-2.2443747587944363 3.450097841311382 24.79455273269758 34 40 40
-0.8036498320690597 4.4731182233367255 20.464570174702388 38 41 44
1.0643236396123343 -5.575027089786535 33.58802254497262 98 99 101
6.947390374004899 0.7473935584632584 26.652448113554335 33 40 44
-38.60217104194406 -4.5571977744999135 92.36991437763507 21 20 16
-3.9820995015304974 7.1227906267672365 20.719105081781315 34 39 38
-5.852123811065369 -8.71348923160561 48.71420659122462 102 102 102
-2.2596161853991403 8.244860048951288 20.098608634253548 134 132 138
-23.858024449259016 73.63129801073802 166.2673802128708 149 148 149
-1.222776969107219 1.5088520368201068 26.26645649868629 47 53 55
0.27086233675197174 7.940006520674284 21.088926082090886 193 196 197
0.9873914265592609 5.052064717448208 22.35980562155016 22 28 26
3.723204638703345 9.008231025990712 21.11629990803501 116 116 119
-4.762328239690493 8.215959779888072 20.29467450830815 148 144 147
0.8076247910535775 -6.652298449664684 44.24896790007465 104 105 110
2.619101399707588 -6.25110680417937 36.06190261074486 100 106 107
0.8944247236408375 8.65419486438774 20.623510174417657 187 187 189
1.3297953298428251 8.671064855289199 20.720000460057527 126 125 129
1.3297953298428251 8.671064855289199 20.720000460057527 126 125 129
4.9718468516420735 5.171177981812843 22.532087802948496 22 25 23
4.895181436745786 8.436145827585785 21.098510579826925 174 177 176
-3.018047170869973 8.907157628156135 23.243234496477207 192 195 196
-1.5313590911353756 1.1176882975545084 26.32267300109007 191 197 195
-1.0701284828434992 9.062841198970888 21.7417246658411 132 131 135
-1.0419482533970115 9.11078624278624 21.709805615539164 183 189 191
0.1804639944488072 4.167035194347019 21.894153627034942 29 31 30
0.04737102171004237 8.903657334602096 21.27160722988023 162 162 164
1.3987690120253053 3.419652797130921 22.857591462865365 182 191 191
2.0313078804292357 8.965073960346578 21.266373447572924 124 119 121
6.969567361602316 -0.617148980693494 26.53267724107939 47 54 58
-7.184955962251644 10.396170550486213 25.017710326881947 199 198 201
-6.958891558264681 -4.700538331301619 30.019557418479945 107 107 104
-5.493726550335753 9.945123510111232 23.951774113445303 202 202 204
-3.1479959334832324 -5.022967103340287 27.3485756924273 101 104 105
-2.281224829667134 3.7318218364546105 23.06267431467438 31 34 35
-1.1121954052981942 9.143765598171592 21.69529310860285 135 135 138
-0.8235855456780817 4.950585974096657 21.789078646060446 181 187 189
-0.11891846320050091 1.2539262518787866 25.34457838021508 55 61 63
-0.04653376968074226 2.275970053036005 23.20616355140775 190 198 197
2.979778083508632 8.903311995853745 21.088348900118266 175 174 180
-3.992007273379332 9.554406242819846 22.785591738143143 144 143 148
-1.0298451364891286 8.099489474021395 21.4107242689209 187 190 191
0.3386171571974961 7.113131619805858 20.93105341215182 36 36 40
0.716419749647523 9.034284382961737 21.281618472622426 142 145 146
2.0896435743502746 6.003863025911879 21.614203673464953 27 25 26
0.20350395549157196 -0.554582736888869 31.106681256679977 64 77 76
3.6105543383048517 2.082890804478238 24.76489267585702 189 200 198
-3.276822466799024 6.5249613889760685 22.336885932893885 31 34 35
1.925599129077705 0.46211220756398347 26.653275209804537 60 70 72
-1.4395400229027169 5.536476775790174 22.60379816714644 31 34 37
-158.81796916848992 -113.76936113377587 811.4621844266646 127 126 126
-2.0282150112571884 4.303777465416381 22.83527759538637 31 34 33
-2.0282150112571884 4.303777465416381 22.83527759538637 31 34 33
-0.6396503107640353 6.609307496165856 16.233464458726782 130 129 131
-0.12823216877826274 6.745750766008666 16.315287450388674 187 190 191
2.000966845720619 -6.3957512313381555 45.38536701094104 135 138 138
0.11839719289125046 6.4614347868086455 15.700330966115471 170 169 176
3.5558612142775217 2.5652972185290346 22.220729203528865 35 42 44
2.7056518226912742 6.679438907620597 16.030381844417224 177 179 181
5.861034885097617 2.4055673591311257 23.75621075456185 35 41 43
5.685087660190184 6.8229933916832195 19.374574656643393 20 25 24
-7.9906251700918824 -2.590155572535719 23.611514161085516 82 82 78
-8.037456577111012 -2.8939470798825373 24.13168558370392 86 86 85
-7.712908053679584 -3.38571350161349 23.585780616152327 92 86 88
-8.044074276877987 -2.0822293385980157 24.189053123361298 113 117 112
-7.761656403725108 -3.4116209347270354 24.44329845259023 134 135 131
-7.761656403725108 -3.4116209347270354 24.44329845259023 134 135 131
-7.388553052867681 -3.40907269160444 24.017497914989214 96 93 96
-7.388553052867681 -3.40907269160444 24.017497914989214 96 93 96
-7.478786656477912 -0.9938079566339973 23.390235770754952 70 66 67
-7.536032471562401 -2.8979131474879227 24.519601933050144 91 88 84
-7.350387654633645 -2.121939997728672 23.896294335176695 92 87 84
-7.233744265657929 -3.4086607781814497 24.11552342148293 94 93 94
-7.264301397265481 -1.776907400843876 23.575821414590475 194 193 186
-7.16260340886451 -3.29038844766986 23.880395268067744 147 147 146
-7.315266067711221 -2.4380709771749594 24.081754984816506 118 115 112
-7.319335330923048 -2.631549635668353 24.20596573713271 103 99 96
-7.127014777430651 -3.339085165768751 24.369730247532065 192 189 184
-6.72624287038804 5.930661646471598 29.781493876253336 42 42 44
-24.349512696102288 16.051437954514967 126.95813793306851 35 43 44
-3.307773727391651 2.37880916741826 21.880948734018205 184 190 188
-3.374020940485035 5.765218240522617 20.65473718855486 32 31 28
-3.4099647322772446 0.06088094804863942 29.098093797481397 60 67 71
-2.664942367684383 0.08681248567978964 24.7135381028737 67 73 75
-2.7038272364828284 6.507239494876925 20.768897276024234 176 184 183
-2.2505393198204335 3.0115347454269172 20.974800020625377 177 185 182
-2.4682846936154768 0.18564622621371402 28.80393234074341 188 191 190
-2.255574219538561 8.902449671774573 21.4288874984159 159 159 161
-1.716948243304087 5.630223349646799 20.80719217577886 26 29 28
-1.1080034662782448 1.7563397868692772 22.511185220895904 185 192 192
-1.1080034662782448 1.7563397868692772 22.511185220895904 185 192 192
-1.0832522337774237 1.6295206639969628 24.68363879514834 51 54 57
-1.0724430753406085 8.81743501949912 21.229134936963728 121 121 122
-1.0513653416167963 9.208786160643223 21.950118108823613 178 181 184
0.612900612320592 1.247483827286004 27.700314578624756 45 52 56
1.6594670771073161 0.4688972789013448 29.99794566766684 59 61 67
1.9085091981431503 1.0285761699590084 24.06472198050275 44 50 52
2.3096222005219307 6.335689976887501 22.74071786745325 24 24 24
3.0854872369579476 7.159962415074171 22.049681062314008 20 23 22
3.304561257676053 9.420180491226294 22.17231449067191 169 174 172
3.3893803803088067 9.57814128117153 22.317365210990346 125 128 129
5.521999017009024 0.47528923080023133 28.932945238539155 40 43 45
-3.2958348781745945 8.835512928901746 21.51188262606118 158 154 157
-2.0022797270915764 2.5918222783425744 25.764601019640608 41 48 47
-0.3415568626933063 8.635537138824974 20.69401217824282 140 138 138
3.400963380912229 1.6904437954563687 25.47460559747384 45 45 47
2.907650886971747 8.66481437132952 20.312020090568936 192 195 197
-2.7993511283298154 8.839748528784767 21.386041360485464 148 148 149
-1.8309744945274062 6.3720793681639245 23.139076788102795 28 31 30
0.14521166298712276 5.492946154701463 30.6962268117472 27 35 34
0.14521166298712276 5.492946154701463 30.6962268117472 27 35 34
3.7094407976639596 2.0637585487684693 24.389324807935278 41 43 49
5.641668721461757 5.683276845310132 21.5369815227041 30 33 32
5.641668721461757 5.683276845310132 21.5369815227041 30 33 32
6.416533375922152 7.490579587696402 19.517865445841057 177 177 179
-5.255165765505668 9.145416640418585 22.22371231146835 129 132 135
-3.3722102799981317 8.8897785234851 21.450919654614594 187 191 193
-2.4539827207125398 4.148812874519192 25.412618894674708 31 34 35
3.02584695163857 8.744599199650688 20.819112918595906 130 131 131
3.2681341437862996 8.944520899625912 21.13590995388036 176 176 176
-6.673644808412541 9.202215386520823 22.364178610372118 199 198 201
1.5434819935977528 5.298506814003787 20.60111403970283 27 33 33
1.5434819935977528 5.298506814003787 20.60111403970283 27 33 33
2.087397835201717 4.496680228113684 19.625495073245006 180 182 181
3.0117659999615567 8.349406992648067 21.643362328535826 181 180 180
2.940732062426581 8.74850878021837 20.732270565503192 175 174 180
3.0991134255544113 8.821853538695523 20.86490124838353 178 178 180
3.841382616739451 8.878326514488295 20.981201786221824 107 99 106
5.572160105650785 3.84873085698401 23.14595414861642 27 30 31
5.996706532939805 1.8671731876167694 22.35155490122161 196 202 200
-2.1188741341707367 8.656886258688314 20.87435440614699 183 183 186
1.9402022598895308 8.664272343618384 20.608828007293347 124 119 121
4.586298119351755 3.291765560309148 23.157723386660063 170 177 171
5.697235395077393 2.3392234856249736 23.20454909129106 32 35 36
5.954605038860208 6.68186761815995 22.755790059059922 27 28 24
5.954605038860208 6.68186761815995 22.755790059059922 27 28 24
1.014378973100058 0.0166156018806452 26.39523893849515 196 202 202
1.5075387760601047 3.575315900898167 23.800761143939404 182 191 191
2.383758168647332 2.818950146771266 24.659300888637325 38 42 44
6.413841290946107 4.166505776321084 23.423692019127483 27 30 31
2.206966250588477 6.274425421093942 22.460185080799032 32 32 34
4.488217227172523 -0.7697452689624605 27.792852844518162 67 79 78
-6.116569663814029 8.069318585109798 19.998295788664766 136 130 132
-4.241053022663014 8.035293019453853 19.792569640301952 187 186 190
-0.6413659051785597 8.18697101534182 19.795261783158146 174 178 178
-7.207159457552537 8.871812197127902 21.633346977270246 136 136 132
5.391890809319428 4.243740508850863 21.67984054316069 21 24 23
3.830340310353719 5.78899773166644 17.876096764534786 24 23 23
0.17278305364950147 5.912386803152572 22.664737553830065 32 35 38
1.9075016399720264 4.475806636746535 23.28144014334782 33 36 31
2.140682108306704 8.83004548209061 20.75137622839401 191 193 198
-6.625389677580429 28.03887931209061 102.8616900540709 27 33 33
2.4423553212085705 0.8228446970562148 25.942750247321605 55 57 63
2.4423553212085705 0.8228446970562148 25.942750247321605 55 57 63
6.592319094242371 6.516721577103347 20.047624158059698 15 23 19
52.075408125256594 40.86970636546959 213.0898103307944 23 26 27
5.943089429253401 0.07310141752618757 21.2515520461829 26 32 34
7.355804592419178 5.05813723164295 20.043963691795295 173 173 175
-2.4748843575051342 6.512357553091165 22.55539357920504 29 32 31
-2.429698329340028 7.385097723585799 21.867151037511388 41 43 46
2.083622949038858 8.320078045604083 19.870933809848708 172 175 176
2.855063005399718 8.31769024060032 19.596551681197084 129 126 131
-6.941186835524509 9.307890217004829 22.78637589124915 145 142 146
-3.5980738032652972 6.513817357057198 23.016457980966642 35 33 37
0.16152893449790792 8.26425243182488 19.992946146279877 142 142 146
0.16152893449790792 8.26425243182488 19.992946146279877 142 142 146
0.6765789155282468 8.22780368884236 19.83664209634735 118 116 119
2.06115118088904 1.184530787853998 25.508538359278425 40 51 49
2.06115118088904 1.184530787853998 25.508538359278425 40 51 49
1.3820636312420624 8.360829601536922 19.69224906282872 135 138 141
1.7999994965052928 6.529636232641638 16.018376556570804 181 177 178
-3.9522113368800587 6.283722531545115 24.080858085213755 39 39 41
-3.9522113368800587 6.283722531545115 24.080858085213755 39 39 41
-0.7696124014855659 2.888922245562295 9.587159549451131 136 134 134
1.6345526035448712 8.186958517889112 19.786811199319786 100 99 101
3.6696785434734793 4.6380819403761295 22.94720483987248 17 23 22
3.6696785434734793 4.6380819403761295 22.94720483987248 17 23 22
5.76235550996681 0.2985139820929672 25.644341371618896 169 176 174
3.7181055492983037 2.103782649996737 25.240059540810194 150 162 157
-8.71907358604417 10.083591835644713 24.12753374516369 123 114 117
-8.156436657158046 9.892185983804856 23.744383284381254 195 191 192
-6.09684374190741 9.266887671924655 22.351479291021377 184 184 182
-5.992355016935251 9.246186702272565 22.334318770495294 189 186 185
-4.926537524003104 8.941674599687707 21.66922039419438 124 119 124
-4.477899879748392 8.830306288721156 21.389544588387846 184 180 181
-4.008874607806949 8.72440964655039 21.09966282776178 185 186 189
-3.5792137201291316 8.630169498924346 20.963379983043524 122 118 119
-3.14487812271925 8.48730100174926 20.731682593982807 175 178 180
-2.92974858290766 8.529652031911079 20.6789909719877 175 174 174
-2.5914569470119964 8.464580833185869 20.52821288864791 178 181 180
-2.1941206319760083 8.462392374552941 20.397336557240127 113 113 112
-2.025558444103684 8.406941928706658 20.260225612472595 120 122 123
-1.877627548977068 8.342177611138412 20.316271517711485 129 130 130
-1.6570270845631943 2.945231996822949 25.5990870908983 22 30 29
-1.1457035584887767 4.532309531620535 12.727655190585525 125 126 130
-0.7157048034583509 8.312342525642478 19.95821505592141 105 103 107
-0.6898218320367098 8.217810276329242 20.006771280215418 157 160 163
-0.5600554096219409 8.27515139525711 19.86571658074187 166 174 175
-0.5163078267792145 8.263937225565286 19.913516961731226 103 105 106
-0.3783856068289788 8.284556158138848 19.89513865790285 119 119 121
-0.22860732128595068 8.238994697775299 19.98350566028532 113 113 112
-0.1103647347814099 8.249506726089388 19.885214363451652 164 166 167
0.24949237663681295 5.797439819403968 22.424473435407094 10 18 15
0.24949237663681295 5.797439819403968 22.424473435407094 10 18 15
0.6488036365868936 8.228194228924684 19.67885535116333 104 112 113
1.0644617165250694 8.195885429280032 19.703062825260638 154 159 158
1.6560919367855396 8.223621589955895 19.670536508938586 94 93 97
1.7410382371322186 8.258162120909962 19.663792083178535 115 118 124
1.7937183300424075 8.251625843949638 19.717966419830887 157 161 165
3.09420700731951 8.353046280430526 19.781585800735936 101 102 104
3.427386555672805 8.382768706134055 19.808358207852894 102 106 107
4.204557129703168 5.776114750668123 22.14132349729845 15 18 17
4.204557129703168 5.776114750668123 22.14132349729845 15 18 17
5.354714188154776 3.4546803648055575 23.01025448919588 139 147 144
-2.5748517984869292 8.941463052814244 21.551817864972804 197 198 201
0.725095154176735 6.8399380462624215 22.09653454225793 184 191 193
2.5673609617593396 4.689306917154362 26.411956220785427 32 35 36
5.467786130182572 0.23037770111531863 24.25844803725382 187 195 196
-2.7545693628480348 8.698399953471876 21.03471768163708 167 167 171
2.45862895188508 7.824191026121507 18.61058856031253 181 177 178
-3.2250116939589684 2.205960797712776 29.75689062494064 38 47 45
2.516206714077705 -0.3644126452869454 26.528834049732023 66 72 77
2.5497414233611093 0.6933247632924636 25.90982733810981 55 63 64
7.6930830997215365 1.2000215747536938 23.8630079811542 50 52 58
-2.7292877822917743 7.231547482612907 23.794774160420374 34 34 34
0.5070915138764709 1.1412912623293205 26.60851328742164 56 61 62
1.9373875277578414 4.627072620921283 24.022783769792028 36 36 35
0.153287917246347 0.7820627481992681 26.558971882231138 38 51 49
3.0135706066370824 12.180651674347642 27.444563701341934 116 118 121
3.4779787524650674 1.9898951027835048 25.43253795699451 25 33 34
-4.707703066697352 9.147750731219977 22.05553939384383 124 120 121
0.3879103449668874 2.623481868936135 26.05060070070763 24 30 30
10.269740650277505 4.8138233284949665 27.868473658188865 21 24 23
-7.409243508985807 9.056053697394585 22.178387408518624 195 191 192
-5.035869299903974 7.220575416597164 18.396553371568164 195 188 189
-4.7679581349067215 7.684296479363951 19.273116121397525 121 114 112
-0.2764039014531988 2.0943177826408848 7.92758568955184 184 180 181
-0.2685561991593465 2.0921615108085896 7.92437533252501 115 109 111
-3.4441350903771224 9.162291194629908 22.200351968029818 130 126 125
-3.2824498842547642 9.303524174151606 22.25210506440182 175 174 174
-1.906764841739596 2.570187051844934 25.00568344349518 21 29 28
-1.574094870992164 2.8946788584357885 24.800104593769316 22 30 29
-1.738311613836718 10.487318510244167 24.46491538991741 168 173 174
-0.2992330684525953 7.415431226423809 26.321165009569413 16 20 18
-0.37894898517534 11.110237309480679 25.565579317206442 107 106 106
0.7569588636906982 11.826487661835047 26.578256240110793 104 112 113
2.48330208980657 2.894199576201058 25.589212580731775 19 27 28
2.48330208980657 2.894199576201058 25.589212580731775 19 27 28
2.760854799005568 12.456515596967195 27.583463339614163 97 97 99
4.810859609988058 11.988607365647288 26.8838524881322 106 106 102
4.548042428979055 6.905792453707914 25.766761917346958 136 147 147
5.618137225530861 2.4216445513767693 21.603175871594434 21 27 25
6.210432441715266 2.241588497581351 19.37942699921725 25 31 29
-5.799903022118001 9.956743094320899 23.688860601355202 187 185 188
-5.799903022118001 9.956743094320899 23.688860601355202 187 185 188
-1.1781015903629994 7.126147993010977 17.904268049496043 176 175 177
-0.6876150284214185 6.9676932906025115 17.58238621058843 132 130 131
-0.6876150284214185 6.9676932906025115 17.58238621058843 132 130 131
-0.5698051984642464 6.987765707983088 17.444639775998883 122 122 122
-0.5698051984642464 6.987765707983088 17.444639775998883 122 122 122
1.071766887799332 6.932337626478948 17.16731356397389 176 176 178
1.5431801613312965 6.824610640814305 17.09989957763904 120 118 118
-3.686865572231307 8.362770652414538 20.436221254303213 180 179 180
-3.640791847752917 8.365487189850839 20.317981201515234 115 113 114
-5.264252857146882 -7.38280722837369 45.158486039014925 83 80 83
-0.08307396972287248 6.940152199978525 17.24587797725618 135 135 139
-0.45135257127093 2.1944426131929338 8.147427007514032 127 122 126
-0.18093289970153587 6.915709420420851 17.284952380183263 178 181 185
0.43350042878563444 6.881492857103198 17.07188061147582 114 114 116
-2.5841073711283737 7.705690196464136 19.04617605659093 182 182 183
-2.373175646073932 -6.807821022421412 41.714559399534075 105 105 106
-1.7904027698315967 -7.603796916530456 45.20329972551468 96 94 99
1.0994331149594703 -7.07668099576825 42.222932018417495 107 107 109
1.7883522343395875 -7.0802636253105575 42.077707973713366 116 116 118
0.20881247528680985 6.808783226897562 17.16086509912386 116 118 120
1.3557870014846298 6.954073323487015 17.27599022939995 125 124 126
1.462926736769099 6.999657662336797 17.25985440524857 172 174 175
1.543754854624389 6.955413116291468 17.089635886210026 120 124 126
4.621445759366931 2.4742008229984087 25.367933695566357 25 33 32
11.44489182165034 5.852529779464064 29.096793453318654 168 168 168
6.248024376047274 15.863242443767723 143.96590743079196 39 46 45
2.151023990439272 1.6621456210505179 19.818422192990887 169 176 180
-0.363818599615209 1.2534967822389924 25.759676782099046 54 60 60
7.133554462521647 5.602813234988392 19.91887915722827 24 27 28
0.35502835718169323 6.302482229479014 19.238460384938612 178 184 186
0.693186560462323 6.037944096594172 19.11508601991974 183 189 187
1.3538939875756433 0.3117954443374688 24.60114655177225 189 200 201
-1.3391568462019126 5.158960638068592 23.06507230954282 55 54 57
-2.8851030115757075 0.5180132884402995 26.73590031937555 52 60 61
-2.1909753161387995 4.817251814220094 24.77868139920891 37 37 35
0.14029613144551317 0.735590268226061 26.62563651246938 54 65 65
2.0881408621105737 2.5067610686103743 25.86732989721479 41 48 52
2.0881408621105737 2.5067610686103743 25.86732989721479 41 48 52
2.1983574823408305 6.811050818366553 24.195551224291968 31 33 34
2.5565089071550102 0.6094733823500718 26.081269733200706 60 67 70
6.072053436279048 0.674072802868267 24.044637714388518 58 66 67
7.57495354275025 0.9562831875704083 23.061102313007453 50 54 60
-6.1434539467247715 9.060479711566076 22.017273581865176 169 165 168
1.3564159400023281 5.071517233015676 18.713185317999045 162 167 167
1.3564159400023281 5.071517233015676 18.713185317999045 162 167 167
7.776330848020051 5.809427658774882 24.787494451164452 22 22 18
22.508169634560737 -6.176236160949742 108.28633477913527 51 50 57
7.290785651887079 -3.120388521285418 33.9417371942026 187 190 189
-3.5972268800816587 9.159437525965537 21.803656612986558 184 187 186
1.9800346906911015 7.217319045343914 17.442111484560996 95 100 100
2.325625877764978 6.0619706733017535 15.400089688725282 106 109 112
-5.79576112449724 10.273890775794927 24.314013075767793 190 186 187
1.3375632164929037 6.895632773815641 16.986274977612933 176 178 178
-3.0294502308506734 7.281321731301101 18.227245339331752 140 135 133
-1.3024221247800318 6.810465403083212 17.18383798951462 138 138 140
2.745783753276659 7.46037244041235 17.76424673279953 176 182 181
2.745783753276659 7.46037244041235 17.76424673279953 176 182 181
-1.7937392397608953 15.217389402498267 33.67612927712946 132 128 131
-0.3144498238045706 6.649713661177441 16.697422864646406 179 179 181
1.419676574110437 6.932986077278384 17.038077923948624 172 174 175
-3.6899789500355955 5.575927564660533 14.98527894352311 192 191 193
-6.2919674689168295 11.883579580597944 27.589074254603787 119 114 112
-2.0422255779194995 6.2074242813091045 16.068133697371096 130 125 126
-0.8199090259730485 3.2520096536627165 10.139069297981077 128 121 120
-0.738718326635801 5.919472108653609 15.305568601805257 119 117 115
-0.07832576392443835 6.105161999449421 15.639330279475992 136 130 132
0.555266850627207 6.412820520658054 16.180711350382982 131 128 125
1.916833822449839 7.010014622661749 17.019801982834057 123 123 125
7.817984054336173 -0.5534633495921779 35.40297244416993 51 54 56
-2.864610111718863 2.1066274839975314 27.782975595813816 22 28 26
-15.783557910785131 20.4092415577581 771.2643524545731 56 63 65
-4.701982959036959 1.298651190410527 25.258266019262386 47 55 56
-4.332698045560064 1.0968780199442763 25.40792486471928 61 69 70
2.687781538886966 3.0730485157980136 26.316354239301447 32 36 40
3.7132347192740656 8.730692258138365 20.624948887692838 174 175 175
-3.2027428611489497 9.177198638811937 22.006023558500186 195 195 197
-7.834229467109442 -1.751834979987613 25.431494859175775 88 87 86
-2.1541009461789513 6.197571045600004 24.040796658037987 28 34 32
-2.1541009461789513 6.197571045600004 24.040796658037987 28 34 32
5.091351421321403 2.7790141520001685 27.177722913241688 34 36 42
5.579546555687318 2.945965362923957 29.487508707880995 43 43 47
1.9052722475239088 3.3547880933387755 25.389170858865413 32 31 34
-0.32454769174879067 2.1185908047464164 7.997478050243327 120 120 121
-0.46757719564572725 2.3466253262298875 8.465710546894325 168 173 174
0.0559370355440921 5.639530078586578 14.867293102424762 107 106 106
0.4910637389879729 5.024271014756062 13.500928734617343 163 167 169
2.1039565812100487 3.9636041379062865 19.308571978421284 13 19 17
2.028584588260082 6.143028537450494 15.7666736473687 109 114 116
2.1410252450783185 6.069074457353733 15.619780734486344 96 95 97
-4.963256838469791 6.182891814296831 16.179407516838545 136 130 132
-4.993247129578817 6.381803088034074 16.56169642603127 136 134 136
-5.073444274512554 6.621660705786645 17.070189939295556 186 186 188
-4.852150082909423 8.642793596038423 20.993588351594966 191 190 192
-4.65113553752686 9.54784141446318 22.64660572962557 182 185 186
-2.955489825253113 -0.14192699381175533 22.28739497973488 61 64 64
-4.016199514745622 10.96204930421391 25.590720197143764 190 192 194
-2.621099603718713 7.1990659803503485 22.442290798166567 179 182 183
-3.1000993458326116 12.434011258363206 28.074481624087234 112 113 115
-0.4784293889240244 13.893422433714905 30.972902378833822 181 181 183
-1.9916910437313404 3.6459573803365015 11.148157256747004 147 142 141
-5.060548777625985 7.779424234878559 19.447074163243165 195 193 195
-4.733617770899717 9.098966599432547 21.853694793356485 183 187 189
-4.505509592680145 9.765454308692858 23.0111640209329 139 138 138
-0.35857417323239327 1.5262068990909934 6.8407573946569595 184 179 181
-4.091621811458855 10.928623846943038 25.413692699980285 189 189 189
-0.8733760743210969 3.564799453773307 10.805743947774483 190 189 191
-0.5264096029191649 -0.2770238034537797 11.13276538056057 121 121 122
-1.3915628455256883 -3.2809092183271 24.573027777895355 96 97 99
-1.8928483037178636 4.759630043387649 27.01158123902327 26 30 29
-2.4622688960303116 12.943125967357718 29.1444617638821 179 180 182
-1.6399591226758563 9.37029454140979 22.286899604152854 144 140 144
-1.8708142820220144 13.3489885739457 29.81471049651709 176 176 179
-0.8943140278169921 1.2490983362427193 28.021953800389273 54 62 63
-1.5018498559021443 13.551583946975057 30.423429612951193 109 104 107
0.04050314261557328 3.5986389523569065 10.889271923538969 121 120 122
0.5111508352099581 5.639228945475582 29.22885320460948 25 25 25
0.2704005984444756 14.405950707662113 31.63309299887625 130 130 132
0.6536787917241016 14.475325476077932 31.606953724177796 129 128 130
1.9644131539708738 -2.715335041652471 34.59190581409447 191 194 193
2.147329928108459 14.255412109001941 31.511836179065906 122 121 125
0.5342112415674576 4.252130407224772 11.952031426386254 165 167 170
2.7915534148669487 14.251812893943015 31.060634197104687 169 168 172
3.286077568261503 13.46124877692445 29.73322792775792 166 166 163
3.286077568261503 13.46124877692445 29.73322792775792 166 166 163
3.600162780181427 13.381545646864536 29.406836607495247 107 103 107
0.43845472484511505 2.3697338819380884 8.397584116013844 122 120 121
4.340971559101547 12.585334079765031 27.816452143260168 108 107 107
0.7146420299633429 2.6599133978042757 8.860292153784423 134 131 136
0.8708848513509156 2.9657094789095106 9.451353680757151 167 168 172
2.102908211964089 5.628695544345961 14.40241909018146 121 124 127
0.25937906752254786 4.552258633168095 23.693294200512895 31 32 32
2.058003508461806 8.781793796004445 20.69886402026476 169 168 172
-4.31384631589147 4.536001758146085 25.754202394764395 33 39 37
7.652825109637932 7.3481545321815105 22.397223053914075 18 24 24
6.372585442985055 4.782034735912374 21.541069583766316 186 189 188
6.776795854335892 4.999542994034378 22.550611890168838 183 188 193
-0.38424088046706045 8.35732069472734 20.208556375729493 110 113 114
-0.13279651310171545 1.5647193319447226 6.8756707068502845 127 126 130
-0.0498116205736104 1.3589943294212594 6.469275121041141 178 176 179
0.13283142070559184 1.1738881439088364 6.034556607962781 116 116 120
5.873513517173053 0.9816724363085514 24.25981822020702 34 40 40
-2.2102074316833025 3.642204949574387 11.10181514247995 125 121 124
