ply
format ascii 1.0
element vertex 712
property float x
property float y
property float z
property uchar red
property uchar green
property uchar blue
end_header
1.1106358766555786 7.0321855545043945 23.59762954711914 146 156 159
1.6804634367378841 -5.391421140617075 30.443023588210817 135 143 144
4.959379196166992 3.54062819480896 24.955326080322266 49 38 33
1.2952691316604614 4.047265529632568 25.193618774414062 38 37 39
1.5209753513336182 0.3933115005493164 27.070676803588867 64 69 74
1.7982596158981323 -4.956624984741211 29.9293212890625 112 118 118
1.7982596158981323 -4.956624984741211 29.9293212890625 112 118 118
1.288367748260498 7.718591690063477 23.239900588989258 188 187 187
1.3213485479354858 7.177684783935547 23.133119583129883 191 194 195
1.5192368030548096 3.9961178302764893 25.151596069335938 183 194 192
1.5192368030548096 3.9961178302764893 25.151596069335938 183 194 192
1.3689310550689697 7.507048606872559 23.306467056274414 195 198 199
1.3689310550689697 7.507048606872559 23.306467056274414 195 198 199
1.5634945631027222 3.5591933727264404 25.39189910888672 185 193 192
1.5909689664840698 3.799095869064331 25.284704208374023 42 36 40
1.7943047285079956 0.0019784998148679733 27.444578170776367 190 198 195
1.6287786960601807 3.3241050243377686 25.48597526550293 189 197 196
1.6287786960601807 3.3241050243377686 25.48597526550293 189 197 196
1.9644737243652344 -0.3956485092639923 27.420764923095703 69 79 82
1.9460692405700684 0.4790654182434082 27.082216262817383 62 67 74
1.9460692405700684 0.4790654182434082 27.082216262817383 62 67 74
1.7944846153259277 3.5581445693969727 25.345487594604492 46 42 43
1.8523386716842651 3.156937837600708 25.70132064819336 84 86 92
2.5629630165879242 -5.057426179239794 30.160196048548876 111 117 117
4.160138130187988 2.8925015926361084 25.24733543395996 36 42 42
2.360499143600464 4.765608787536621 24.662343978881836 172 178 178
3.13987685903008 -5.078365719854703 30.13750607270957 113 121 120
3.2368950006033543 -4.499287409058356 29.82578183712194 161 169 168
3.277717068032358 -5.207482310679642 30.211228825917757 151 157 157
3.2930275343592252 -5.2237599251462745 30.316998679338848 151 157 157
3.376986026763916 -5.1530632972717285 29.868043899536133 142 148 150
2.700817823410034 5.072945594787598 24.56684684753418 29 29 33
3.415727073051141 -4.901988655138106 29.99139160622876 154 161 165
2.6442790031433105 5.9808030128479 24.079998016357422 44 40 43
3.4088711198258683 -4.503820522213603 29.743787637403724 134 137 138
6.007284641265869 -0.4155366122722626 26.63922691345215 44 50 52
6.007284641265869 -0.4155366122722626 26.63922691345215 44 50 52
3.0034793683573744 1.7060585523662402 26.172661690869994 43 50 54
3.54542549133584 -5.088415158834772 30.112579919554967 118 118 120
3.543116465861369 -5.078413859003769 30.071022519447443 118 118 120
3.6093713395273688 -4.940434324272535 30.028860308044948 143 149 151
2.837085008621216 5.425143241882324 24.25552749633789 63 66 69
3.6817618156427896 -5.222224363968265 30.111180839646938 143 149 149
3.142207384109497 2.0283122062683105 26.060224533081055 190 198 197
3.678928107241757 -4.756241593212598 29.847739426741697 112 112 114
3.2762227058410645 1.6996582746505737 26.148405075073242 188 196 193
3.303559128124798 1.4633597069433923 26.243552565550566 36 47 47
3.305126667022705 1.461940050125122 26.21390151977539 36 47 47
3.3235182762145996 1.8784842491149902 25.90186882019043 191 197 195
3.3235182762145996 1.8784842491149902 25.90186882019043 191 197 195
3.0609381198883057 5.614334583282471 24.129409790039062 152 152 152
3.0609381198883057 5.614334583282471 24.129409790039062 152 152 152
3.0609381198883057 5.614334583282471 24.129409790039062 152 152 152
3.4756524562835693 1.7271662950515747 26.126697540283203 47 41 45
3.527578830718994 2.3469481468200684 26.002769470214844 48 43 41
3.2877237796783447 5.3882880210876465 24.244070053100586 174 174 174
3.2877237796783447 5.3882880210876465 24.244070053100586 174 174 174
4.248994703300743 -4.754242022292544 29.807454026040336 144 147 146
3.4157047271728516 5.37973690032959 24.46419334411621 181 189 188
3.4157047271728516 5.37973690032959 24.46419334411621 181 189 188
4.275468661314404 -4.494206387805239 29.662041125347713 133 136 137
4.350436613271503 -4.631940316062624 29.80631371949076 167 173 173
4.345158946446595 -4.619478844260198 29.745452534990793 167 173 173
3.8150694370269775 1.6840486526489258 26.05669403076172 126 131 136
3.790283441543579 1.9060622453689575 25.84513282775879 41 47 49
3.790283441543579 1.9060622453689575 25.84513282775879 41 47 49
3.552626609802246 5.387667179107666 24.108104705810547 182 190 189
3.552626609802246 5.387667179107666 24.108104705810547 182 190 189
4.959379196166992 3.54062819480896 24.955326080322266 182 188 188
4.56997821386221 -4.506230229702465 29.556649051029435 93 95 101
3.994232654571533 2.312408208847046 25.576366424560547 52 47 45
4.831236362457275 3.093985080718994 25.30744743347168 35 38 41
4.950403748821082 -5.092857481596445 29.874136395871087 140 146 148
4.912186907222642 -4.786840279728595 29.648012083492706 116 116 118
4.307342529296875 1.057114839553833 26.19829750061035 188 201 198
4.988183498382568 -4.974359035491943 29.93039321899414 138 149 147
3.832815170288086 7.985498428344727 22.321401596069336 47 47 51
4.404655456542969 6.588869571685791 23.456872940063477 186 192 192
4.831236362457275 3.093985080718994 25.30744743347168 75 75 75
5.269956588745117 -0.3245306611061096 27.09070587158203 50 61 61
5.17542839050293 0.29139670729637146 26.514909744262695 44 54 59
5.243055820465088 -5.50883150100708 26.8963680267334 125 126 115
4.992724895477295 3.2301297187805176 25.003816604614258 40 46 48
5.9081388806864545 -4.552966722279445 29.333541050588117 94 94 94
5.439403057098389 0.03739362582564354 26.615476608276367 47 58 56
5.033520698547363 3.682987928390503 24.736053466796875 35 41 41
5.033520698547363 3.682987928390503 24.736053466796875 35 41 41
5.460496425628662 0.29646188020706177 26.725278854370117 186 197 195
4.67487096786499 7.777343273162842 22.68885040283203 40 39 46
5.176183700561523 3.391730785369873 25.006885528564453 178 186 185
5.176183700561523 3.391730785369873 25.006885528564453 178 186 185
6.18779993057251 -4.998631477355957 29.715471267700195 131 137 137
6.326103310677807 -4.899466609632257 29.659467343830773 87 90 91
5.493766784667969 1.7839370965957642 25.70927619934082 33 41 38
6.318427621849227 -4.976780614520262 29.454477044103207 123 131 130
6.385682587814367 -5.036245612370021 29.78114026590105 123 131 130
5.429914951324463 3.2433888912200928 25.39993667602539 176 184 183
5.429914951324463 3.2433888912200928 25.39993667602539 176 184 183
5.700972080230713 0.028633875772356987 26.59044075012207 59 66 70
5.288088321685791 3.908102035522461 24.680706024169922 165 178 173
5.38558292388916 3.6139588356018066 25.044775009155273 184 192 191
5.708412170410156 0.283867746591568 26.507652282714844 191 199 198
5.708412170410156 0.283867746591568 26.507652282714844 191 199 198
6.465551398374297 -4.72380282839488 29.662638010730134 121 129 128
5.824560642242432 -0.2386007457971573 26.72635269165039 190 201 201
6.589541139023636 -4.701679059902964 30.16093518717438 133 139 137
5.082314968109131 6.943703651428223 23.014184951782227 42 47 52
5.542353630065918 3.2676870822906494 25.03193473815918 175 181 179
5.542353630065918 3.2676870822906494 25.03193473815918 175 181 179
5.0469818115234375 7.6752166748046875 22.647207260131836 28 22 24
5.518216133117676 3.691516637802124 24.67974090576172 190 193 192
5.518216133117676 3.691516637802124 24.67974090576172 190 193 192
5.518216133117676 3.691516637802124 24.67974090576172 190 193 192
5.936605930328369 0.04939364641904831 26.490032196044922 202 205 206
5.526244640350342 3.939098596572876 24.523818969726562 176 183 177
5.970916748046875 0.28073573112487793 26.4227352142334 155 161 163
5.970916748046875 0.28073573112487793 26.4227352142334 155 161 163
6.042436122894287 -0.13936734199523926 26.623998641967773 192 198 198
5.296128273010254 6.943105697631836 22.861841201782227 178 184 184
6.241725444793701 -0.5722504258155823 26.878433227539062 66 68 74
6.160600185394287 0.028489531949162483 26.45082664489746 58 54 59
5.771396160125732 3.504456043243408 24.739028930664062 110 113 114
5.318619728088379 7.643776893615723 22.613971710205078 145 141 144
5.791807651519775 3.6771392822265625 24.568246841430664 119 119 121
5.395565032958984 7.133018970489502 22.830196380615234 180 183 184
5.383762836456299 7.445183277130127 22.749425888061523 59 54 52
5.888488292694092 4.009887218475342 24.402372360229492 33 33 35
6.29148947274862 1.0317805296099072 25.712380356041752 39 47 48
5.569542407989502 7.385799407958984 22.63139533996582 166 166 166
6.420793533325195 0.6387665271759033 26.15113067626953 199 207 206
5.693803310394287 6.943890571594238 23.11441421508789 40 39 39
7.951231956481934 1.3374935388565063 25.36031723022461 133 143 148
-3.8393969535827637 4.465663433074951 25.255739212036133 27 25 15
5.768826007843018 7.311272621154785 22.83234405517578 35 34 38
8.232290267944336 1.1610854864120483 25.59272575378418 53 49 50
6.971456050872803 1.202567219734192 25.740999221801758 92 91 95
6.964288234710693 1.8235907554626465 25.415180206298828 44 43 50
6.917243957519531 2.238759994506836 25.17007827758789 126 126 128
7.20619010925293 1.498091459274292 25.495361328125 201 209 210
7.145540714263916 2.0461740493774414 25.20787239074707 53 58 63
7.145540714263916 2.0461740493774414 25.20787239074707 53 58 63
6.762997150421143 5.50293493270874 23.401735305786133 33 29 34
6.875452518463135 4.913646697998047 23.742033004760742 33 33 35
7.424891471862793 1.815267562866211 25.309329986572266 53 53 55
7.424891471862793 1.815267562866211 25.309329986572266 53 53 55
7.620220184326172 1.2572041749954224 25.74449920654297 42 44 50
7.620220184326172 1.2572041749954224 25.74449920654297 42 44 50
6.9385881423950195 5.668961048126221 23.082176208496094 127 130 129
7.27260684967041 5.193929672241211 23.4771785736084 91 97 99
7.232492923736572 5.406383991241455 23.272321701049805 38 37 37
7.910659313201904 1.5701860189437866 25.280221939086914 200 206 206
7.672684669494629 3.5169517993927 24.371591567993164 21 28 22
7.536333084106445 5.120416164398193 23.475601196289062 152 155 158
8.059000968933105 1.9595190286636353 25.04253578186035 38 40 46
8.394028663635254 0.487186461687088 25.82997703552246 38 46 45
7.830353260040283 5.7480669021606445 23.365774154663086 165 166 160
8.187607765197754 4.133822917938232 23.62843894958496 29 32 31
7.951584339141846 5.837339401245117 22.8731689453125 41 38 35
6.085136890411377 6.479166507720947 22.952327728271484 52 44 43
-3.7741668224334717 3.024574041366577 26.154327392578125 39 39 35
-2.816066265106201 0.049724310636520386 27.572317123413086 64 67 70
-2.7767927646636963 0.2585279643535614 27.385473251342773 62 70 71
6.241725444793701 -0.5722504258155823 26.878433227539062 58 58 62
-0.30844956636428833 -4.766648769378662 29.693944931030273 91 94 97
0.16166247427463531 -5.276387691497803 31.155298233032227 134 140 140
0.26117804646492004 -4.919601917266846 30.204195022583008 132 143 141
0.03480913671284722 2.6104729528066586 26.027933082608683 186 197 193
0.9437884092330933 -5.246518611907959 30.73619270324707 94 100 100
1.259410003552212 -5.211782675343818 30.414525230565726 104 104 106
1.7712278366088867 -5.328647613525391 30.68096923828125 109 112 113
1.8177747413066352 -4.865197626922159 30.129121086364457 137 145 144
1.8221092224121094 -4.892856597900391 30.347124099731445 137 145 144
1.310817003250122 3.806689977645874 25.37571907043457 182 188 186
1.310817003250122 3.806689977645874 25.37571907043457 182 188 186
1.0093297958374023 7.247692108154297 23.56433868408203 173 184 184
2.360499143600464 4.765608787536621 24.662343978881836 179 190 188
2.8862157064816087 1.3866716512241584 26.342405500585375 48 50 56
2.8968987464904785 1.3838080167770386 26.39600944519043 48 50 56
2.700817823410034 5.072945594787598 24.56684684753418 31 34 37
4.025463104248047 1.9044448137283325 25.96556854248047 43 46 45
4.307342529296875 1.057114839553833 26.19829750061035 190 198 197
5.673230171203613 0.4422167241573334 26.319528579711914 87 86 86
6.042436122894287 -0.13936734199523926 26.623998641967773 192 195 196
5.518216133117676 3.691516637802124 24.67974090576172 150 150 150
5.395565032958984 7.133018970489502 22.830196380615234 173 173 173
6.654695987701416 2.7953920364379883 24.985570907592773 37 35 44
7.6429667472839355 -0.138108491897583 25.846771240234375 33 39 39
7.652871131896973 1.9725600481033325 25.125444412231445 189 195 195
-5.486151695251465 5.280908107757568 25.099485397338867 31 31 27
-2.4791879653930664 4.184096813201904 25.39510154724121 34 33 33
1.0242458402692514 4.022712813975688 25.175854154417568 164 167 168
-4.531636714935303 2.057873249053955 26.96979522705078 51 54 57
-3.356745958328247 3.849665880203247 25.494964599609375 38 38 40
-1.900966092322279 -5.096194836734948 30.89890280973662 134 142 141
-1.266260749639115 -5.063763638345188 30.66559645456158 135 143 144
1.2707408666610718 -5.042638778686523 29.95791244506836 148 156 155
11.349386215209961 -3.6598684787750244 29.209802627563477 204 205 201
-2.9744263843743477 -4.324842726038596 30.50415855926898 168 176 175
-1.166875958442688 7.526025295257568 23.707622528076172 27 33 31
-1.166875958442688 7.526025295257568 23.707622528076172 27 33 31
2.595548943033898 -4.945888810839682 30.33262447956425 144 155 153
3.0621519088745117 7.3943281173706055 23.251846313476562 23 29 27
-4.498387835169383 -4.224222492721736 30.495483786022366 160 160 160
-1.5885726837204777 1.199648931862783 27.06695902546064 55 58 59
-0.3809807234087679 -4.425043270775407 29.786311717563468 162 170 169
1.423138203729633 -5.297256337254748 30.661355357762865 112 115 116
1.4231359958648682 -5.297244071960449 30.66128158569336 112 115 116
2.605306465447134 -4.646117904249248 29.4839264461652 160 168 167
3.2566463947296143 3.59824800491333 24.789955139160156 27 35 32
4.029544005317493 -5.219707877153675 29.91529149482788 145 156 156
5.042546737314279 -5.741128827461033 30.16740380016263 134 142 141
5.174596301322852 -5.203536533308778 29.518657924749004 142 150 149
5.162827643559144 -4.514765406775426 29.40665249368666 132 137 142
4.5999755859375 2.4692764282226562 25.39646339416504 57 56 63
4.5999755859375 2.4692764282226562 25.39646339416504 57 56 63
5.646559531394078 -4.983455619131487 29.74540750876027 145 153 154
5.646559531394078 -4.983455619131487 29.74540750876027 145 153 154
6.8496004647816875 -4.710156554958161 29.462657250329276 90 96 96
6.858100184065417 -4.629434795427876 28.953058209292628 114 120 120
7.4160688023357 -5.40323243178152 30.060957519820192 88 91 94
7.427212238311768 7.103457927703857 22.21476173400879 22 25 24
-5.310021432908944 -4.630972513754418 30.154112017532082 96 95 95
-5.343588881632583 -4.837571042976266 31.19426975417934 118 118 118
-5.343588881632583 -4.837571042976266 31.19426975417934 118 118 118
-4.8984891623184215 -4.240202395461847 28.62040346703435 138 138 134
-4.0836933813103 3.0001663435973223 25.9296586267736 36 42 40
-3.618362596408486 7.345038708163811 23.918942212998896 40 39 41
-3.618362596408486 7.345038708163811 23.918942212998896 40 39 41
-3.770853235929872 -5.300055292635243 31.04722869141428 135 141 139
-3.4427829948395208 -5.376991177839432 30.81754995650918 112 112 112
-3.3475741369145737 -4.278765272510676 30.292348091831578 165 171 169
-2.8921206774817327 7.776591306833683 23.557290317192937 38 38 38
-2.8921206774817327 7.776591306833683 23.557290317192937 38 38 38
-2.6526323758200876 7.8798115400956625 23.19866825071564 65 64 64
-3.0666693871304735 -5.758906241688784 31.354736625717162 140 138 130
-2.9896144982471586 -4.77654436596305 30.85388829995474 136 136 136
-2.793620881326686 -0.18011415339903278 27.74247505522085 188 194 194
-2.793620881326686 -0.18011415339903278 27.74247505522085 188 194 194
-2.9066670828736525 -4.597296717332078 30.448547442797466 149 155 153
-2.5658378000775013 3.8246949280359424 25.502526920027407 191 199 198
-2.545578789018159 0.03374340212501091 27.611816230877707 190 196 194
-2.545602156455662 0.033201071861480684 27.611668274266535 190 196 194
-2.6714352752956407 -4.764280291947852 30.663810649409218 93 87 89
-2.0594449863391655 2.992548350821101 25.906311252291648 140 139 139
-1.437740307522238 -4.410874855747467 29.998986284616773 155 155 157
-0.6650324747033811 5.661078288247329 24.476647755470896 191 197 197
-0.25964673047218334 -5.154686072167254 30.64369306735644 107 118 118
-0.10924689708856523 -4.91119267129498 30.440769430722483 101 101 101
0.3284156860712968 -4.539150243400381 30.280876880460777 161 167 167
0.5369953379642859 -4.446490692609443 30.08893289227568 167 175 174
0.6050131775497776 -5.577904196877006 30.06711610616106 125 131 129
1.0718439835730746 -4.607237133082477 30.107826643755107 133 136 135
1.0057663649177524 3.5505312854211475 25.551423303470365 190 196 196
1.1087776971331686 7.022864452782935 23.56735743078173 146 156 159
1.7153606307643507 -4.933721516087347 30.665270765946342 147 154 148
1.3267380969570366 7.318267986687386 23.53926788453625 191 194 195
1.4357223993873771 7.866483556428379 23.119614077819865 46 49 52
2.1086982482879146 -4.898103214025821 30.17033196043482 147 155 154
2.183070124439706 -4.947955487098229 29.720281431838487 94 100 100
3.056666349269781 -5.591157637094335 30.60647908035693 132 140 141
3.0623173385499984 -5.2123716509601605 30.345711353033 146 154 155
3.360108565410562 -4.383517583121093 29.66216760299643 165 168 169
3.8856543026104795 -5.67182681490849 30.60748063133209 131 139 138
3.80255254726824 -4.958200078660193 29.986172822411806 151 157 155
3.7583327847065764 -4.909234242610553 29.728831222687134 151 157 155
3.2798216998316825 1.7024695711868503 26.189735428420118 188 196 193
4.298526265065674 -5.272356487004415 30.198744974782933 139 147 146
3.810768122676769 1.6839448036223854 26.01602696492508 43 45 51
4.425540987081206 -4.5009406009832515 29.51326082856454 103 106 107
4.546062077211636 -4.989170687083367 29.95701635186736 146 154 153
4.01548238156667 2.3321460498443534 25.757380442171268 52 47 45
4.990431865805577 -4.977338164420438 29.95062903691758 138 149 147
4.763899708830563 1.1047477684384972 26.628159112318663 58 58 60
5.644184095339573 -5.267309601548855 29.733305962756422 128 134 132
4.86623379543232 3.9568355348694917 24.67294170709776 35 38 41
5.448978686672708 0.2980083564424258 26.655627792557215 186 197 195
5.679722764427494 -0.4203723188497258 26.842385999457473 55 66 66
5.081429240781196 6.944155351400194 23.009280268420067 42 47 52
5.044014555338932 7.667185977961988 22.629797793029113 28 22 24
5.752569061540118 7.291784166456458 22.75583359385234 35 34 38
6.968751471434392 1.2067574352013681 25.72843210698626 92 91 95
7.408533254819868 1.3842986676214653 25.49805597894429 197 200 201
7.971522436569205 1.3459917280454565 25.43403253130707 133 143 148
-15.725846598435732 -4.753319682718622 31.770406523968568 39 30 23
-15.862736750563842 -5.220869907813563 32.792500689950884 36 30 32
-7.811075114487084 9.048901273233163 22.282285911998272 210 204 208
-7.586748413769436 9.02785654972299 22.206985933315746 201 201 203
-7.3539514124502965 9.011318018792881 22.15059506880809 202 201 201
-7.3539514124502965 9.011318018792881 22.15059506880809 202 201 201
-7.014947407628707 9.105123447858563 22.311195096933236 203 202 202
-6.765174046959863 9.063909257020116 22.25239806869668 194 193 193
-6.106921704354561 9.074768343527545 22.314210621864554 178 174 175
-7.436477987103649 -4.425571104702398 30.960416944247985 65 66 62
-5.7571136243027565 9.042703148233462 22.325667294759675 156 150 154
-5.7571136243027565 9.042703148233462 22.325667294759675 156 150 154
-6.818044414124796 -5.21560775491081 31.64078194069292 69 69 65
-6.6585497879047635 -4.314000205075587 30.883054762256315 108 108 110
-6.602123408893105 -5.18916122893702 31.40699068721191 70 70 66
-6.565592289908081 -5.2924918646624075 31.568266934958448 109 113 108
-5.461808305219653 5.589663432456848 24.4658911359836 48 48 52
-6.411460362146688 -4.429877879746321 31.075661047780716 91 94 97
-6.4172023146640145 -4.436674972281153 31.08747639401813 91 94 97
-6.210573007246006 -4.470309093414397 31.06036765114141 131 134 133
-4.832855258235427 1.614164269266723 26.93910387355423 196 208 210
-4.128829340057529 9.223919205011006 22.191802949036475 204 204 204
-5.00359009937228 -4.502249500669417 30.750886085253693 142 143 139
-4.760311537209728 -5.225916324553734 31.195842305455713 139 145 143
-3.7262565517878823 7.7897344145478264 23.290764968992598 53 49 54
-3.564241533327882 9.165195491586164 22.175126177450736 201 201 203
-3.6071906984657427 6.913154988742162 23.719022195722825 44 44 46
-3.579725668320886 1.2899002737824068 27.161229582720846 194 205 205
-3.440634799510944 4.200177924208999 25.54429310416118 46 51 56
-3.796052028882859 -4.623148281195209 30.893843177062003 152 151 151
-3.796052028882859 -4.623148281195209 30.893843177062003 152 151 151
-3.6781623601160303 -4.280553199701594 30.549787742419184 157 163 163
-3.115165112886296 3.424176889376623 25.6818422421 183 185 176
-3.3736694046374076 -5.469215838587606 31.045301458126612 130 134 129
-2.5200342472882906 9.18806871254976 22.2669796611434 201 204 205
-2.5200342472882906 9.18806871254976 22.2669796611434 201 204 205
-2.4448140815859998 9.189267500845885 22.27495672252519 187 190 191
-2.5675206814789386 -0.18729835081780108 27.778978947713806 67 74 78
-2.544925568381544 -4.505559761546975 30.531362600898163 160 160 160
-2.3809645791017813 0.4584122465765047 27.474524286020113 197 201 196
-2.3809645791017813 0.4584122465765047 27.474524286020113 197 201 196
-1.9343451657729274 -4.689225981791719 30.55012250091942 157 158 154
-1.4271840953818233 5.617233535208338 24.367401090795745 33 33 37
-1.2616182184746858 1.5683628741950442 26.732892176860368 170 177 181
-1.1934516809305784 5.878840815370801 24.26796381889396 32 35 36
-1.1786721154813022 -4.395263071498332 30.42333447931042 168 174 174
-1.0389430826554285 -5.186682841499293 30.708062815087096 140 143 142
-1.0389430826554285 -5.186682841499293 30.708062815087096 140 143 142
-0.7111125647452311 9.295585635076572 22.199513429301085 195 198 199
-0.5153419239804574 -5.114562645152266 30.47433747718342 141 149 150
-0.6142545694401607 9.288924411934458 22.20805022823455 195 198 201
-0.31132343180427274 -4.719899849491539 30.374545201776947 146 153 147
-0.44619645825127024 6.050188146188032 24.111621560591455 45 48 51
-0.37177740348160543 1.7728677283817178 26.404561695970944 48 54 54
-0.37177740348160543 1.7728677283817178 26.404561695970944 48 54 54
-0.25879542030809394 -5.046794000713337 30.652734007708 151 162 162
-0.25879542030809394 -5.046794000713337 30.652734007708 151 162 162
-0.2708817856717105 2.349388528534082 26.237159173985134 55 54 61
-0.018724214921211468 -5.244772197877405 30.579069049084403 137 145 144
0.007379948207015954 2.9589477692709742 25.847102178756852 36 42 40
0.1781235489948398 -4.83315818052176 30.453751812318327 161 169 168
0.29108864714545246 -4.431774719268379 30.12864698143148 164 172 171
0.2919224380670271 -4.670145198971058 30.431322292062642 171 174 175
0.3955501431646984 -5.344708298088607 30.65173289800706 131 142 140
0.40257362698736776 -5.366881767683192 30.80112782393488 131 142 140
0.5142714230953483 -4.846447989301209 30.47301646892824 152 160 159
0.5091056107591627 -4.843414004949492 30.436461573729762 152 160 159
0.3639508300803745 2.965912692891188 25.816007038827156 29 35 33
0.5982429349863909 3.176707553963497 25.66698943759026 192 203 201
0.814205813607182 7.4704765944775975 23.24658219087487 165 179 183
1.433253210235894 -5.130011755579595 30.303339122216464 132 139 133
1.7708094592783048 -4.662746505423962 29.983872999186616 155 158 159
1.2331339461195114 9.394566491862307 22.190736872157668 192 195 198
1.2331339461195114 9.394566491862307 22.190736872157668 192 195 198
1.370594083230183 9.36843375675844 22.121927455380266 191 194 197
1.6919445792879995 4.136949483453279 25.053532931513487 37 37 37
1.6916310496320854 4.136930113409687 25.05000967040063 37 37 37
1.457945928555512 9.409759288437359 22.09808532208362 191 194 195
1.5164679807446173 9.311616586211859 22.107266770626218 190 193 196
1.5164679807446173 9.311616586211859 22.107266770626218 190 193 196
2.4397684490408107 -5.181083543459753 30.22770367087701 141 149 148
2.43092595760079 -5.176210084925648 30.183816265503392 141 149 148
2.1073826693909616 2.930586508950282 25.644357658257903 139 140 136
1.770302951435896 9.307301849711116 22.163837282107977 190 193 196
1.7622183573717174 9.43606592116514 22.09066326850199 190 193 194
2.7637989510843695 2.3539460535436816 25.96479310602299 206 209 208
2.7714782903973214 5.626634682595187 24.12506730769645 32 35 38
2.5491187417289565 9.376494783965237 22.03738993714067 191 194 197
2.62990756597879 9.435580593937956 22.012926554758756 188 191 192
2.6475799390800283 9.307473297283341 22.129664670422258 144 147 150
3.7917233792157052 -4.534726243088499 29.796768154171883 123 131 130
3.0248078854076694 5.868866239657636 23.997130525841246 25 28 29
3.0620337319291058 5.615687324622168 24.12043050623903 152 152 152
2.849253858574544 9.4399717590354 22.206685958349986 191 194 197
3.1731187460525536 9.337984175919788 22.138297511217132 157 157 157
3.1731187460525536 9.337984175919788 22.138297511217132 157 157 157
3.4866162143976984 9.333526239294082 22.047920336056084 178 181 182
3.4866162143976984 9.333526239294082 22.047920336056084 178 181 182
3.7973905805419954 6.0267044592413885 23.83962227379826 35 38 41
3.500626011726154 9.43632529268686 22.01288729858868 186 189 190
4.253086953852878 2.532474332506512 25.631601668134916 187 195 194
3.647708603692662 9.390165913665324 22.00540742126574 186 189 192
4.119318901346963 4.3679379750638345 24.634219653376224 29 35 35
4.706866370378131 0.7018212241207173 26.523774745163486 193 204 204
3.8657094479329994 9.437906699788037 21.974120498097932 183 189 189
5.241686145661364 7.368114731449801 23.02544715611911 177 183 183
6.2237661186302935 0.4559726040929373 26.449045450435957 60 57 54
6.18778962318008 0.4574256156248145 26.29520601676199 60 57 54
5.843419571003912 3.122890744901706 24.79383508433883 32 38 38
6.979873300540357 5.00049752674126 24.108642862526317 33 33 35
-13.429931809981367 -4.6424903570968326 31.51329009899059 30 25 21
-4.986673480319779 6.0809386632987215 24.453519680207148 38 38 40
-4.973547081283962 -4.454723210477484 30.50131112857638 140 144 139
-3.6026493849062726 7.409157692742677 23.37421635723977 34 35 31
-3.5152106382206103 3.628389409484044 25.80947856433355 196 204 201
-3.340375767601759 7.189863369422855 23.566612024997067 110 120 123
-3.340375767601759 7.189863369422855 23.566612024997067 110 120 123
-2.9103045212953633 -5.903166466339209 31.412719253853204 125 123 111
-2.904324071347448 7.4776444777464315 23.34695620574573 40 29 22
-2.797962407152276 -0.1693978301114564 27.79300404399108 186 192 194
-2.5758437044336 -4.654657642590842 31.083451232504753 162 168 168
-2.438710361496214 -4.646217934435225 30.462561569468807 154 162 161
-2.438710361496214 -4.646217934435225 30.462561569468807 154 162 161
-0.901576454295557 -5.196416020210287 30.72001359701556 136 142 142
-0.901576454295557 -5.196416020210287 30.72001359701556 136 142 142
-0.039158130673602395 -4.812606678807419 30.40948989438129 133 133 133
1.092986464628799 -4.962523550502563 30.189075647282223 95 98 99
1.0024473968752563 3.546882006733707 25.584438707156654 181 189 188
2.062798597881921 -5.058112794574941 30.342509027840887 102 105 106
1.9330973541977094 0.4800649676285417 26.97240591624454 58 63 70
1.6899857721660585 4.13815223737891 25.04780034562587 32 35 36
2.7600377911678673 2.355638527766113 25.943233121217354 143 146 145
5.414245479785149 0.021371806758514914 26.65822609096284 38 45 49
5.946295073420684 -2.4051787714070985 26.949284791221416 197 200 199
6.134169637284602 6.549318980346486 23.168830781951367 52 45 39
7.056010896947486 2.0241140420457784 25.321416464995824 43 48 55
7.693163748304874 1.645268531407456 25.47029809916292 192 198 196
7.693163748304874 1.645268531407456 25.47029809916292 192 198 196
7.105519522266305 5.812514002354334 23.63282247783526 159 167 164
-6.584160282687427 -4.7532797807486125 31.127896549326834 107 107 107
-6.584160282687427 -4.7532797807486125 31.127896549326834 107 107 107
-6.1553406076049235 -5.567984097015664 31.54584229495554 103 107 102
-5.7649192137370795 -4.560597500408913 31.023330788674308 110 113 114
-5.016200770036681 1.892952014652604 26.824158839732394 200 201 195
-5.312682707531595 -4.551340083155716 30.45244805062037 141 140 142
-4.800894585265937 -4.497474530358076 30.712883881384542 152 153 147
-4.590486819562914 -4.505744309324648 30.766994642720096 150 151 147
-4.088893937411641 2.684519764971506 26.317512098981958 189 197 194
-4.088893937411641 2.684519764971506 26.317512098981958 189 197 194
-3.9536248003825754 0.8790746667051381 27.24637025163421 45 53 50
-3.9786229085933407 -5.727107079527173 31.34126503355187 113 113 109
-3.8862216822337605 -5.3205436511813184 31.17353932497102 148 151 150
-2.8138404019248893 -5.3856705581603075 30.976057132738553 141 145 140
-2.6466536450928926 -4.454073528388605 30.57290960221656 165 165 167
-2.260119576648499 -4.6870774921848275 30.801159926830646 160 167 161
0.11267468213349108 -5.054739881104638 30.578342218078546 140 148 147
0.3905919698224562 2.599819705041033 25.922670568758505 200 211 209
0.6489669671258869 -5.036079383275956 30.582293287184342 135 142 136
0.7441577662862168 -5.309003562769743 30.473224498441713 127 135 134
0.7441577662862168 -5.309003562769743 30.473224498441713 127 135 134
0.7686375325822188 0.5696511220380359 27.107537662114744 193 200 194
1.0248314687313766 3.572873584905785 25.420073587998544 189 195 195
1.2926121068731882 4.038249363051357 25.11953457556023 38 37 39
2.3758416300084537 -4.711304613308845 29.978809910225706 134 137 136
2.782326977730228 -4.584581331090301 30.077608004787738 153 161 160
2.978125523662362 -5.1044133162875625 30.34609730139115 104 112 111
2.978125523662362 -5.1044133162875625 30.34609730139115 104 112 111
3.0703324680231305 -4.727749689781601 29.939518567622024 150 150 152
3.163443760488828 -4.916984406859742 30.01433906887012 144 155 153
3.52014884040639 -5.615009682825676 30.384169196642095 124 132 131
3.472558827835645 1.7310956661791481 26.062397682044242 47 41 45
3.4950679992306743 5.774832223855151 24.33754866925397 182 190 189
4.711738310331306 6.8781206629941565 23.189307175753644 30 29 31
5.702275809116089 -0.4052524307194652 26.92215995600502 55 66 66
5.74820490061359 0.28806179028590495 26.686609954669485 191 199 198
8.252827458111813 4.61161011306828 23.131139692837586 177 183 183
-0.018572767715628723 -5.209675427286868 30.163472704626074 129 135 135
0.1342378859189326 1.166937851624205 26.71768406643184 192 200 197
2.411581544710377 -4.467081565587775 29.442911304944964 163 171 170
2.411581544710377 -4.467081565587775 29.442911304944964 163 171 170
2.535232031144186 -4.928232252353207 28.912475653817804 143 149 147
2.1073687306871123 2.5630027589901685 25.93353774931682 36 44 43
5.33569228928497 5.4967032762683425 23.997373802367807 21 25 20
7.316150605155534 4.99748454878365 24.05840204907061 27 30 29
8.432248335954963 0.5722454010921143 25.75510051094727 37 43 45
-3.614882905369204 -4.19444394457812 30.635631664869784 119 115 118
-5.409159955399342 5.2200914075618305 24.801207846573853 31 31 27
-2.412435697068694 -4.7796729292335405 30.56317390654208 101 104 103
-0.5671122308320979 -5.227972418569997 30.690348032687613 139 145 145
-0.5633527982677239 -5.256776015857299 30.91371976637043 139 145 145
0.5351293019706604 -5.365341126924661 30.839022465136992 132 138 138
1.068496752299045 -6.052481305153522 30.903939795311487 124 126 115
1.1874129420354478 -5.8315268699317 30.94911352875334 115 122 116
-42.4165800477931 -14.909782686210105 65.17888887394567 96 94 86
-5.487900537839072 -4.602382685470214 30.928013613997738 116 119 120
-5.487900537839072 -4.602382685470214 30.928013613997738 116 119 120
-3.4715031867134183 -4.723797367368787 30.917313779864156 131 137 137
-2.3297416749883855 -4.593574984613622 30.635578530572527 94 97 100
1.508202565069793 0.3959106917911442 27.005922330274483 51 61 68
-13.924370065878607 -4.528843783830555 29.19179966634419 35 30 26
-4.233718068708188 -4.796737532844684 30.75361413999056 149 153 148
-3.528465617787368 3.230335465484444 26.036257332785574 195 203 204
-2.4358562703069317 -5.894326368309589 31.17636635729034 126 128 119
-0.7615729716075605 -4.907193745949889 30.59563520374739 106 112 112
-0.3199362821913854 -4.934737138416441 30.735698314751957 106 109 110
1.0306860480173643 -4.6493563105303055 30.15111868740018 143 149 147
1.2757539788837235 -5.947522275763559 30.89838586112653 90 92 83
1.5431747125070512 -6.120121176324505 31.108923319022246 128 133 121
2.1085848140455847 -4.8983960095044425 30.170977489563793 166 174 173
3.5203874919871248 -5.615393532091976 30.393290257935444 116 119 120
3.6700778827584166 -5.2127553189058435 30.04461664766625 140 146 146
3.747889391820571 -4.4063713948587395 29.662566658694683 161 167 169
4.309195602513385 -5.290994606504074 30.235793797628073 125 133 134
4.247347660643301 -4.720421682137002 29.786832049155926 142 148 148
-5.889589807313478 9.140888481677399 22.33390369221018 200 199 201
-4.968851363894296 -5.408153635732102 31.326104220209302 131 138 132
-4.833113389242447 -4.6394016971960745 30.84571036422501 139 140 136
-4.668755395169238 -5.306401279793679 31.06228884070058 98 99 95
-2.810432640390631 3.8902318121361468 25.30708201420398 142 137 133
-2.602168580551998 9.19728535461352 22.340087711498107 193 193 197
-2.4892162644050964 -4.356042869635214 30.462950718459645 162 168 166
-2.4892162644050964 -4.356042869635214 30.462950718459645 162 168 166
-1.8129158335992646 -4.383535810804259 30.390899916494597 162 165 164
-1.8129158335992646 -4.383535810804259 30.390899916494597 162 165 164
-0.6242438115716232 5.9803481120204385 24.132859698287618 48 47 54
-0.37914814616002657 2.0011970627262454 26.329418979530885 48 48 48
-0.22693843248143455 -5.255151471583998 30.70500934492771 135 141 141
0.17640430681143987 -4.809496536145632 30.280388522868368 161 169 168
0.2572709241108131 -5.325732619483097 30.671136233297634 139 147 146
0.2572709241108131 -5.325732619483097 30.671136233297634 139 147 146
0.6348954364562165 -5.217840384882621 30.533164815561946 100 100 100
0.5164211998891219 0.795577555591009 26.935230618818455 47 53 53
1.2932549473305823 -4.537832492580291 30.16775223937303 164 172 169
1.2866629171600417 4.03676180279231 25.098049589270673 38 37 39
1.458373058782571 9.402865055174727 22.11574144236659 191 194 195
1.720269614284282 9.380402378422124 22.125043772217673 191 194 195
2.16100192166804 9.44201337017758 22.255142407151908 188 191 194
2.6348181722721566 5.960061604386849 23.983875818139758 44 40 43
2.418018054409502 9.389863524288712 22.106859183424753 188 191 194
2.977403556819345 9.37439198773321 22.07711647000431 188 191 194
3.570936909282176 9.381583551881082 22.039541763805403 185 188 191
3.570936909282176 9.381583551881082 22.039541763805403 185 188 191
4.833931515130235 -0.8993993098853307 27.096939967751034 193 199 197
4.953525904932681 0.49527664319130144 26.55687281760901 167 170 169
-7.292905940746614 9.059213664987013 22.334289053014828 200 200 200
-8.07157614693703 -3.903627979480364 30.30119924163254 94 94 90
-8.250546015278243 -5.147935922813105 31.78728038866 95 96 92
-7.9145454752550055 -4.5043442371094855 31.060392535446592 93 90 87
-7.655850374883529 -4.449624932352044 31.032428122538374 92 89 86
-7.274743654488745 -4.773176168881934 31.344849549245485 130 131 127
-7.127074158698643 -4.380028871807763 30.84270783235111 101 97 98
-6.9002017857852325 -5.816464395109442 32.15721068829943 122 123 110
-6.519911542667573 -4.192073983781759 30.855494875148228 158 161 160
-5.405913782923059 5.2326868245671605 24.800846204660907 38 33 31
-4.50692218534005 -4.240237634366575 30.64710217228944 166 169 170
-3.6574425088151967 9.192328422054656 22.36599873604539 192 195 198
-3.5506363406484938 9.28988912576898 22.377812962878263 193 196 197
-3.234675842884383 -4.638148116702213 30.792054715347902 150 154 149
-3.2211683143266607 -5.257208359788452 30.51638119320653 135 138 141
-3.152599659237448 -5.638552041683864 31.311533176561433 139 145 143
-2.608709413642072 -4.627024212954649 30.42660559819581 149 157 156
-2.6050870094690466 -4.647502054382935 30.521215001469574 149 157 156
-2.4476458675744825 9.219400760580836 22.432059274918426 190 193 196
-2.1557782743222833 9.291039724734691 22.360702576531025 191 194 195
-1.460124957361562 -2.91976144990075 21.874511234676064 153 159 159
-0.2458455608340759 -4.689118952816721 30.72097356583117 142 148 148
-0.9058867393899863 9.372221479071554 22.319993563070643 190 193 194
0.33500784185116006 6.788219725251832 23.660017281337133 192 198 200
0.6515935799422512 9.297199165149156 22.270677325198015 187 187 191
1.3759356758068624 9.36854924169048 22.130500353764326 183 186 187
1.7718891401492523 9.350501218317898 22.191722020196117 180 183 184
1.7753871639128136 9.441999874106862 22.174624080792313 185 188 189
2.2614331272541244 9.361655530243986 22.147428962716774 177 183 185
3.1523173486592655 9.413899446471948 22.046936231501636 180 183 184
3.7330739169582428 9.37771752945535 22.04748209132995 174 180 180
5.520525034171564 3.7114464603601194 24.701385374202907 150 150 150
6.551483151485876 0.64104824576875 25.565110665135137 52 54 62
-0.01365875109423458 3.0126134854080484 25.870742533256593 35 41 41
-0.01365875109423458 3.0126134854080484 25.870742533256593 35 41 41
-0.11023742136486764 4.440194737005556 25.05311933888161 26 32 30
3.867268867943455 6.68112028752957 23.389475234796855 20 23 22
4.68878560965194 7.797562579610877 22.76046244427526 25 30 35
-13.490279634710777 -5.353314135516578 32.21186533491584 61 47 39
-8.012442543381908 -5.3658609263822115 31.64986898142527 119 123 118
-6.357241281899139 -4.492912162296475 30.81920441087621 156 162 162
-5.972705053960974 -4.70265344182797 30.707153107469555 152 160 159
-5.435448190920865 0.7502965649920575 27.51703815941735 69 77 78
-4.901336543248775 -5.305398818260785 31.149337926946817 124 127 128
-4.901336543248775 -5.305398818260785 31.149337926946817 124 127 128
-4.589884521085349 -4.502169974366413 30.74654265044638 155 163 160
-1.1479615732303026 -4.875346744674885 30.48103299234725 96 99 100
-0.7774117116838012 -5.167572441025689 30.49850825455869 137 145 144
0.44253253602238585 7.357452254676275 23.386517316852288 33 33 35
3.303328270268149 2.197457999056233 25.927518974377513 194 202 199
3.3014047368267967 2.194182358311948 25.901021611401863 194 202 199
3.969772722376503 6.636760790116356 23.484773347380226 23 23 23
6.217011140876946 2.446997100697912 25.03050652586378 35 38 39
7.841135352698289 5.765425167517688 23.39400468719666 183 182 184
-13.73251678096575 -5.4345100969330264 32.28648852484515 121 115 102
-7.5931545496070125 9.036913020975435 22.226904640087458 201 201 203
-6.487880830189667 9.137798891934182 22.359266448374328 199 202 203
-3.496287194248988 -4.858132350944874 30.8770466449796 143 146 145
-2.8226287370987455 0.690052992624905 27.30001327751233 55 63 62
-2.371369627912532 -4.514409638931685 30.450469793214687 134 141 135
0.01515960590119651 -5.168602914866147 30.5278569846758 105 112 116
0.09943272005108202 -5.701192511213972 30.862261879559284 121 129 128
0.53891746093747 9.365867624966901 22.397154895042505 191 196 201
0.7806146662317978 7.255599148865057 23.440934429969875 32 35 36
0.7806146662317978 7.255599148865057 23.440934429969875 32 35 36
-31.997121441132226 -11.07872509369848 62.396920673257064 111 107 96
-6.786199473047469 9.050273410862426 22.409723120377176 200 200 200
-6.432514668074478 9.093610258652722 22.42432925939329 195 195 197
-7.162196096235415 -4.410118487714299 31.07108298766532 101 97 98
-6.044173698285045 9.118013542022029 22.343047309710848 197 197 199
-5.6609435326358435 -4.490983199021487 31.00940819025981 155 158 157
-5.137574453152494 9.17248432391911 22.37749600222091 197 200 201
-5.646707444412798 -4.408782376681498 30.967369178663937 140 143 144
-4.720022760806313 2.3506494600792216 26.592748938541405 188 194 192
-1.7876504945373803 -4.398670266126143 30.4467410929821 155 163 162
-0.5151750808511273 -5.129101681124763 30.49999341230959 133 141 140
-0.14406163178576575 -5.1292864119114565 30.36493069001284 93 101 102
-0.14406163178576575 -5.1292864119114565 30.36493069001284 93 101 102
0.011832413691339366 -4.931118976675212 30.39836556783224 97 103 105
0.011832413691339366 -4.931118976675212 30.39836556783224 97 103 105
-0.7573206590843508 9.353004044854881 22.563062376941897 192 195 198
0.5940668209786591 -4.637858477160444 30.082216481861412 156 162 164
0.3808130221784996 2.6215178861908335 25.911933645941343 171 177 175
1.1943679617739802 -5.527599410350706 29.86043694814877 96 104 105
1.4980854471365086 -5.033094900585263 30.204143580064496 93 93 93
0.6700930341578277 9.354360581708239 22.39748828647615 187 187 191
3.4545422947693476 9.492952472646918 22.082179105754445 180 183 182
6.2240207872910425 2.4580022561663997 24.990632434289875 30 36 34
-8.113240918911005 -4.569485696265928 31.28788162988327 140 143 144
-1.1417526695446003 2.185228682502419 26.39279711162924 40 45 52
-13.52901258587938 -5.243747028282284 32.01947578765884 95 88 80
-5.299043666409892 -5.392293827434593 31.389587740850516 121 127 125
-3.6315078986753297 -4.62708857341781 30.72072693260211 131 137 139
-3.6315078986753297 -4.62708857341781 30.72072693260211 131 137 139
-3.5649616854527517 -4.667231065340759 30.4391626913944 128 136 135
-2.330009165603441 -4.577312626781036 30.593044421671724 94 97 100
-2.25810482191486 -5.417624240639519 30.812376097365195 133 142 135
-2.3522277349216534 3.6266016092094913 25.620055664534345 34 34 36
0.9561583205087847 -5.116459280898695 30.293201330257396 137 137 137
6.71366495969523 0.5932627047140321 25.87090061917562 35 41 54
-2.8149629300705614 3.8723398024504894 25.35451688113679 142 137 133
-2.610606272179282 9.343449563452495 22.695640306086315 193 193 197
-0.8814149725004797 4.982918505581682 24.667149244087433 28 34 34
1.0740658278514996 5.527466776483153 24.411121728721277 26 32 30
3.831100982075668 9.386170785953045 21.933715924251818 185 191 193
-6.695589267910949 -5.035695898876157 30.331063140487196 117 118 114
-5.362344672850764 9.393151611818077 23.153098312977644 193 196 199
-2.823490508056527 -4.9337270224670915 30.723567089537227 141 147 147
2.2209084594885353 -5.312820356572167 30.908662927077895 135 143 142
0.8675963574472749 9.393682007287833 22.273457348282683 184 187 190
1.3306865169138555 9.339171505220428 22.2187930797302 162 164 170
1.3306865169138555 9.339171505220428 22.2187930797302 162 164 170
-5.759027982086749 -4.396068240911383 30.641195714421652 160 166 164
-3.1577258859825257 8.936940699230119 23.559751137465113 183 189 189
-1.7773376151750069 4.466330040665671 25.197610666256036 145 151 151
0.2662813001134168 4.806859574630659 24.860247484646568 27 26 28
1.5816445902804541 3.7964006876114635 25.211700076220627 170 176 176
0.9378117751215678 9.316052359819027 22.15071046149843 170 178 179
1.8584534664794774 9.27017029784716 22.007860619336466 168 176 177
5.939188425172095 4.051117406790117 24.53520118206819 23 26 29
-6.733010000359873 9.462979493492904 23.374089347540355 199 202 203
-5.447126414372817 9.448226284448433 23.21611268944951 197 197 199
-5.399194883511238 9.418271917142583 23.158588369952813 200 200 202
-2.4753099828485587 4.194699769150516 25.39771111212775 37 40 41
-0.8954515383515239 5.643730403918293 24.54006850195103 100 106 108
0.6578633320502784 -5.048613223769165 30.380445035210325 105 108 107
0.03230625141340157 2.611394098117252 26.02439598886335 189 197 196
0.6323528914966771 9.274254876679647 22.231065117252598 187 187 189
2.348624639552483 9.288638176270894 21.89383400114007 181 181 183
2.8490359752794916 9.176651280756703 21.755186289515994 173 173 177
-7.307803361576443 9.505832937603511 23.6393282672105 197 200 203
0.2829775687247445 7.906238353548982 23.13083992102078 99 102 105
0.518110931489805 9.405757566401006 22.206545406422155 185 188 189
-15.541973657072232 -4.6861498339833325 32.22142573627452 77 70 60
-1.4259523246684438 5.621850862516776 24.368433248270982 33 33 37
-9.398807286312776 -4.300027550393044 31.392110557539723 63 63 59
-8.418990418546558 -4.070815149550239 30.91177233738204 100 104 99
-8.418990418546558 -4.070815149550239 30.91177233738204 100 104 99
0.003252946223477481 9.380718857195726 22.319971101850005 187 190 191
1.0575753273948227 -4.358837430114305 29.60808717821205 93 96 97
0.34968304463194344 9.26145072686357 22.037846301069926 185 188 189
-3.736343350737471 3.0476231090322314 26.275719612192333 38 37 37
-3.2231930692906965 0.1488815973194547 27.485937268928584 79 85 87
-3.0521076726156546 7.555884325363474 23.87285530645821 20 20 14
-2.567995108538926 3.838835610691868 25.58664656693548 178 186 183
-2.329811870866796 0.21867343504312253 27.64099983116697 115 114 118
-1.150836468441786 2.1739888340348177 26.302163045069186 40 45 52
-1.1400369885105825 2.1802898028851274 26.372822232960964 40 45 52
-0.2682849318022569 2.3495273801987904 26.2206755926022 41 43 49
0.527142141558186 1.1913400646945012 26.844042438425365 53 53 57
-5.514719210436359 5.8456833199281695 24.56692929429067 38 40 46
-4.574037570383261 -5.206808046317302 30.428412901509496 98 99 95
-1.7963807695319522 4.4742581103525385 25.344559565762278 199 209 212
-1.53351720617346 0.8388699783355381 27.153002554509822 191 199 198
-0.7144762456193783 1.986977671690136 26.477163260134134 54 54 58
-0.22229213289515973 -5.19189339559082 30.3926160286837 135 141 141
1.027207660845833 3.5876595054752527 25.578441326947168 189 195 195
4.199970824308374 -4.948546671544309 29.952793248981056 147 155 154
4.892864104250651 -4.5465802776389355 29.660764821833933 111 112 108
-2.8021804327334148 -4.7747556957438615 30.689078640878208 100 100 100
-2.664215101865181 6.881529450366201 23.76521352057573 31 31 35
0.15341575339242264 -5.690355426474125 30.833853724761255 121 127 125
0.4373244939409981 -5.715882612845955 30.71443996807756 124 131 125
2.0548404994437255 -5.484960327329319 30.529411617932737 124 130 130
0.46651897397567926 -4.538565430966684 30.208824183538468 164 172 171
2.78986730000468 -4.956142846175773 30.243094747508195 150 158 157
-3.788555539134168 3.0254457498660865 26.236698206498485 44 44 46
-0.12069204722092387 -5.054446616142542 30.622459880083298 150 158 157
-0.12069204722092387 -5.054446616142542 30.622459880083298 150 158 157
0.269148915066692 -5.194665820341054 30.597236356668592 93 96 97
2.252700874459692 -5.139452424322373 30.163098220675185 151 162 162
3.578216636769063 -4.472476244602454 29.672450791976228 141 144 147
5.631475052639351 -4.822014794406037 29.678768250752075 122 128 130
6.027706823418394 -4.53437025860897 29.221349607506234 129 132 133
-2.0617522940362796 2.580214068801416 26.07236867031864 45 53 54
-1.1768979872887626 2.0082442822488558 26.41384264638937 58 58 62
1.900121413208481 -5.457079970803214 30.681070856359813 133 141 142
2.0894253596598547 -5.3081533928986975 30.426397160073705 113 119 117
3.535900620382833 -4.581579197326737 29.786041525061073 174 182 183
3.535900620382833 -4.581579197326737 29.786041525061073 174 182 183
4.364507906478876 -5.685461869987717 30.34475669596796 128 136 135
4.88102152460723 -5.7235530875522596 30.302974770618064 101 107 107
5.4553393261951975 -5.272174719441299 29.947127719240378 133 139 141
5.4553393261951975 -5.272174719441299 29.947127719240378 133 139 141
5.650925277387422 -5.183017677238023 30.106972671161724 115 115 115
