ply
format ascii 1.0
element vertex 674
property float x
property float y
property float z
property uchar red
property uchar green
property uchar blue
end_header
1.1015565988678568 0.041935496572501146 -0.401708516624284 96 97 93
1.1143825296678338 0.04211404728078596 -0.4093136684904366 145 151 151
0.9573092533056997 0.032483140403198524 -0.39462426675095935 188 199 197
0.9572334387416159 0.03300689170244941 -0.3963445591861239 188 199 197
1.119571055540415 0.041508465044097005 -0.41232775544552375 108 111 112
1.119495163285656 0.04174913619937879 -0.41194914978514097 102 105 106
1.0541778366345782 0.022092203360758064 -0.3474845266214349 152 160 159
1.0978316540272768 0.03975419714255117 -0.40177235028968444 155 161 159
1.114994562075117 0.0365935521299249 -0.40072296604897883 100 100 102
2.022511630176368 0.21629023113031287 -1.3074389956414632 105 100 98
0.8914872518813979 0.02285237616941559 -0.37979903570494666 31 34 37
1.10935122154451 0.036606222724186406 -0.4112674891812585 102 102 104
1.10935122154451 0.036606222724186406 -0.4112674891812585 102 102 104
1.1126247380120238 0.03581811495964076 -0.40935064204232463 108 111 110
1.0929678470019173 0.0352474143859307 -0.38710359021872365 106 113 107
1.089437584983863 0.03477748881281811 -0.3963110403811883 116 116 120
1.0969791434567913 0.0347073255305003 -0.40651142116430855 115 121 121
1.120589769687413 0.0353283062330414 -0.4057336732613879 91 91 93
0.9511748308930413 0.027394982115800805 -0.39547409509405534 190 198 197
0.9515897975702076 0.02736660433057309 -0.3959251072740666 190 198 197
0.8652585357983765 0.022173660009670138 -0.3977970032166921 45 45 49
1.1114860599543854 0.03178786122480541 -0.40462863098787516 103 103 105
1.0981398715896162 0.03267751294901945 -0.3878934409438367 107 107 109
1.0559955023372347 0.019023534627452845 -0.35940166906960047 112 115 116
1.1372045645730455 0.0345050089132789 -0.41622901897277076 104 100 101
0.9481305941551949 0.023664867654574928 -0.3965773290524731 45 45 47
0.8816904774312965 0.019887264276773793 -0.39818084247140645 25 28 29
0.8686855182192122 0.018697699739563135 -0.39685728873097076 186 192 194
1.0905765613282625 0.028415565823995112 -0.396925395959586 106 109 110
1.0821346861745889 0.028101656981851266 -0.3874538179026696 106 109 110
1.111262242492778 0.030847329602743494 -0.41800371211263276 164 172 169
1.1075751930256783 0.02712144802090593 -0.40623647142966524 153 161 158
1.0939141591821893 0.0271858651418785 -0.39791578897940594 174 182 181
1.0118227131054771 0.02255859232271557 -0.3957801779652628 70 80 85
1.1133074259040008 0.026475692234138943 -0.3998844436921845 142 150 149
1.098303370300531 0.0252969494759112 -0.3978501602753148 107 110 111
0.9970001444531931 0.020910945841106813 -0.3941350815205044 191 197 195
0.9964903033669286 0.020661042681597644 -0.3930506387760795 191 197 195
1.1265152323902554 0.026379951122779164 -0.40318912114854105 74 74 70
0.8765517575742372 0.016141202030194587 -0.3990059776060061 184 192 193
0.9954768535610016 0.02070510543735661 -0.38672794799847465 190 198 195
1.003673737119408 0.020422581242549163 -0.39432236821998806 190 198 195
1.1108657991952897 0.02346140656013712 -0.40268633785119134 109 113 108
0.9425594398489947 0.017851544704948406 -0.398525568168803 190 196 196
0.9413237506375011 0.01758518308928227 -0.39879022447461865 190 196 196
0.8799021142498363 0.014343904149438468 -0.39652714414169327 43 43 47
1.1156170719966467 0.022619897009090752 -0.4095245169097269 143 149 149
0.9325190108362932 0.016079125760701897 -0.39596614360404475 45 40 38
0.9300568665386908 0.01607381889432524 -0.3966874774050955 37 40 43
1.109096805005371 0.021388035309724943 -0.40551459435421955 94 97 98
0.8522922255467181 0.01437585123712633 -0.40287579345469166 191 194 195
0.9956245635327473 0.016936232376328818 -0.39739367160562794 55 63 62
1.1244075779786482 0.021756564244531082 -0.400645825917455 98 98 92
0.9999917120544933 0.016597975159787687 -0.39458636582800444 70 75 82
0.8689207727274256 0.011754409333560395 -0.3965196895608785 186 192 194
0.9701362324465813 0.014293673230875431 -0.39581566357554554 33 39 37
0.8807147340874224 0.011095260514592663 -0.39681501579534195 185 191 191
1.076188102619943 0.015300343434381436 -0.3762407251158292 172 175 176
1.1123200746955662 0.020146041664435423 -0.4175673177932472 110 113 114
0.934178956208257 0.012258174438390867 -0.39607110306562776 183 194 194
0.9337338837779596 0.012252110964919074 -0.3984841797470691 183 194 194
1.0943793472650865 0.017398950219733998 -0.40139614806202206 106 109 112
1.1012490503493313 0.014733793684533557 -0.40414762797181625 104 110 112
1.1101148676628279 0.01641826664352768 -0.41227746119456965 104 110 112
0.8692532965944956 0.007818291552150892 -0.39664441030952174 43 28 29
0.8692532965944956 0.007818291552150892 -0.39664441030952174 43 28 29
0.8760011326822237 0.007633807078501416 -0.39539771716823807 46 45 54
0.8760629451105993 0.007672374184678704 -0.3959859141013114 46 45 54
0.940840596602142 0.00863720161318913 -0.39537418475311514 48 42 44
1.1158258124060176 0.012761765502644145 -0.4062551628116366 100 103 106
0.9366529066225946 0.007988109493855379 -0.39608540479489895 182 193 191
0.9444973552036968 0.00832931031729678 -0.3968913941295304 183 194 192
0.9446109240178396 0.007948312347039643 -0.39561434513857435 183 194 192
0.8398679347548574 0.003975024144766321 -0.3968165204904886 194 197 200
1.1020521116173427 0.010030243399437184 -0.39818822900574874 158 164 164
0.9941591814627224 0.006591708273200975 -0.392968091218455 55 66 66
0.9985750409205585 0.0078942172906363 -0.39784637501165543 55 66 66
0.9476926218444213 0.004957007746188876 -0.3950094594034555 44 44 40
1.1022559589582628 0.0032703283540729206 -0.40082490180212305 160 168 167
1.102166311696047 0.003333316272451035 -0.4038239081818329 113 113 109
0.9516598048111355 0.00129937072419754 -0.3952733595874688 189 197 194
1.111860289836332 0.002588537491788341 -0.40163427466455415 106 109 112
0.840844106295675 -0.000881853691187323 -0.3982480985191442 129 129 131
0.9971783743663168 0.0026816908671998285 -0.41253960912347165 52 60 61
0.8389421264467478 -0.0017267311185971339 -0.3957889979527715 192 195 198
0.8387640066167849 -0.0016935916121940662 -0.39536443046132985 192 195 198
1.0818982530976684 -0.00011121739608749593 -0.3848534035951136 166 174 175
1.0785506926583406 -0.0004953424516871691 -0.37375570546746434 152 163 161
1.102349800059599 9.885025754079772e-05 -0.4037626853774445 103 105 111
1.102349800059599 9.885025754079772e-05 -0.4037626853774445 103 105 111
1.1125526358460585 -7.933692282305456e-06 -0.4085188932653928 101 107 107
1.092538303983252 0.00023704430378591548 -0.38569328671219666 101 107 107
1.1127195477653054 -0.0013592728446125636 -0.4107092755687541 138 141 140
0.9838839958740306 -0.0034056038176026896 -0.3943566202621676 191 197 195
0.9582035279353877 -0.0037104926678293688 -0.3956904508907133 190 198 195
0.9578536354898043 -0.0038427601018517213 -0.39483621064751073 190 198 195
0.9195600449611508 -0.004001034703838991 -0.3980871498623582 185 191 191
1.0961562063765042 -0.0047980414375399785 -0.4012269984796376 157 165 166
0.8429887468366134 -0.00636872934930964 -0.39852689211910364 147 146 150
1.1154117013084255 -0.002989612065733726 -0.4141925953651587 152 163 163
1.1105629657500908 -0.004042304044786627 -0.4094831494030028 152 163 163
1.1141191218580173 -0.003121098177217985 -0.41601562521409813 109 112 111
1.1141191218580173 -0.003121098177217985 -0.41601562521409813 109 112 111
1.099545860501097 -0.005796038603611361 -0.4000150468586586 106 109 108
1.1261576751292355 -0.0033570229039169186 -0.4148303045025129 105 105 105
1.1261576751292355 -0.0033570229039169186 -0.4148303045025129 105 105 105
0.8400700711022633 -0.00867832924579762 -0.39496654069762477 183 189 191
0.9618005169778502 -0.007406651741630479 -0.3954231579237104 42 48 50
0.9795021176901313 -0.008887509182081976 -0.3959385172524139 41 49 48
0.980451016458633 -0.008580397983308482 -0.39685572721948587 41 49 48
1.0838158779788096 -0.009257810709107727 -0.37660125047648374 118 118 120
0.9143429308564178 -0.009697344667925024 -0.39622701786388187 29 35 35
0.8986441879822176 -0.009897524896375031 -0.3958553569302048 30 33 34
0.9632741246756935 -0.010646362256530923 -0.3920294239604277 184 197 196
0.9725621023941318 -0.010639189849188092 -0.3946074847944744 188 196 193
1.103223110119772 -0.011527739110151898 -0.4018541150360789 146 154 155
1.1163769713918137 -0.009142592550777522 -0.4152740121703151 154 160 158
1.1070476134525982 -0.009601724127152097 -0.4156259940483482 117 120 119
1.1080168102092134 -0.011256670970786354 -0.4090386609214189 116 117 113
0.9076985776745502 -0.012207434984332185 -0.3951740319165066 183 189 191
0.9668334965893578 -0.012842002181394564 -0.39441409197510185 192 198 196
0.9729395052829903 -0.014599273166049368 -0.39487030453649763 48 44 49
0.9725730236055246 -0.014620925173429037 -0.3933327546878825 48 44 49
1.1029268108717487 -0.014156161239108449 -0.4131834853961887 171 176 181
0.9765465878882004 -0.014840412888933337 -0.3938506862964581 188 196 195
0.9765343150654293 -0.014857420458223334 -0.39378850792298264 188 196 195
0.9002978009111491 -0.015531285010248511 -0.3953139782603365 176 187 187
0.9674350775234628 -0.015311526933557645 -0.3955807187983125 188 196 193
0.969428274059404 -0.015811591613212158 -0.3947426484876579 189 197 196
0.969428274059404 -0.015811591613212158 -0.3947426484876579 189 197 196
0.9044671366725987 -0.015789851414077696 -0.39501547158888994 50 44 50
0.9043712017458951 -0.01580638828539501 -0.39500920968248077 50 44 50
0.9043811155993011 -0.01579487870090349 -0.39506689684641616 50 44 50
0.9043685204802765 -0.01581942706697374 -0.3949765618881009 50 44 50
0.9710114937855024 -0.017630767744685125 -0.39222742472262206 42 48 48
0.9612068866931492 -0.01840800430011741 -0.3954454513744929 39 47 48
0.9759776773988521 -0.01913335595195326 -0.39498465743489586 55 58 61
1.0856803873315886 -0.020087098540472543 -0.39417059861713316 121 124 123
1.0953453566909663 -0.022772167154591023 -0.40098035693553985 153 161 162
0.9093077448398234 -0.02043097581049175 -0.3934238608676369 186 199 196
0.90958891890945 -0.02050343239114295 -0.394433545052932 186 199 196
1.1039836191700305 -0.02149081286240369 -0.4145236969285723 166 169 168
1.0946117361980257 -0.02419606593504155 -0.4022863004732467 83 83 85
0.903109394157967 -0.02146864592130283 -0.3943614973218962 183 189 189
0.8410548030913333 -0.02101341339317209 -0.39735492794482935 143 142 144
0.9753537140220145 -0.02240499367568195 -0.3947890394209257 189 195 193
0.9777826496372088 -0.020537638702895683 -0.4040441949553235 189 195 193
0.9677095971819153 -0.022735815038266376 -0.3921057776096835 47 47 49
0.9677095971819153 -0.022735815038266376 -0.3921057776096835 47 47 49
0.9076895458556579 -0.02270007635397489 -0.3933062579522888 38 37 41
0.9121297288607791 -0.024394547563367425 -0.3925205160878382 26 32 30
1.101527182569164 -0.026822330451954736 -0.411755965846869 158 164 164
0.9792565844351971 -0.026070482672642815 -0.39186336503370417 50 58 59
0.969511896542237 -0.02604696097638167 -0.3959756233375173 39 49 52
0.9824559122176589 -0.029697151488303482 -0.3910320560983198 187 198 194
1.1076787609294725 -0.03156008844179318 -0.41216579072321663 148 156 155
0.9929518043223815 -0.03826063840436402 -0.39155718870376854 50 58 59
1.100182400262919 -0.042142199988702805 -0.4069295601484845 93 94 90
0.8889470179402148 -0.037595222424647745 -0.39410248211165483 181 184 185
0.8870224567421149 -0.036001232201402764 -0.3919214242946563 181 184 185
1.0866754230382314 -0.04235711339024722 -0.395372180471209 100 100 102
0.9958053273338354 -0.0415963297651288 -0.39059310196143937 185 196 194
1.1065766184352324 -0.04637714709666148 -0.41083175702856656 133 139 137
1.0907048208471506 -0.04697087418802883 -0.39715548200367357 132 140 137
0.8816286713930127 -0.04114928091800547 -0.3919196161136019 27 30 31
0.9382621941817909 -0.04340093354613639 -0.3968866446322629 43 46 45
0.9382621941817909 -0.04340093354613639 -0.3968866446322629 43 46 45
0.9959951595162024 -0.045251035545992545 -0.3908890597636164 187 195 194
0.9993309104245152 -0.044970644033431366 -0.3888207398013739 63 71 72
0.8667821355571399 -0.0414046610672661 -0.39298349507067987 29 32 33
0.9423317007932386 -0.04457057495266277 -0.3939466611681546 178 184 182
1.1058100284968218 -0.05162839724849466 -0.40699852275001347 88 88 92
1.0120092823516262 -0.04823686724014648 -0.39354699625652856 188 199 197
1.1044928629236124 -0.053070499984574776 -0.4073886400330238 120 124 119
0.9324295040732651 -0.046564863394792065 -0.39183714491486393 176 182 180
0.9445496268794883 -0.046971630307652494 -0.39146478318219535 176 182 182
0.9999776298172602 -0.04918884127509909 -0.39016525172928085 189 197 194
0.9379268905726863 -0.04699317054688738 -0.391857481673318 174 182 179
1.0012025377139084 -0.04831753498985246 -0.40073088421281805 63 66 69
1.0012025377139084 -0.04831753498985246 -0.40073088421281805 63 66 69
1.0012025377139084 -0.04831753498985246 -0.40073088421281805 63 66 69
0.9931569854190564 -0.04944402784925973 -0.3910651516617797 51 56 61
1.0490142687033526 -0.05382669264421394 -0.39321811917149047 197 200 199
1.007992126466258 -0.05114437404935572 -0.3953682069415862 192 198 198
1.0927821559435287 -0.05457082438583609 -0.3994724776842259 110 121 119
0.9441641796454373 -0.04933898367197483 -0.39425930433951617 40 36 41
0.9445499637715673 -0.049936326091109186 -0.39421520791529585 40 36 41
0.8804153195885015 -0.04670902857573083 -0.39199500112132885 175 183 184
0.9085749628659652 -0.04889680535576976 -0.39954509897648216 21 27 25
0.8681300913402314 -0.04682253203244101 -0.38964042187910897 175 181 181
0.935461296275285 -0.04982972411891607 -0.3908631798746399 54 50 55
0.9355022815623191 -0.049862130695088325 -0.39087547065859135 54 50 55
0.935461296275285 -0.04982972411891607 -0.3908631798746399 54 50 55
0.9361309423113535 -0.04953849364335815 -0.39320623006525296 54 50 55
0.9996283925509017 -0.05273787415290753 -0.390073234663637 65 60 68
0.9952822249480493 -0.05333640546656669 -0.38992375513235605 188 196 197
0.9968286657746089 -0.05324655211585672 -0.39381498665374326 188 196 197
1.014066707555938 -0.055593361340307644 -0.39735384416425357 192 200 199
0.8814457083440393 -0.05063423900173425 -0.3989706827837454 44 40 43
1.0103656143002826 -0.05649770477685478 -0.3896209880417027 64 71 75
0.999452926734876 -0.0561950771195607 -0.38925737319207765 47 53 55
0.9384061955857973 -0.05340421867355885 -0.3905255296402417 174 182 179
0.9359546175797075 -0.05401280624182508 -0.39087583126636954 171 177 175
0.9922488342188173 -0.056763348264352996 -0.3898608510499863 56 62 62
0.9935473545077593 -0.056669204322904454 -0.3934808511615335 56 62 62
0.9456783842792841 -0.054952950269787124 -0.392416600030026 30 36 36
0.8769708944552348 -0.05150948356536108 -0.3897843825429187 175 181 181
0.8718432228268465 -0.05167963168007887 -0.39292652808930617 172 178 178
0.9296298495044155 -0.05575594809866408 -0.39056406720449277 30 33 34
0.8710203204182718 -0.05410849299468889 -0.39106035474286976 35 34 38
0.8752644583062491 -0.05625775982943194 -0.3924217897424277 27 30 31
0.8752644583062491 -0.05625775982943194 -0.3924217897424277 27 30 31
0.9822402074188323 -0.06536711024676432 -0.38978308258503563 191 194 195
0.9821225318204572 -0.0689558553613984 -0.39662647883830576 50 49 58
0.9795611566158182 -0.06724508399899146 -0.3895023613792682 50 49 58
0.967889558480996 -0.06956880772409886 -0.3906480694723242 43 48 55
0.9616474938395472 -0.06927193785101213 -0.39422445390992467 44 46 52
0.9142416632300797 -0.07070534311324429 -0.3927751273668445 30 33 32
0.9748409218159537 -0.0757153921149854 -0.38916121570142903 52 46 52
0.9753309299654003 -0.08044744150892226 -0.3940230879634813 189 195 193
0.985586031290213 -0.08602558250848907 -0.4010146569021463 40 46 48
0.9605259269258578 -0.08329310909772036 -0.37054083549913563 51 49 56
0.9486304778606294 -0.08415250809755037 -0.4093571891660612 21 28 22
0.9159626348485135 -0.0827512887565887 -0.4001897024753504 177 183 183
0.9788292004918431 -0.08764853439619721 -0.3906260536460095 57 57 61
0.900553069154743 -0.08417355842874445 -0.39129276659016177 171 179 178
2.0913468896012586 1.435959224676912 -1.2150631626207273 107 100 90
1.1309357594108096 0.33511913227933254 -0.41745710575622924 27 27 21
1.1072575407462661 0.1992842698150461 -0.4144436303338344 56 55 55
1.113669953838581 0.19511285986485274 -0.42463008363344046 77 72 70
1.0724998096880536 0.17249867496827795 -0.38462477871525325 111 112 108
1.0804168110405306 0.17858162093990296 -0.4078524099576416 84 79 77
1.1044818823167228 0.18188110955788228 -0.41766504784779956 122 123 119
1.0710508703658692 0.1674366329852864 -0.381664291141269 82 79 76
1.0792407742426597 0.15750961299535368 -0.37970608637334485 94 93 95
1.089467014734229 0.15742628280858212 -0.39143950094374513 85 79 81
1.0571205246368955 0.14132935120881077 -0.3602168090593277 114 109 105
1.08246124565099 0.14975125021179944 -0.38465879161813915 98 97 97
1.1030078253084055 0.15342704439596566 -0.3922816838745741 133 133 129
0.8402155216691396 0.11429605223860417 -0.396053197231065 206 206 208
1.1232645164363269 0.1493460951476616 -0.42293679211121005 125 125 129
1.0745142650839508 0.13343025704979375 -0.3741244668763761 161 167 167
1.1301437576680056 0.1542656205861658 -0.43806382582582926 104 103 107
0.9051701710079234 0.11220651659536371 -0.39449088094384593 188 196 193
1.0145602997695822 0.12065791975088407 -0.3882937102242551 77 80 83
1.0145602997695822 0.12065791975088407 -0.3882937102242551 77 80 83
1.1034541389658805 0.12349057740554525 -0.40851175489354563 112 115 114
1.093177636506525 0.117736501849132 -0.3934545056506492 158 161 160
0.9787255576935067 0.09780585367274128 -0.39087156012454033 56 59 58
0.9536408616614982 0.09540202436428095 -0.39612228561035806 36 42 40
0.985440825443171 0.09120519948968625 -0.398036404561709 55 61 63
0.9415505809159541 0.085197675932704 -0.39507629163917607 41 44 43
0.9459551138542402 0.08302343763139797 -0.39577062746754627 185 193 190
0.9459551138542402 0.08302343763139797 -0.39577062746754627 185 193 190
0.8780077263986481 0.07713948029696573 -0.395767426546817 184 192 191
0.8780460891230712 0.07752584957736604 -0.3966444336676424 184 192 191
0.8751404844448221 0.0774506486531436 -0.3975793959859613 43 35 34
1.0976635752069122 0.09267239861716389 -0.3826157363713741 127 133 133
1.1137599103890419 0.09597521410378679 -0.4015247350546706 105 108 109
1.1007282963197638 0.09393842555380981 -0.40941147166914116 108 108 108
0.9333303715804021 0.07737052560105753 -0.3941646284839575 42 31 24
1.1357746909544397 0.09341216335066328 -0.41519782275754175 85 81 74
0.8817974312180221 0.07325875580708038 -0.3962272233124805 183 191 192
0.8817974312180221 0.07325875580708038 -0.3962272233124805 183 191 192
1.1032041079208992 0.08675728074280432 -0.40304406550624544 161 169 168
1.104415347744426 0.08504330098882189 -0.4079006407625012 100 106 104
1.1168344968846753 0.08957642091391142 -0.42365801747986465 166 169 170
1.0043545820572701 0.07437728029849318 -0.39161655018827957 78 77 79
1.004623059684623 0.0744353113789012 -0.3918464670218173 78 77 79
0.8435435353084169 0.06398044179987622 -0.40112874386097147 195 195 197
0.9989735762708759 0.06967592133061501 -0.38936251386597287 194 202 199
0.9989735762708759 0.06967592133061501 -0.38936251386597287 194 202 199
1.0936490621818555 0.07340391135547811 -0.39468501540179324 110 116 114
0.9259877497229893 0.0628842268895112 -0.39438146984435485 185 193 192
1.0893829179682477 0.07120023921078657 -0.3964784266971306 109 108 110
0.9085835730270587 0.052601338235929496 -0.40211465685861997 179 190 190
1.1134413897076765 0.058639264662616146 -0.4075575334766086 93 93 93
1.1153413073380045 0.056812758863503704 -0.40977716544950415 103 106 109
1.104712628492013 0.05416927430884699 -0.4005005226952994 93 93 95
1.1063536804337208 0.04904399684461524 -0.40705466561253323 164 175 171
1.1036082118269732 0.04645796738496128 -0.3969647410440582 151 157 155
1.1036082118269732 0.04645796738496128 -0.3969647410440582 151 157 155
1.100442539696478 0.04611383227261621 -0.4101733383915491 115 115 117
1.1073711279508587 0.045080931159378085 -0.4098640546032355 94 97 98
1.1078362123345826 0.04512684252780916 -0.4099200380220805 94 97 98
1.0994050964845596 0.044074051321072234 -0.3973473062512707 157 170 167
0.9679639274986611 0.03955070257046518 -0.39421361600187677 187 195 194
0.8408183861622335 0.03475746410055316 -0.3973610409411687 107 107 109
0.9623534826310586 0.038357465736730684 -0.39674845814973 36 42 42
1.1121154273332234 0.038290972549123004 -0.40651850361188835 146 154 153
1.113830268200647 0.036232503946136065 -0.4065669454074118 100 106 108
0.9895658654331173 0.033372349949476146 -0.39410125356728687 50 63 62
1.1093068367908445 0.03514657262026858 -0.3997166338595009 105 108 109
1.0825598683020055 0.034521458780815556 -0.3732582584432188 142 148 146
1.0963088467379782 0.034712477035368526 -0.39985479747852976 156 162 162
1.1153324765298993 0.033337985750067245 -0.41017453147386357 139 147 146
1.1175369198186034 0.029516964983514162 -0.40240378698948465 98 98 100
1.1234845683813826 0.03219859155096421 -0.4194129788661512 153 161 158
0.9900643147491455 0.02797384987630589 -0.39529971129682917 189 195 195
0.9896850645936356 0.02797953099990841 -0.39483172259423105 189 195 195
1.1286523135268123 0.028706211527580905 -0.40721188875406494 94 95 86
1.1124499676443362 0.02465353830100742 -0.40749647761401064 141 147 147
1.101439333768773 0.022768793403918786 -0.40675182065962295 160 166 166
1.111380993434756 0.024471958632864194 -0.41583165587305465 167 173 173
1.1098095779780142 0.02181472410184027 -0.4047025981886141 161 172 172
1.1169585013358858 0.02345252452217577 -0.411639580795838 161 172 172
1.0914058452428193 0.02167366634247677 -0.3847149614612796 95 98 97
1.0988560444506157 0.02191071192852719 -0.38747430842531944 102 101 105
0.8406093060838467 0.019200497633204104 -0.38377429729336776 175 174 181
1.1148478558416899 0.01720356939798165 -0.4078960347041993 140 148 147
0.8406667011943153 0.014748682959566743 -0.39645582394694445 105 105 109
0.8406951640261713 0.014424962753611978 -0.3933511701679859 105 105 109
0.9966051594929025 0.013166976667121032 -0.39458138254683606 183 194 190
1.0913421306646969 0.012963889800806693 -0.3870180682160697 149 155 157
0.839764410689935 0.011620000922972308 -0.3976871969173753 187 187 191
1.0029638117926523 0.009546618870323254 -0.39345154726296144 187 195 192
0.9334650406076377 0.009009914057630254 -0.39615776582674855 37 33 36
0.9334279041035822 0.009046836723364178 -0.3959650790771257 37 33 36
1.1168748467518066 0.007212140660171644 -0.412797601917304 103 103 105
1.0911927057732256 0.005639777754064957 -0.3973432345666316 107 107 111
0.93043746936413 0.006084278429279007 -0.39588477239245207 31 39 36
0.9305573608798188 0.006091288899303192 -0.39587405065268466 31 39 36
0.9305743560072323 0.006098125071523021 -0.39597534080906593 31 39 36
0.8725057354986449 0.006658783067087101 -0.395521603957542 174 180 180
0.9406588202000086 0.005203084930806929 -0.3954752409108122 37 43 43
0.9665581758133737 0.002621814084481678 -0.40651387680720796 39 47 48
1.1127195477653054 -0.0013592728446125636 -0.4107092755687541 138 141 140
1.1088553032000072 -0.008044269942000824 -0.4104969172834759 102 102 102
1.0897856274638629 -0.013759355069499346 -0.3987169168910676 112 115 116
0.9143429308564178 -0.009697344667925024 -0.39622701786388187 27 33 33
0.8407927576295047 -0.008416179639148948 -0.3952092139129328 176 179 182
0.9677615263259555 -0.014984580295204634 -0.39667584635043757 185 191 191
0.8427384454515852 -0.014372588725471909 -0.3979630405057334 187 190 193
0.908134456355736 -0.018819325572942608 -0.3931163784366196 171 177 177
0.9731847858040398 -0.02208925044449984 -0.39031351958619853 185 191 191
0.8404121193194358 -0.016806577253962906 -0.394858872266575 109 112 115
0.8411489439499258 -0.01885575839210101 -0.39555007613885745 170 176 178
0.8408448809158943 -0.019103558283880478 -0.39635028160201674 170 176 178
0.9260892665024966 -0.03025385710602189 -0.3949049515822116 30 36 34
0.9901762835430754 -0.03460083605940281 -0.39397527630724904 190 193 194
0.946430586230137 -0.04753845183218156 -0.3953232628034015 168 179 177
1.014066707555938 -0.055593361340307644 -0.39735384416425357 185 191 189
1.0027074254119148 -0.054072780542658475 -0.38975257232343063 193 196 197
0.9465741918071198 -0.05618417749685979 -0.39479860059092836 30 36 34
0.9633947668926388 -0.06169421360365307 -0.4000276238151265 36 42 44
0.9669782461019865 -0.07133451028606692 -0.39453044772844076 188 196 195
0.9142416632300797 -0.07070534311324429 -0.3927751273668445 27 30 31
0.9738799107512234 -0.0834328891411989 -0.39170631190710126 52 45 56
0.9759845735763599 -0.08400317239734123 -0.3904598930025483 186 192 190
0.9655905513628178 -0.08606098923255492 -0.39051684855928953 36 42 44
1.1203798985810627 0.2691840547054998 -0.4009281410759843 40 31 26
1.114504401956222 0.17525114104609507 -0.4182141981367117 116 116 112
1.1295079454987291 0.17844951614930735 -0.4392818717680979 148 151 152
0.8427332586949967 0.131807438256941 -0.4031566127579399 129 125 128
1.1212927830909063 0.15610983125484998 -0.4309052040109698 160 160 162
0.7822382467097877 0.11002006804059664 -0.4164982711932919 71 73 64
0.9920062091908455 0.1203110565990046 -0.4132245540483185 62 64 70
0.8427341321518965 0.1068764189033224 -0.39992250431043497 128 131 134
0.9713898673235125 0.11121157016833556 -0.39368530800517415 55 54 56
1.0133229901675005 0.0977784290229767 -0.3918553811512069 62 72 75
0.9521270166845507 0.09433294396191698 -0.39278629897645356 37 43 43
0.9513591824295137 0.08883944839788814 -0.39317823008386216 184 190 188
0.8726134912296258 0.0803140644755024 -0.394280527102951 175 186 186
0.8722349225282692 0.07980357933806313 -0.39343902242323014 175 186 186
0.8742276937496742 0.08097705903733676 -0.3962657301613965 175 186 186
1.0012653900524842 0.08543749499841838 -0.3890747396191548 60 67 71
0.9441927183393933 0.07829061206988801 -0.39333401052660716 181 189 186
0.785778299711533 0.07259341913499602 -0.42006271422062164 63 54 57
0.7857458000634919 0.06930007637732241 -0.4081938045570465 81 71 71
0.9328364475643601 0.06984629767568958 -0.3993047811362002 31 34 35
0.9341276404039788 0.07005513042548005 -0.40041568382721365 31 34 35
0.933555107124894 0.07012483638756016 -0.40018459822279734 31 34 35
1.0868960218162231 0.06816710549629738 -0.3935460881204815 99 102 103
0.9703026458232041 0.05274904521514668 -0.400695280826547 184 192 191
0.9697999227092295 0.05274777279013325 -0.4000175352278713 184 192 191
0.9709497984107623 0.04442980257187579 -0.39495133745894323 42 45 46
0.9786301698094778 0.028767065081608284 -0.3849255481576452 46 53 57
0.9295131582363869 0.023361408928922193 -0.39636872959626623 30 36 38
0.8683950167035733 0.0208615424335002 -0.3865036252273485 165 176 176
0.8765517575742372 0.016141202030194587 -0.3990059776060061 164 175 173
0.9369079208801248 0.012241982573033139 -0.39585903143763723 47 43 48
0.9369079208801248 0.012241982573033139 -0.39585903143763723 47 43 48
0.9941591814627224 0.006591708273200975 -0.392968091218455 49 56 60
0.9362806519245477 0.0080527369536373 -0.3955819854639661 164 170 170
0.8390009060157512 0.010730410077854526 -0.3884759586991259 107 110 111
0.9074283951648835 -8.731757719218927e-05 -0.42943953318215944 27 33 31
0.8389049318672953 0.0027261375302187205 -0.39613190283628763 95 95 97
0.8388425533678098 0.0026807328584604623 -0.39616562335467 95 95 97
1.0210546795795297 -0.003294295387904942 -0.401577875607214 50 55 60
1.0190922624113286 -0.004516037049289363 -0.39969511159359283 49 55 57
0.9516708516365872 -0.003731950060732072 -0.39780773031396505 32 38 40
0.9659354964995162 -0.008416330220810547 -0.39805905546590215 166 173 177
0.8993477355135979 -0.009800580239431131 -0.39682645442492326 25 28 29
0.9619927390585161 -0.013317147478989606 -0.3871697568585814 189 195 195
0.9619927390585161 -0.013317147478989606 -0.3871697568585814 189 195 195
0.9709976329943325 -0.01762672707728781 -0.39215920261098125 41 44 47
0.9992360491843338 -0.03623130754724776 -0.3873230220174495 35 40 45
0.9344056958891024 -0.039930934010890304 -0.4258007254941756 21 24 25
1.0077556422375913 -0.04236400125829366 -0.39262971625629917 34 42 43
0.9904501074602536 -0.046226269526427784 -0.3749612994315829 40 48 49
0.9968331173641386 -0.05327105296213473 -0.3939100500198462 184 191 185
1.0029365334089528 -0.0539946563901189 -0.38983097638832837 185 188 191
1.0088979538950154 -0.08016634235729443 -0.40005610015806614 26 32 34
1.090864601216302 0.28106796425128866 -0.384148762769869 65 66 53
1.1042519390929961 -0.007454370422585421 -0.4009190325346983 117 123 121
1.0978087976397026 0.1750952248526771 -0.41089356052485104 191 191 187
1.1338258765729654 0.1793824081451153 -0.4203046545029826 89 88 88
1.0760613802582513 0.14303143062037085 -0.3777351764323161 106 106 102
0.8404908264698755 0.11680787136266756 -0.39588702390107394 184 183 185
1.0769218332528963 0.13811503760296454 -0.3738862175483818 163 169 169
1.1068223289240917 0.1477801971950625 -0.4138614093992089 114 115 111
0.8430449492431189 0.11479877073728931 -0.4024944661712482 143 139 144
1.1347487564561063 0.14320443323017637 -0.42306423585740544 100 100 100
1.1090446219109276 0.13595089492407522 -0.41674660390132123 163 169 167
0.8977417744596502 0.10293821939956917 -0.39145099877724904 36 42 42
0.9761932361713964 0.10364812529741514 -0.40464949748584517 59 52 44
1.123741267603953 0.1074403173901375 -0.42117384841403044 110 116 114
0.9529095264170317 0.08910618855183189 -0.393958293671367 191 199 198
1.107423189141801 0.10084235071756942 -0.40936225018345995 157 165 162
0.8789527354422955 0.08006783499186564 -0.37889907342743107 30 33 34
1.104514415185539 0.09140246467258795 -0.3879927613500153 92 100 99
1.104415347744426 0.08504330098882189 -0.4079006407625012 100 106 104
0.8774016935764594 0.06836778823225365 -0.3749523220535613 29 29 33
1.1144494391986406 0.07516408202937788 -0.4109914733337897 133 141 140
1.1186918154528513 0.07255580220717626 -0.4066163336610133 104 110 110
1.1258841690134556 0.0711696269631437 -0.40825010254980465 95 98 97
1.1064369276813568 0.06220364614430791 -0.40643849423940953 161 168 162
1.1362429531384814 0.060573221401822974 -0.42006752093155403 136 142 140
1.0883267867478412 0.054379022396995366 -0.38544355252948587 152 160 159
1.1128044023939634 0.05479093636442493 -0.4086630704886499 145 151 149
0.987537941471468 0.06401106690893024 -0.42584961565299034 188 199 197
0.9705950244690976 0.045046903266888816 -0.39404828028662336 42 48 50
0.979344186108809 0.043384142540879835 -0.410970867115153 55 55 57
1.0741184397660772 0.04230656351713027 -0.3723295800702916 160 163 162
1.1138489454628997 0.038490467293879005 -0.4063777022395262 101 101 103
1.1209063585718138 0.03672843448454533 -0.4128928992767704 100 103 104
0.9822875805380806 0.032783943246472415 -0.39309085241426267 189 197 196
1.123858249680814 0.026919324017690687 -0.4076738097799993 77 80 79
1.112049741866121 0.027253607196583273 -0.40840419891280394 84 83 85
1.1208190168165428 0.024466601183328888 -0.40246003525218205 131 139 136
1.095753667538549 0.024914732777322042 -0.38973209495974215 77 77 79
1.0881791181703317 0.02295720384919189 -0.3866296418745845 91 95 90
1.1114443989975566 0.01702234820322236 -0.4074022867243758 94 94 98
1.111594680265155 0.014227443950555339 -0.4036620320637655 97 103 101
0.875499698427613 0.020707383272988916 -0.3994867422652631 29 32 33
0.8765973106626483 0.016708613811735894 -0.38517634845934356 176 184 185
1.0956493108534993 -0.002859055516117411 -0.4007737580393376 88 88 90
0.8421083660563566 0.004053473955419604 -0.3968155942952952 178 184 184
0.9055378618484353 -0.011891906540321509 -0.3971845622617929 181 181 181
0.8366228129198234 -0.014905160586563868 -0.36562102649087314 179 175 178
0.9898979506713637 -0.03728064763205977 -0.4019522921488012 29 34 39
0.956933787687905 -0.058815575881318784 -0.3877370053411999 29 35 35
1.101454278006012 0.30070444086275205 -0.38442813774398027 87 80 70
1.1370616650772678 0.16598056375026624 -0.4275963319243732 89 89 89
1.0769094754338016 0.13644366843072123 -0.3768362325630085 169 173 168
1.1198725614278475 0.030816526529482788 -0.40204695467406004 131 139 136
1.1177323673661328 0.12486755298915943 -0.40892850814324094 107 107 109
1.1230563532411955 0.10834514375462972 -0.413766226787766 96 102 100
1.0717256021284716 0.09456698191057597 -0.3745605725906276 168 176 175
0.9487579128179326 0.08548501870128576 -0.3729155385432955 40 48 45
0.8354390695798665 0.07318544488125689 -0.36034958569366865 195 195 197
0.8771183550940626 0.07452132825741212 -0.3776706184201947 33 32 32
1.1103467016354165 0.08355098237100811 -0.4116318953377823 153 161 160
1.0841361802342426 0.07794122303494544 -0.38691179357929356 156 162 162
1.115464009059643 0.07574039222954758 -0.4111213418229056 104 104 106
1.115464009059643 0.07574039222954758 -0.4111213418229056 104 104 106
1.113739026916631 0.06322704605105611 -0.41224631310327486 96 95 97
1.122189249464257 0.06026953673483261 -0.4094112082864957 99 102 105
1.077430141027992 0.04812394502558496 -0.3768385718006285 162 169 163
0.8336969518324663 0.04298310678854581 -0.35235989020550595 129 128 135
1.0996976580221909 0.0442302360157023 -0.39764144239636334 160 166 166
1.1158938550873527 0.039080902192202234 -0.408467198645191 98 98 98
1.1065874847548254 0.03662511517946696 -0.4054174179000182 146 152 152
0.8407043687336972 0.014795926925712868 -0.3968113772672065 83 83 79
0.9681287481121733 0.0008341939351030512 -0.41002539073723027 38 46 47
0.8392932250076061 0.006927523327113408 -0.3983908945225137 120 119 121
0.8400536622837023 -0.0015332627429881754 -0.3966104904018981 164 161 158
0.8401011179018884 -0.0030059430913280923 -0.3980242354236389 96 96 100
0.997966813693271 -0.0530546287876308 -0.39246341628838183 192 195 194
1.1098760848237113 0.2810516978424891 -0.40296867757607624 29 26 21
1.1143128579372283 0.26581171899976935 -0.39433660311986 132 129 115
0.9688883005825838 0.10909158635404884 -0.3947361834651973 202 214 218
0.9688883005825838 0.10909158635404884 -0.3947361834651973 202 214 218
0.9551512339074355 0.09311880226855246 -0.39812531388819605 47 44 41
1.102005089337057 0.09693947646605999 -0.4050189192037082 161 172 172
1.1004104038142004 0.07261130367455493 -0.40436807301897776 128 131 130
0.925449748105823 0.05452967462108553 -0.38996277945741364 35 40 45
0.7963078852017088 -0.03150897317404196 -0.10155641233755065 26 32 30
1.1214218810111949 0.05492426161765953 -0.4038776886172927 100 106 104
1.096383323227946 0.04483748649357278 -0.4081970072661835 121 124 125
1.1050456448587278 0.041197119940668554 -0.4032178559351135 119 122 125
0.9346452098023708 0.011691406723269097 -0.3937836693963545 53 48 56
1.1076674351165154 0.01091854392583441 -0.4014790064506151 145 153 152
1.100126725857372 0.010137664926001945 -0.4017097301983201 122 125 128
1.100126725857372 0.010137664926001945 -0.4017097301983201 122 125 128
1.0987470416652636 0.0025772223211799838 -0.40261786758081836 168 176 175
1.1010165365159774 -0.00979381245566174 -0.4027682476834303 106 110 105
1.113086633680819 -0.010520710739242115 -0.4017636992706568 98 101 102
1.1127473462722313 -0.010591209813776158 -0.40113360971754264 98 101 102
1.0920276615318931 -0.012825473188912563 -0.4017982324719205 161 167 169
1.103453822441911 -0.013688141600314035 -0.3989370354344333 96 99 98
1.096415656527448 -0.01409766550871553 -0.4010330729870576 160 168 167
0.8990074741368217 -0.008191285809778931 -0.39069183321164985 36 36 38
1.096437931998632 -0.021316433831349728 -0.39695573530327094 108 114 116
1.0128124312759803 -0.03887219278310317 -0.3936198716602226 56 62 64
1.0224504171569249 -0.038875361459870895 -0.4070874287032327 56 62 64
1.172055320158557 -0.06037287264737166 -0.49014272276938337 84 90 92
1.0021106780092732 -0.051862534422370925 -0.3939330453289454 197 205 206
0.9623280347720681 -0.06942436681177155 -0.38520429137217543 199 205 205
0.9479134165131028 0.08789651977406517 -0.39100336514649425 160 166 164
1.0109683476467803 0.08579883972255666 -0.39773359925209223 183 186 185
1.0113158778311764 0.07831148596292618 -0.3985923470841343 190 201 201
1.1094685653592935 0.03970676167527504 -0.40529016839652915 152 163 161
1.1176432547921014 0.018420214357594496 -0.42012298382638125 165 176 174
1.1051847333778895 0.008245505461126318 -0.4020328890325109 96 99 102
1.0938449420468632 -0.007283756911924678 -0.4037367227456863 181 189 188
0.9043629011591315 -0.016914478225898973 -0.40001022066143804 187 195 196
1.1154181067350546 -0.02319443522927923 -0.40327662036977785 107 110 109
1.1014832353234338 -0.033328761334866945 -0.4032981049522268 96 96 96
1.101506267688533 -0.03332580246533467 -0.4033053558001249 96 96 96
1.1067045637104924 -0.0404078419813001 -0.40251892918264054 108 108 108
1.0761290601519404 -0.04997074763273249 -0.38252325193353914 135 143 144
0.9989719532340228 -0.046210508448827535 -0.38989891582105224 57 62 67
1.1028057898466477 -0.051686177959728456 -0.40175021758106755 127 135 136
1.097398611095881 -0.05447757624816558 -0.39801577194901083 91 91 95
0.8690999913458846 -0.047414375562674776 -0.3890885778552646 189 189 191
0.9482834361541567 -0.09051509872704713 -0.3915604866576148 32 35 34
0.8849580915273327 -0.08966310056180188 -0.38779716937957565 28 31 30
0.8803638270086175 0.08188315166832967 -0.39494455565408754 35 34 34
0.9203967284559105 0.08563798338244213 -0.39614897150080436 37 37 39
0.9693767476860587 0.07658910339306321 -0.39115524952221875 32 40 39
1.0972204207190581 0.08421018937216052 -0.3991736505596881 167 175 172
0.9832326132293131 0.028070320892603178 -0.39502308303447153 53 59 59
1.1219595353787246 0.030120855907449527 -0.4019844668714512 99 103 98
1.1097132715497244 0.001982694464146422 -0.4001419690277332 110 113 114
1.1139496238078466 -0.0030634984644183683 -0.404102764651576 105 113 114
1.1042519390929961 -0.007454370422585421 -0.4009190325346983 117 123 121
1.1155457305785237 -0.007450626806110556 -0.4043290099678704 104 111 115
1.094689716677667 -0.011883159050130482 -0.4029833089690136 110 113 116
1.102473821629247 -0.017237022080929653 -0.40486620399986056 105 108 109
1.102473821629247 -0.017237022080929653 -0.40486620399986056 105 108 109
1.0969612041089316 -0.022648548623672292 -0.40222790031625494 165 178 175
1.1172004464807337 -0.031034939017614425 -0.4048828064854734 107 107 109
1.1053166017688352 -0.04050874294444369 -0.4011607430098153 119 119 121
1.0943443001907844 -0.0560445719489988 -0.4013702873444749 92 94 100
1.0984033729974276 -0.05843715028639743 -0.40214019926232947 132 138 138
1.1002759849765833 -0.05980650507984537 -0.4012124663109992 94 94 98
1.1122343519757836 -0.06266083173130216 -0.3957726702872992 82 85 88
1.0713206250099212 -0.06217136657964332 -0.377051744400146 131 139 140
0.9678334248953785 -0.0737629208424784 -0.37343455582868423 202 210 211
1.1671215206211776 0.37010105153461764 -0.4512278580186372 112 109 104
0.9121562120198827 0.052478438252294604 -0.3745997092440095 37 37 37
0.9315188266830092 -0.04045935102962107 -0.3916825738679194 36 41 46
0.9997617055197651 -0.062269920939459635 -0.40700271064510024 189 200 200
0.9997617055197651 -0.062269920939459635 -0.40700271064510024 189 200 200
0.8029936203913367 0.15149419063281291 -0.4020434158930589 213 205 202
0.7758521897574627 0.07879993965124987 -0.4035384958915747 53 54 50
0.7765470861921039 0.06663280861004944 -0.40226482596449636 61 61 61
0.853925533526786 0.07526958288922583 -0.40311843918981244 200 200 200
0.7729742040089906 0.04822531539388744 -0.4004679136497561 69 69 71
0.7791329035552685 0.04484232405990879 -0.39445032234238514 75 76 70
0.9230039691774318 0.05402482851983354 -0.38666533735074454 34 40 40
0.7835817260732447 0.03283457905888977 -0.4003117070253183 71 76 66
0.8308048398956451 -0.008325586285926861 -0.3065919592677261 139 146 150
0.9423444420136914 -0.014776482997411034 -0.4026828096318777 30 36 34
0.9638829238056589 -0.02316254253126934 -0.38959637290551463 185 193 192
0.9665994017875222 -0.022516405878709553 -0.3944047122084108 185 193 192
0.8854477784987157 -0.03760989375481747 -0.3843191543795398 183 191 190
0.9272903366585354 -0.03877294935009564 -0.38822197045660684 34 37 38
0.8701072180217686 -0.06668566831436266 -0.3331569347777512 28 31 32
0.8701072180217686 -0.06668566831436266 -0.3331569347777512 28 31 32
0.7773285821540247 0.0610059453313074 -0.4028508328021522 74 75 71
0.7778111167512468 0.05553696735621837 -0.4016003443274118 69 75 73
0.777804997118046 0.05380163723561722 -0.39669400443814873 69 75 73
0.7688994211387022 0.04739713395598228 -0.4010959151038679 74 78 73
0.9794976977462325 0.05619592331118776 -0.39888953491807255 57 60 63
0.8383599484440339 0.036515291992407724 -0.39136507986920516 158 161 164
0.8372889369475717 0.13820262157182467 -0.39488999557648774 122 121 123
1.0058709110645474 0.01061762226311308 -0.3999034776982354 200 203 204
0.8659337119739087 -0.05550708290645052 -0.368237444474412 37 36 38
0.8406126822627221 0.1322031134219539 -0.4007355586468426 139 133 137
0.9209098599597954 0.062344388563909184 -0.39479988142466266 30 30 30
0.9671782521022732 -0.018785107265693952 -0.3933218672674722 43 46 49
0.8374783525549031 0.14669470248515537 -0.39574904146917333 121 112 115
0.8380781823383961 0.1422774555873778 -0.40028219136589827 118 112 114
0.839483108044024 0.11967180198208878 -0.3990027852492549 122 116 118
0.8381053444865926 0.11842421013765635 -0.396962808793646 185 186 182
0.8380168937670062 0.11855684070130514 -0.3970340324990819 185 186 182
0.8370203761054912 0.10839252099785475 -0.3786934503267022 177 173 174
0.8381599763156922 0.11642551279707856 -0.39553408510181626 190 186 187
0.8385309184534249 0.09991770693042057 -0.38847615340578406 133 129 134
0.9638707957106035 0.10559721286581564 -0.39487373395742636 165 171 171
0.8398520578277087 0.07732012512721831 -0.3957597588041487 175 175 177
0.8398520578277087 0.07732012512721831 -0.3957597588041487 175 175 177
0.8394699811083577 0.07372254309482278 -0.3996329706293037 182 181 181
0.8383747222709571 0.06207878944919895 -0.3958980265870875 102 102 102
0.8392949125186068 0.06008829669354473 -0.39599208881759296 162 165 164
0.8398032335809248 0.05710599825519015 -0.3962235385169893 122 123 119
0.952289003836542 0.34253743556874544 -1.5338932215309153 121 124 125
0.8404782874501748 0.03748997878023385 -0.3965218843277084 167 174 178
0.8399005249143647 0.03634067469993803 -0.3967986817394736 170 173 174
0.9839387365579662 0.04250681698070644 -0.4065009243248249 144 159 156
0.8386733473563169 0.014600054995310752 -0.3975333731750602 97 105 104
0.8389329846115033 0.014684006294213816 -0.39725096281751754 97 105 104
0.8396384873515184 0.01412467597193384 -0.39568198620455025 164 167 170
0.8401325626521255 0.009817696163027278 -0.3948082650561458 98 101 100
0.8403751444875042 0.004809282486666698 -0.3957594595495839 118 118 120
0.8394882611449684 -0.0009633125856053878 -0.3962313276860692 92 91 95
0.8397873255070577 -0.004413600588411674 -0.3961217583027362 162 167 172
0.8359051627426973 -0.0009784248385290083 -0.360779071772323 162 167 172
0.8395690351954378 -0.00850260600380503 -0.39590094712864193 156 159 162
0.8414723803720932 -0.02085747511591851 -0.3978823792102774 162 162 164
0.8381927100524773 -0.022776706016279853 -0.39789903988786607 127 133 135
0.8384611633654254 -0.024137665121345738 -0.3947318857276453 124 127 128
0.8385644551416087 -0.024035990063717073 -0.39497903643593313 124 127 128
0.8399280197281812 -0.025454199638765423 -0.3999369739339835 100 100 102
0.8410910074890227 -0.027361547015871155 -0.39722221079523157 109 112 113
0.8414440197287839 -0.027988515004059713 -0.3991674459663683 109 112 113
0.839471393639732 -0.029947784280621434 -0.3972187608118927 102 105 106
0.9532035037514452 -0.06660249967905008 -0.39597268829982046 21 27 25
0.8359059148158134 0.13624528689820653 -0.3832401924559749 193 193 197
0.8372889369475717 0.13820262157182467 -0.39488999557648774 124 123 123
0.8389700608536577 0.11821117649943107 -0.3951817382616487 168 168 168
0.8384091902982703 0.10516077609440598 -0.3966439012693832 188 188 192
0.8380475613733397 0.09501677757858148 -0.3973395231220018 179 182 185
0.9224066952106832 0.09416507573212733 -0.3925294331934443 26 32 30
0.8973362356669499 0.06618145306702113 -0.39097965709464205 21 25 20
0.8402869710712643 0.04917729855307227 -0.4031160040243025 176 176 178
0.8392131606157007 0.03575239077399796 -0.3969560916034554 111 111 115
0.8394218155521208 0.030065405749748145 -0.3963805300207945 179 179 179
0.8401339876776359 0.008113619025181415 -0.39942728066509364 166 166 168
0.8389696591683745 0.0034308982105576372 -0.4056668552740199 163 166 167
0.840350956337418 0.00187723619263788 -0.3961506493344838 112 113 109
0.8402170615856491 0.001893308844283441 -0.39594875478892133 112 113 109
0.8395181993651717 -0.0022578132269343862 -0.39630619742815715 98 97 97
0.839422606622267 -0.005932380675291457 -0.39535052767503104 171 171 173
0.8416067495487949 -0.028294955277423026 -0.40517863995556386 165 165 165
0.8369412126361182 0.10206734796480775 -0.38127845237756297 196 195 197
0.8391666481769257 0.10728211624429754 -0.3956903177839095 190 190 192
0.8419536506863894 0.12165646969657773 -0.44191657222517167 200 203 206
0.8383881035431514 0.09896829398664675 -0.3960760260465797 191 197 199
0.8385581686093255 0.08000479808721526 -0.3969069086834831 188 187 189
1.085967981430273 0.08907136065926823 -0.394472536534829 96 96 100
0.8398667260306786 0.06849727674728973 -0.3984409008394698 124 120 123
1.0896142571670104 0.07991780372375003 -0.3980542578029286 107 107 109
1.0896169977743513 0.0750749934337761 -0.3983466109802502 132 131 133
1.09576932932345 0.06876295008192165 -0.40619137336667777 190 191 185
0.8400458563265253 0.057428626528778795 -0.39823709473735525 120 119 121
0.8404001403347935 0.03830723180480911 -0.39826544683559456 134 137 138
0.8298328303796165 0.03100390886508604 -0.2901433668196928 111 107 108
1.0879752458970127 0.02554667258354425 -0.3972994583774857 106 105 107
0.8395943128439519 0.014105552326536003 -0.3957697278745155 168 169 165
0.8395146994002903 0.009007957902896113 -0.396161726738699 169 172 175
0.8398649196764183 -0.0014848833583012801 -0.39592271447277244 150 149 158
0.8392838376783619 -0.0030879511909717534 -0.39830673589029814 166 166 162
0.8392838376783619 -0.0030879511909717534 -0.39830673589029814 166 166 162
0.8985423564253174 -0.019176636557300585 -0.38615440922193034 162 165 164
0.9398366354852136 -0.042317388993574824 -0.39405394819453016 158 162 157
0.8378663670360706 0.14675485497975996 -0.40507017303930776 116 110 112
0.9905047192371322 0.1419930693646256 -0.3481180313221975 48 37 41
0.8385614092495779 0.09498087925378265 -0.3948317719741071 132 127 125
0.8840874792269997 0.07730537498535592 -0.39790544220770535 23 27 22
0.8388289297710743 0.04910114017021489 -0.39992085112054565 131 130 134
1.088557683144409 0.06337744710951876 -0.39714153169030697 84 84 88
0.8404977079043707 0.048880424706567394 -0.4022643274835675 179 179 181
1.1000195358161031 0.05956492497530783 -0.4084818036379094 103 103 103
0.8400451496592379 0.027643544734248945 -0.4022804282301763 106 105 109
0.8918591326944494 0.024022003479707493 -0.3855558559981962 21 24 25
0.8918591326944494 0.024022003479707493 -0.3855558559981962 21 24 25
0.8402310278575501 0.004970125476402385 -0.4020427621318365 115 115 115
0.8413301806606366 -0.01893175394542804 -0.4026796411744926 126 124 131
0.8376002755842001 0.08767982291024992 -0.3981983477852905 135 131 132
0.8380077594409256 0.07114021912905448 -0.3931652265559025 193 193 195
0.8391082039101767 0.05161809958573564 -0.3944804624954574 143 143 139
