ply
format ascii 1.0
element vertex 175
property float x
property float y
property float z
property uchar red
property uchar green
property uchar blue
end_header
0.8802855984888015 0.05714515098817703 -0.37814831960424206 167 178 178
0.7730190405677273 0.05504439851491282 -0.36968115428262166 136 138 148
0.7730190405677273 0.05504439851491282 -0.36968115428262166 136 138 148
0.8098030721775538 0.02698443575650257 -0.3285524024634147 81 81 75
0.7671871782928401 0.06649846634001497 -0.33085752835658305 130 129 136
0.7643157326106675 0.021767034317412646 -0.3673263469544518 118 111 122
0.8936375058700425 -0.007036124330081653 -0.390173379400293 41 40 42
0.7779191815684838 -0.0009010514502832065 -0.4016054213651293 103 108 113
0.8944929186923395 -0.022062849072110213 -0.3629153070059787 160 171 169
0.7541900015183396 -0.001922576926348109 -0.30550053418181955 173 175 181
0.7533461113800825 -0.011266095484930717 -0.30564352130220546 146 145 152
0.7533461113800825 -0.011266095484930717 -0.30564352130220546 146 145 152
0.7540729411059675 -0.01371428096917491 -0.30505770482506733 110 106 107
0.8669314710249607 -0.04855760013468382 -0.3503256510958986 30 36 38
0.9440394228327856 -0.1051603686434197 -0.43449846519182417 159 167 168
0.8365762542500802 -0.07035192308266032 -0.35286010255960604 34 40 38
0.9821878557338712 0.11289539533642651 -0.48518731690828554 58 61 60
0.8654290810463015 0.10568672415729943 -0.337546266982121 174 180 178
0.7827896308760222 -0.021069850768151425 -0.40957027031623217 118 129 125
0.8797744084017388 0.07902833674754271 -0.47353637254495873 32 32 32
0.7531755361658752 0.09879630740017659 -0.3092193322589619 120 124 136
0.7670786208810495 0.06993810696474052 -0.3313294833466607 126 126 126
0.9779561860692297 0.005730421795918019 -0.48681330200324596 161 169 166
0.7554398281988689 0.08671897647246986 -0.3425893344995131 124 127 130
0.7428134333457981 0.052277725228109716 -0.2769694243614573 160 166 168
0.8219622506095624 -0.008703793219910876 -0.3031558824074608 46 42 47
1.1602033316459304 -0.21366616754691117 -0.9043503331333017 174 173 173
0.9118882904365816 -0.01176391252088831 -0.38466062352299196 176 176 172
0.9573824300526731 -0.13329151765351546 -0.50581435807397 165 165 159
0.8652652411050739 -0.021262378591346505 -0.38727779620322705 32 45 42
1.272757005221642 -0.43027101919747823 -0.9731370879223963 164 166 157
0.9260145337135086 -0.0944009041951709 -0.40242501373588774 28 45 46
0.8052322184713838 -0.037537640976735766 -0.3046523346715655 186 174 187
0.8434537928837228 0.040805030282422806 -0.25782984217352806 171 172 168
0.8811626111200624 0.04960752913183234 -0.36015331479327484 39 35 38
0.822440198786756 0.048451097042386176 -0.366233178715401 161 167 165
0.8169366340681895 0.06145547721356808 -0.26636434909796497 182 178 179
0.7602708023899194 0.02586612482053377 -0.36362505181667726 130 133 136
0.8365326538503243 -0.08416700057165412 -0.44837154678413327 44 41 36
0.8226964128898737 0.11468903364776716 -0.26002260745869443 60 57 54
0.8382650393990277 0.10640912415450407 -0.40504037803650517 40 46 44
0.827568429240716 0.05957901266417842 -0.3647866256706333 31 34 33
0.8331167419864517 0.04189786122728262 -0.3116516241426035 159 164 154
1.1816805189494934 -0.10269659638469797 -0.6886537628556246 47 45 52
0.8765320377090798 -0.001590985567664045 -0.35147618067125613 167 164 161
0.9161057718658948 -0.03544820620957894 -0.41150120630008197 37 36 38
0.8142522192669294 -0.002282118748622808 -0.3513911530217083 156 162 160
0.870676371434764 -0.054239085273051775 -0.37183160794598086 51 34 36
0.8630309951570843 -0.10951014637757837 -0.4344845564214995 161 159 151
0.8138194475137609 0.04989732620830647 -0.2931812226197111 100 84 91
0.765080913517673 0.012364408983381413 -0.15030056306642503 40 40 40
0.7824028418153892 0.012684958742758132 -0.33664203186714126 44 44 40
0.7601421548563838 -0.007351563004377205 -0.36030243777236287 154 154 158
0.7852772095337085 0.045972527577433496 -0.30177236520892226 48 48 44
0.9165567805714557 0.0025153046929038375 -0.3922691711751134 37 41 34
0.858631728006978 0.05314350141698386 -0.721970495847945 181 181 183
0.8510150069094725 0.028927123164318082 -0.7052216887699174 116 115 119
0.91938349715732 0.0018448210414493333 -0.562362988128611 166 166 162
0.8917046421531114 -0.06487789517795246 -0.3401175077026536 167 168 162
0.7609725873059503 0.0889867591934181 -0.31794951975644825 39 47 46
0.7806997375177593 0.08259369876849842 -0.3112151821579029 42 41 41
0.7806997375177593 0.08259369876849842 -0.3112151821579029 42 41 41
0.9042784142150924 0.004013730682368764 -0.36636878146337876 36 39 40
0.8072525941228083 0.0587881066303508 -0.4180182994283914 40 34 36
0.8112359187821381 0.07853421517487796 -0.29436580122176526 161 167 167
0.8170612814445932 0.046533142940654186 -0.31759816639803723 33 34 28
0.7670590823782224 0.009776456746959358 -0.3941997340262025 134 130 133
0.8370042432281641 -0.008557073708239951 -0.4529900922429469 145 150 140
0.8290682460313581 0.016135859345410154 -0.3312072026632987 30 30 30
0.8793756975615424 -0.010853966918721638 -0.3343885460828061 38 34 27
0.8416563743975999 -0.052227227051213826 -0.3681962646563241 150 158 155
0.8670334211038011 0.09797401907431376 -0.36831784536369383 174 185 183
0.9718081509988457 0.01857074713646314 -0.4815825618223634 40 48 47
0.9077942334096584 -0.06279960255376452 -0.36831825740261115 190 189 191
0.9084073749617214 -0.06277623403934458 -0.367488575884576 161 170 163
1.922678781267815 -0.470580160452415 -0.8505686112403281 37 53 32
2.2078547985935075 -0.7251182002911188 -1.0035376384372032 43 50 44
1.485489380651183 -0.9500447292797487 -0.6211739016472902 129 118 122
0.8982428818635133 0.08372298636248811 -0.34679885701491714 193 193 195
0.9061112824476083 -0.0030907371700908464 -0.34394578052906727 194 194 196
0.8404448956489798 -0.0024738406841398495 -0.34645769454737607 41 41 41
0.8525162916885557 -0.01638851822357217 -0.2856417880192974 48 55 61
0.8164365675763006 0.05487583676201597 -0.26886654523909626 205 201 202
0.830052412335835 -0.03809270038645164 -0.3018608181766014 37 47 54
0.809612637424791 -0.03796704551932678 -0.30649324632215846 171 172 168
0.9250962005408445 -0.05406266027621824 -0.3467152659871652 197 200 203
0.9250962005408445 -0.05406266027621824 -0.3467152659871652 197 200 203
0.8212597143618046 -0.05030129822368348 -0.30636164762137097 163 169 169
0.8490731626545248 -0.07555120876234983 -0.30714529959449705 189 197 198
0.841800197301723 -0.08000918799570315 -0.3540657890488838 169 169 171
0.688204081697514 -0.31999758261559963 -0.5051019303876839 175 171 174
0.7126166397751162 -0.3287716869341472 -0.4507882385254833 34 12 28
0.7096498783527522 -0.33259028778936917 -0.4567598902972763 156 153 150
0.6872263951909188 -0.2913561440078777 -0.3992041696149164 29 22 42
0.7105540318794343 -0.3131803619132331 -0.3920202199572995 7 13 13
0.7167176080935712 -0.35028335288574525 -0.4536718183140404 48 37 41
0.6997512469832787 -0.3255889694202171 -0.4134136848129405 98 98 78
0.715791273067902 -0.367116113213486 -0.44883820722555184 33 28 40
0.7706606113608194 -0.0013549090324390517 -0.2455200220732067 197 198 185
0.9091141970525364 -0.022248434775762608 -0.38709314349496887 169 167 159
0.752975845364204 0.03865257978794777 -0.20186001278853755 54 66 68
0.7804162015272399 0.048888112286211434 -0.2573723833212408 199 191 190
1.3173978764209069 -0.15575072707691467 -0.79077700411573 175 183 184
0.7852523656253151 0.07407672492973165 -0.2394611776137392 36 38 46
0.8020609369056223 0.030047227299273865 -0.46439677326604406 129 125 126
0.9562165778760762 0.0970904741669801 -0.39551108785969724 39 37 44
0.8951105092748247 0.10924476660127325 -0.3859393903634788 168 176 175
0.8707529747677367 0.08573469800542476 -0.3895648195433715 176 184 181
0.928515538793225 0.06875898360223444 -0.3943181793199298 177 180 179
0.8990938802956933 0.05216143109538001 -0.38205597686956266 36 39 40
0.827538633287815 0.07170695264139976 -0.38229903819877914 166 170 165
0.9311037226095068 0.03799583616681159 -0.38253649697005293 49 55 53
0.9388310129511761 0.022317836898117883 -0.3819405275284249 159 174 171
0.9631147813202945 0.011028268000100459 -0.39519616396635693 56 64 63
0.9512372874562245 0.01272058881638073 -0.37773259569950035 52 63 61
0.8589578871512206 0.04280862944144777 -0.3775289778640427 162 166 159
0.8767560375512103 0.030389422076562932 -0.38144533290735777 165 166 160
0.8194611967917868 0.049681269490969765 -0.3757864736055491 29 33 28
0.8919814374469274 0.01786772467582717 -0.37728312171295886 36 47 45
0.8407854476733008 0.06317633471468559 -0.29789227320360157 170 178 179
0.9081399071034774 -0.0017685170173441648 -0.4017724362143479 158 170 160
0.8691648714445793 0.014857137641157994 -0.38828968236065453 41 47 47
0.9137231190485534 -0.01095804638252261 -0.39281619200027573 34 30 35
0.9121241329164447 -0.011994183156362784 -0.3944363587702384 31 31 35
0.9347466414370096 -0.027570710402909496 -0.4037113311858159 56 51 47
0.9250037909528614 -0.01602264725240592 -0.3788148212123681 50 50 54
0.8591155506427931 -0.0007629359528446324 -0.39285571637682265 42 35 29
0.8591155506427931 -0.0007629359528446324 -0.39285571637682265 42 35 29
0.8242714454254414 0.013648347785117842 -0.38355947275333835 155 166 162
0.8214571001760497 0.01700459584210987 -0.3768937206974759 155 166 162
0.9383618017994663 -0.04989453767222458 -0.3887778930905848 40 53 50
0.9383618017994663 -0.04989453767222458 -0.3887778930905848 40 53 50
0.8892593147538085 -0.030668269991203007 -0.38777606675337867 43 43 47
0.9452296956257202 -0.09391874688956077 -0.4739504767221864 43 43 47
0.8235278027975497 0.007421136774988281 -0.38334610718733875 37 37 31
0.8927075398797913 -0.04425946372133889 -0.37542269686488405 34 43 34
0.8314106722191944 -0.025177913309540556 -0.383993427131566 28 36 33
0.8172034296580927 -0.02531512449566629 -0.3761151901467653 34 33 33
0.8724840883382131 -0.06371643016318962 -0.3959502981339873 29 29 31
0.9028854743504628 -0.07866710718338184 -0.3873884232700809 36 39 38
0.8437175085264559 -0.0651146187475295 -0.37514123076927686 169 170 161
0.9424060219510758 0.10392170574599653 -0.4056739830017485 36 47 45
0.9106141088139285 0.1069471065995767 -0.4054021301555826 38 42 37
0.9325897553468815 0.07579515723562069 -0.3904895419129018 185 185 187
0.9193638004666186 0.05302544823495829 -0.3911058533145886 22 34 36
0.9285633128121692 0.04475967787333379 -0.3854181499710871 43 53 56
0.8359794642933391 0.0711067706432843 -0.39933086710714494 38 46 45
0.8992250758943641 0.043399291550522766 -0.38976039413689145 161 169 166
0.9365361706846841 0.01747141508304551 -0.3873625855185689 36 42 40
0.936962256557158 0.0035851843182229297 -0.40521559595310747 34 34 36
0.9289683034510035 0.008363675436350087 -0.39638210652374994 34 34 36
0.8691610572769696 0.02280958679902648 -0.38063896542430764 40 36 37
0.8691610572769696 0.02280958679902648 -0.38063896542430764 40 36 37
0.8975386246908291 0.006166120804377969 -0.3802617454680317 38 40 50
0.9258734832489429 -0.017293910106795984 -0.3799259739399803 34 39 44
0.9311923645792457 -0.025912627718419158 -0.38054513865870104 52 45 58
0.9222643127398855 -0.022291248416493534 -0.3809819465076295 41 40 42
0.9222643127398855 -0.022291248416493534 -0.3809819465076295 41 40 42
0.9271244283818989 -0.028218802402592145 -0.38938680995729646 34 34 34
0.8293724992180623 0.007692994196939055 -0.3831002494255635 159 163 156
0.8235278027975497 0.007421136774988281 -0.38334610718733875 37 37 31
0.8855929153010158 -0.032413447756094824 -0.38623527299566174 151 163 165
0.9222597038967616 -0.054561911644481334 -0.3802404757711827 174 177 180
0.9136747805961203 -0.07342340945512728 -0.37892080391502997 176 180 192
0.9136747805961203 -0.07342340945512728 -0.37892080391502997 176 180 192
0.8111880128702538 -0.046536114618931805 -0.3905490735308742 158 158 158
0.8224328016193969 -0.03364622412152503 -0.3399748375823433 57 41 46
1.048635750860415 -0.5095139542138952 -0.8571121876205511 174 185 185
0.8890462393656167 0.10888740142023233 -0.3898388808589501 30 37 29
0.8553601443140715 0.10257662201237751 -0.38673490921480386 36 39 38
0.9394621921421374 0.01998662386587802 -0.38814240803281097 52 47 43
0.8618875552757838 0.04565583541646018 -0.38403518640943085 39 46 40
1.2539653633813777 -0.3090777172158887 -0.9325009642845153 38 42 37
0.8958827467407435 -0.01800477137544395 -0.3833040650176534 164 168 163
0.8640853549697218 -0.02217204845396392 -0.3875139022552237 36 37 33
