ply
format ascii 1.0
element vertex 140
property float x
property float y
property float z
property uchar red
property uchar green
property uchar blue
end_header
0.7607890406108727 -0.04994861858650019 -0.01338298553804842 110 113 114
0.7604991478318126 -0.04954269010495873 -0.0139029553052785 135 141 141
0.7603348387469112 -0.049041429685537895 -0.014059513949626432 113 113 109
0.7603630185987967 -0.0484523031570871 -0.013850058653940062 141 145 140
0.7604348705268597 -0.04715428063991375 -0.013494479881745678 146 153 147
0.76024918071742 -0.047011367775712305 -0.013803385743618148 137 145 144
0.7604200695826618 -0.04685807252767762 -0.013413563597118223 171 174 175
0.7601687182837114 -0.0465648668228352 -0.013851215931646588 127 135 134
0.7601687182837114 -0.0465648668228352 -0.013851215931646588 127 135 134
0.7660714800726285 -0.10455880498478166 -0.025517560549389483 139 150 150
0.7659724526188001 -0.10449512308228118 -0.025643204008015855 104 112 111
0.7659724526188001 -0.10449512308228118 -0.025643204008015855 104 112 111
0.7661781972967588 -0.10436743497869545 -0.025346362182032775 150 150 152
0.7660319442929158 -0.10429066467561672 -0.025473556559060185 144 155 153
0.7655089995300652 -0.10397178448641972 -0.025937430381367813 124 132 131
0.7654097561640636 -0.10340754291598897 -0.025888341502882998 128 136 135
0.7658516731517527 -0.10328666448269731 -0.02534286581181766 147 155 154
0.7658994342809815 -0.10292295043227666 -0.02518556034171324 141 144 143
0.7660228123392245 -0.10258758800057549 -0.02494820516244026 111 112 108
0.7659287512661 -0.10215236727369974 -0.02485625915010049 121 121 123
0.7658029463090238 -0.10194611410508024 -0.024914191229639053 138 146 143
0.7657411696842452 -0.10156088925206624 -0.024899243918949036 133 139 137
0.7774622090592962 -0.09259629516113403 -0.014099582378972722 26 20 22
0.7959183782178552 -0.08273990231230267 -0.09911491113273956 44 45 36
0.7841589969408767 -0.085668998496465 -0.09903418845653796 87 86 86
0.7619166778664176 -0.05040849808674777 -0.015834849922733953 159 162 161
0.7618017403034277 -0.05001555422010779 -0.017029576535954168 158 161 162
0.8342780548885146 0.001586059001392363 -0.14220062770700329 150 150 150
0.762304068619456 -0.05207477533063552 -0.016979166288588508 104 105 101
0.7625852204692524 -0.051895584249019605 -0.015424984549009594 101 101 101
0.7624800542889215 -0.05184541447549666 -0.015394036816689063 110 110 106
0.7621713389517908 -0.05181042989455783 -0.016080589198796458 115 112 109
0.7628161329718247 -0.051759216729723556 -0.014948129688423835 79 79 79
0.7627934151657819 -0.05174142025478914 -0.01476334344323137 97 98 94
0.7625659343626712 -0.05176296664117714 -0.01648151744837755 124 123 123
0.7622186930402174 -0.05167613578386159 -0.015767821810242052 104 99 97
0.7622186930402174 -0.05167613578386159 -0.015767821810242052 104 99 97
0.7621781029933399 -0.05174518563057687 -0.017027301066463187 93 92 99
0.7621781029933399 -0.05174518563057687 -0.017027301066463187 93 92 99
0.7621421020421947 -0.0516296264687755 -0.015892472852772302 116 116 118
0.7627984057867956 -0.05165401364119075 -0.016057486631097313 101 100 102
0.7621417700060922 -0.05151550878941605 -0.01604821863516403 130 130 132
0.7621417700060922 -0.05151550878941605 -0.01604821863516403 130 130 132
0.7624335940662607 -0.05147157456862725 -0.015327013843129398 147 144 139
0.7631531582495968 -0.051495056330348905 -0.017821433132177586 87 86 88
0.762060581760148 -0.051450531140060624 -0.01615106763399576 129 128 128
0.7627204939549586 -0.05138328213810638 -0.014946680732173197 124 125 119
0.7623608835133943 -0.05140920838963037 -0.015661418069912208 132 132 128
0.7626658660731437 -0.05137802542912113 -0.015072810303231748 118 118 120
0.7621508874182377 -0.05140298549131431 -0.015777211441264562 124 124 126
0.7628612130354169 -0.051349953979578214 -0.014410636048562835 101 104 103
0.7621684025991203 -0.051379888691123456 -0.015944541448783985 142 145 144
0.7622772425393278 -0.051474059485072624 -0.016801091369297947 101 100 102
0.7625884419889983 -0.05136190308374367 -0.015214641587992723 131 132 128
0.7625225122398912 -0.05136532098341279 -0.015125905983896185 130 130 126
0.7628370128352437 -0.05141244335306127 -0.015863719621744224 105 105 105
0.7621611491905725 -0.051280501963841506 -0.015931170992225598 142 145 146
0.7620094495654549 -0.051149346148123116 -0.01612572547869229 148 151 150
0.7618104776071747 -0.05086926903406307 -0.017272020534437556 138 138 138
0.7618243571785561 -0.050533198259672604 -0.016219246858083267 136 137 133
0.88915162585361 -0.000362200836726031 -0.35059013074551937 151 161 164
1.060907356891248 0.21800633354184826 -0.46859108828109786 169 175 175
0.7920366591584473 0.591171358716105 -0.903602977945454 194 194 198
0.7610071608289516 -0.052687567331645827 -0.01427731859361205 72 69 64
0.7611707866178825 -0.05212950223901562 -0.013455825410861398 80 83 82
0.7611707866178825 -0.05212950223901562 -0.013455825410861398 80 83 82
0.7611552182352362 -0.05205450060192824 -0.01345710938274239 82 88 86
0.7611552182352362 -0.05205450060192824 -0.01345710938274239 82 88 86
0.7613642085522837 -0.052004199531257844 -0.012913840277386289 92 91 91
0.7611481628473508 -0.05194385089601284 -0.013441750277886529 83 83 79
0.7611698929163996 -0.05171795829836701 -0.013296176382706418 118 119 115
0.7615497283824041 -0.05163813732599473 -0.012133783232798984 90 96 94
0.7616067992075843 -0.051586217555144 -0.01208337432321353 92 95 96
0.7611659265430918 -0.051623366067801005 -0.013303276615617466 122 126 121
0.8233183708110682 -0.05721466424708222 -0.15552380928137294 79 82 85
0.7615792581229692 -0.05146801064465602 -0.012037374644055217 88 91 90
0.7615792581229692 -0.05146801064465602 -0.012037374644055217 88 91 90
0.761156465677875 -0.051533407088992254 -0.013290885094533076 115 118 117
0.7607854823560376 -0.051459075623985384 -0.013987651565484963 109 109 105
0.7617526493501292 -0.051298667665045816 -0.011126144641626229 73 76 75
0.7612219173650853 -0.05138607896968619 -0.013056363373647033 131 138 132
0.7612219173650853 -0.05138607896968619 -0.013056363373647033 131 138 132
0.7617453719427525 -0.051281714719355824 -0.011356167972906067 69 69 69
0.7611954446598175 -0.05135750126760736 -0.013118741234669265 140 144 139
0.7616029505683259 -0.05125959498408085 -0.011756935062866243 107 110 111
0.7612280667407462 -0.05126633565243144 -0.012908754856684771 144 144 144
0.7615416141840398 -0.05120998516878782 -0.011918773443900651 110 111 105
0.7607055605392238 -0.05104546479757983 -0.013981557217372024 119 123 118
0.7609683395458033 -0.05063856905794842 -0.013304333848855132 164 167 168
0.760905205181084 -0.05047047507094883 -0.013373866300835749 155 158 157
0.7607408540593195 -0.05005768456781511 -0.013541215174124162 152 160 159
0.7605687192282279 -0.04996837272282639 -0.01388658028479654 127 134 128
0.7605479384428406 -0.04846054740059254 -0.013474866013075425 100 100 100
0.7605209674527993 -0.04825625866718098 -0.013501367559973542 101 104 103
1.3438637885731652 0.12678852117869527 -0.604447196023999 31 31 35
0.7603026951205956 -0.04738143160604205 -0.013753756041505189 137 145 144
0.7630343280429037 -0.04778699382015219 -0.008298287532917469 27 33 33
0.7600649682738716 -0.04672317076978488 -0.01405891529857765 124 131 125
0.7601858173742516 -0.04669194415048738 -0.01385351176542886 132 138 138
0.7601970720961582 -0.046622710724947926 -0.01390093799367946 139 145 145
0.8853789738923653 0.09799629132707678 -0.47324668353963883 119 118 118
0.7604028896551971 -0.046068822925903585 -0.013416126314720327 151 157 157
0.8796918882929977 0.09319694844559391 -0.4101809016453835 141 144 143
0.7601222981489254 -0.04562488743679685 -0.013834068222388017 121 127 127
0.7603245372666343 -0.04564631764403081 -0.013366284607453342 110 110 110
0.897417036373574 -0.0034179523031378366 -0.1750139209386969 124 115 110
0.897417036373574 -0.0034179523031378366 -0.1750139209386969 124 115 110
0.8085970355045513 -0.05515659671077629 -0.13865486614573033 75 78 77
0.7920909906499735 -0.08984448094475796 -0.07792326942820284 121 121 121
0.9571488969705049 -0.10391096081804832 -0.15719768647025123 28 31 32
0.9571488969705049 -0.10391096081804832 -0.15719768647025123 27 33 31
0.9403503013312964 -0.005317450021865163 -0.15968101292573128 189 189 189
1.3026066705449693 -0.17631563821398857 -0.6026346858090663 26 25 25
1.2967756009648683 -0.3856498137981972 -0.5612116173279048 199 196 193
0.8236580407276473 -0.10315081106136237 -0.11899058830688194 197 193 196
0.7991390036950599 -0.13545934280187838 -0.13420975115418926 44 57 56
0.7997778891169366 -0.0476816055542915 -0.07747725180256794 190 193 192
0.7998157967301242 -0.047555947632270335 -0.07756042566802154 188 188 190
0.9830221822046863 -0.18046951705893147 -0.40110334265726233 118 113 109
0.9785274859089937 -0.10009922956118081 -0.26146366462830173 190 189 189
1.1352844620052944 0.039781084775546136 -0.41855969989218006 184 187 186
1.1352844620052944 0.039781084775546136 -0.41855969989218006 184 187 186
1.0959559999678878 0.049254749577271724 -0.37986663034590334 186 189 192
0.9507053462885142 -0.0019143836188811596 -0.22438796772295255 169 172 173
0.9816631171177371 -0.0673473541889683 -0.26281645403907405 189 189 191
0.9778827333346215 -0.047008019628573885 -0.2552203713634113 184 187 188
0.8132914223377747 -0.05915701252646512 -0.2626724685366123 117 120 119
0.9623646435346779 -0.017359453474058973 -0.23676184473207848 177 180 181
0.9623646435346779 -0.017359453474058973 -0.23676184473207848 177 180 181
0.9541256229810694 0.013612948702619039 -0.22701150573277704 167 170 169
0.9031701473156374 0.00909719825060501 -0.24453821826115923 160 166 164
0.8376074046973787 0.046417375119899615 -0.22647918115959892 188 191 192
0.8007531820253785 -0.14614885475965242 -0.07848336384535018 190 189 189
0.8007531820253785 -0.14614885475965242 -0.07848336384535018 190 189 189
0.8006786217337749 -0.14525865329972285 -0.07840257435878836 184 187 186
0.7991250153913477 -0.08399034491329542 -0.22379420132365055 59 67 68
0.771746120238579 -0.08934521759813416 -0.049951583039843664 164 170 170
0.7708658680230849 -0.09455724863336332 -0.04644418471681183 27 35 32
0.7718708055904163 -0.09094580218687479 -0.049116773407933835 24 23 23
0.7711956638529818 -0.08691668827490061 -0.05091804409971921 185 185 185
