ply
format ascii 1.0
element vertex 709
property float x
property float y
property float z
property uchar red
property uchar green
property uchar blue
end_header
-2.2893085959817574 0.8489148466058816 25.719576485489863 188 194 192
-2.2425380296181956 0.32010129121095504 26.182884174070722 51 56 61
-2.2425380296181956 0.32010129121095504 26.182884174070722 51 56 61
-2.9458083914199378 -11.1628298671839 31.88940219457171 131 135 130
-1.8959952102493147 5.443252387486442 23.52545940757024 47 43 44
-1.8177965675436962 7.052618628346993 22.64892345067162 145 143 150
-1.9773089966004402 4.3071751558445515 24.145034525948773 33 33 33
-2.9409427832282353 -11.705548827411024 32.51345490101861 104 104 98
-2.3497036689232162 -3.315774542225866 27.93600232108984 54 62 61
-1.7325283338142612 7.062693668089305 22.625659067737683 189 188 192
-2.709933562957131 -10.413345147868691 31.773347656549763 132 138 140
-2.0357454143377742 0.8580013009009503 25.894063983798183 59 62 63
-2.0357454143377742 0.8580013009009503 25.894063983798183 59 62 63
-1.9544760693333538 0.6025824067944913 25.937980715328038 189 197 196
-1.8771664002986754 0.6440707372374432 25.749667589199586 189 197 196
-2.6260197624838235 -11.244320294787428 32.06842397464026 132 138 136
-1.962879576998732 0.08708885556415703 26.24703967433251 37 43 43
-13.778174501451712 -60.01330603797935 146.09313335664982 94 92 82
-2.149456162230926 -4.103627703664601 28.832122344684706 70 70 66
-2.068836551256027 -4.043815287085301 28.272968934846997 70 70 66
-2.4121988761984716 -10.38536106875738 31.540363368714313 114 114 118
-2.4482267505940247 -10.588035989493958 31.662672611370528 148 152 147
-1.4782438961737938 7.105611361873384 22.70331908880532 153 149 152
-2.3855928787577088 -9.96414644987665 31.765725900236653 114 114 114
-2.265863028001992 -10.06887813102684 31.375526703717725 167 170 171
-1.3189537251673982 7.09842395700496 22.473952566427343 205 204 206
-1.4675272358714175 1.3525827004379898 25.50556586221526 194 202 203
-1.9866046509842414 -9.955281151423938 31.487072056539116 153 159 159
-1.9866046509842414 -9.955281151423938 31.487072056539116 153 159 159
-0.720694022275486 4.339855229967001 14.824464886433033 176 175 175
-1.7981496535051853 -10.531434262036841 31.58969283652551 126 133 127
-1.146261398355018 3.5147158504687726 24.42537682866735 195 198 199
-1.552064597861732 -10.288641523126937 31.84201646352587 147 153 153
-1.5409766455983467 -10.90748460510897 31.704520252845565 111 117 115
-1.5430324904136887 -10.910075521092025 31.722297362727957 111 117 115
-1.5348739694715001 -10.887328787406267 31.842976124833974 123 134 132
-0.7584285652960339 3.174134077456627 24.566139459439615 32 35 38
-0.7548157556158616 3.172439394625562 24.606761065686676 32 35 38
-0.7410064681917409 3.1696747204985 24.483398599516907 32 35 38
-0.4833819246077594 -8.97190194115968 27.496693275294504 158 161 162
-0.4095779566299582 7.198539267465638 22.36514263435767 130 130 132
-0.7840628356551832 -10.836463769875323 31.526432682787036 119 122 125
-0.3186301624370912 3.0315411506270267 24.516729298266227 188 194 194
-0.34607522578349037 -10.406905483332416 29.856413436982454 136 142 142
-0.38651854839834404 -10.531167284366749 31.206015089678115 108 108 108
-0.37885732267032163 -11.448236346956378 31.676114131122013 122 128 126
0.017687943680458704 2.825260952846158 24.54160629428824 189 197 196
0.07084901861749154 0.4372656807416737 25.451814273212385 31 39 36
0.0820475748658126 2.5919544365569585 24.590431198475535 40 36 39
0.36562174675626974 7.008527673422201 22.12436451270829 119 118 122
0.33888496507961224 7.061853548039 22.28748490243397 119 118 122
0.14249115866563786 -10.750624464618314 31.4702869926804 93 101 102
0.1952432065210427 -10.251808491550456 29.736012773065912 93 101 102
0.19264102987343973 -1.8989984914206544 27.46824887745578 47 53 53
0.43174698217094165 7.040490034476729 22.332528941859234 194 197 200
0.36997024252406285 -10.330316334191622 31.135882931767625 102 105 104
0.5609372792361222 3.332406891974246 24.18690719850595 40 40 44
0.5511211624161845 3.329432346206856 24.145398111704868 40 40 44
0.4341526825408846 -10.998597671951067 31.374927901638312 135 143 142
0.6111047862690256 2.0638292066665787 24.74332727361064 37 37 39
0.5887182637562015 -10.575296136563693 31.117834872886068 133 133 135
0.5887182637562015 -10.575296136563693 31.117834872886068 133 133 135
0.6784717376862429 -10.42304756159287 31.014806789416113 155 163 162
0.7182229758693741 -10.920578963129577 31.547526481734057 108 111 112
0.8025430680294948 -1.7758844548943389 26.523124387765556 44 50 48
0.7443301457659618 -10.25944212453613 29.226330280685453 96 99 98
0.7398028968148878 -11.095864365357098 31.418946762506582 118 126 125
-0.5362166702495509 4.278023365210611 14.706898930748853 174 174 176
1.0079963537773666 -10.391379724787397 29.603471305194823 103 103 105
0.9477529587336027 -10.348219773542793 31.123027972497397 155 163 162
0.9527391685598184 -10.358271237871998 31.166350621283463 155 163 162
1.0415514300210769 -0.7776881068076081 25.980871752819148 190 198 197
1.0037793352599114 -11.136963949975828 31.4962069194757 132 143 141
1.000218908229681 -11.168481323513513 31.478550570178086 135 146 144
1.0221873217669093 -10.62042821033266 31.00394087772397 103 109 109
1.1187214962061356 -2.5070737439654605 26.80266017560512 189 197 194
1.2288901104486758 -11.542335137882691 31.547975361726316 124 127 126
1.3548255479722486 -10.390883436917894 31.19333403776312 143 156 153
1.3625393442221359 -10.023930670538332 30.781133412775063 149 157 156
1.367916661489284 -9.978074161576298 30.71924445771133 150 161 159
1.4050437495095938 -0.3630399566701225 25.77180666108412 190 198 197
1.4056212716893823 -11.634324458335117 31.5212549447508 121 127 125
1.470069341169775 -10.447693630853218 30.700508523738577 103 110 104
1.481018527019164 -10.28771710921139 29.385823427459336 103 103 105
1.4165758879178103 5.461769558393935 22.976930758283192 46 46 50
1.688766492200717 -9.954105500676866 31.120939279790775 147 155 154
1.6792074812129612 -0.11321151157796777 25.633274368941457 48 47 47
1.791475079736909 -11.674691307711418 31.448217986349302 113 120 114
1.6761151675510169 4.361130601223962 23.454460122123322 29 32 33
1.8015227104456129 -3.2475091037002195 27.168710459191004 46 52 52
1.6857355773968026 5.215488470092895 23.03643299646112 186 189 192
1.9293496293125583 -9.99807227122988 31.069277596212824 174 182 181
1.8750939564301092 -9.847932809227702 30.512245958977196 174 182 181
1.9877581917935176 -10.20683192035211 30.75327189737879 137 140 141
2.0881831076998894 -3.4891964570459657 27.13090580570947 202 210 209
2.0881831076998894 -3.4891964570459657 27.13090580570947 202 210 209
2.265426585690241 -12.03863267170759 32.05266071049836 131 133 122
1.9505151431239458 4.660249563524396 23.205908031497366 184 190 192
2.1489596438786203 -3.923613804676434 27.34149177472992 190 196 194
2.3000034196697228 -10.563255782757345 29.52637527471745 112 115 116
1.977639218809054 4.945027057536361 23.100694628694775 52 46 50
1.99221390581329 4.845394927486528 23.042607348205937 52 46 50
2.101382121399774 0.21231848965927574 25.48337647446986 189 195 195
2.0894121048048357 0.2734225159104119 25.377525948899144 189 195 195
2.10491776232417 0.2834439008711774 25.478994265575245 189 195 195
2.289681123659736 -10.315248864522971 30.80343754075444 147 150 151
2.0535351840927683 4.410894353173095 23.263087203929636 190 190 190
2.377520933196695 -11.046955531658659 31.163016459950338 104 104 106
2.170921718751699 1.0952860898526886 25.04148851481904 25 25 21
2.4190586908575793 -10.88692225751548 31.02456791895439 151 157 155
2.2452314165110185 0.5297032656999726 24.87594831541259 97 97 97
2.2452314165110185 0.5297032656999726 24.87594831541259 97 97 97
2.496986220425112 -12.167439516685093 31.734443162996712 130 132 121
2.213926998222543 4.615535747689678 23.228897879661623 189 195 195
2.205903129231348 5.164332852100279 22.887677339164156 185 191 193
2.3130014748159815 4.381616489127349 23.306370194104968 193 198 203
2.689997766209287 -11.265934896518297 31.190422174467102 132 137 142
2.321826607960296 5.17287782577416 22.833725707340125 69 69 71
2.321826607960296 5.17287782577416 22.833725707340125 69 69 71
2.4829182076295058 0.5999011662001807 25.066850801895487 45 44 48
2.4829182076295058 0.5999011662001807 25.066850801895487 45 44 48
2.4706685597880673 0.9028359849592756 25.002461988252936 198 206 203
2.504816546937978 -9.322456264424353 25.695167617166824 112 118 116
2.6670627122118757 -3.459745962523293 27.020666085551913 203 209 211
2.8827894676774077 -10.399780056898663 30.85550459766777 153 164 162
2.8448864733818384 -10.718302886471553 30.86336238613309 119 126 120
2.8623601504714054 -10.204803365601496 29.265214722044536 145 151 149
2.8809869595246678 -9.945761895243304 30.356603042377987 148 159 157
2.494795898163311 5.159791534443688 22.94073733687072 42 34 33
2.538497791312086 4.637151676582551 23.02823954835655 39 39 43
2.4909266888800037 7.075809169979826 21.837462328687856 128 131 132
2.712932889919999 0.8407889132882783 25.016110290363674 45 36 29
2.717070071870576 0.8277566769265615 24.94521475920677 45 36 29
2.594393014763449 4.833731344195936 23.01504485394644 101 107 109
2.6058000375712598 4.859980044480977 22.916549607749573 101 107 109
2.7689969235216116 0.3226716174893657 25.152514717563385 49 44 42
3.110226715042336 -11.311954642034104 31.238416441191436 131 142 142
2.801280480483971 0.5975674719627441 25.006436615655225 179 185 183
2.838296267940294 0.05023078581531339 25.257063970621928 120 126 128
2.679076952965866 5.287642507643909 22.76574060231784 34 40 42
3.1889349932431337 -10.546048358243613 30.58569710927851 147 158 156
3.1889349932431337 -10.546048358243613 30.58569710927851 147 158 156
2.6318080865111226 7.158376579792955 21.88702044334118 127 126 130
3.3590220967852322 -10.661159088835483 30.93801907701541 138 139 133
3.1275311895096647 -4.39706813594137 27.32074792732234 68 78 81
2.740540429423971 7.090444713271655 21.77797073977937 176 176 178
3.12518599288567 -3.35543706366883 26.863563448640303 60 68 67
3.144104805864338 -3.3621485814732837 26.892423953957184 60 68 67
3.0190685010100156 0.3305219788415618 25.09937518422543 32 38 38
3.0673595590116456 -0.16019271965478965 25.334083960371125 36 36 36
3.5814991650952614 -10.91681640689545 30.82637316133887 147 158 158
3.5846087220176863 -10.936299030364767 30.79644476433632 145 153 154
3.7062920403144064 -10.73077612079519 30.514356722131875 110 110 112
3.7434305197338342 -10.632776598069517 30.75147208257547 144 154 159
3.3576391770839997 -0.4136571397504485 25.412021305887773 196 204 203
3.828388344707382 -11.393909388787451 31.02464528214166 132 140 141
3.0730436932118805 7.064036239387953 21.8128697762152 194 194 198
3.0748516856622237 7.025031591272705 21.840350708859717 195 195 197
3.0748516856622237 7.025031591272705 21.840350708859717 195 195 197
3.0534382555669493 7.180320630624716 21.74936582427467 158 158 158
4.09918434200325 -11.210687959242247 31.928953341943604 137 148 146
3.9812521492023043 -10.506914901920474 30.478618592783462 144 155 153
4.017816093053547 -10.625917745942033 30.876157089147537 144 155 153
4.022832529381299 -10.172602576626275 30.77815774027838 151 162 160
4.1959870024028305 -10.837821456504741 30.77118018143897 120 123 124
3.6573941512761605 1.72748256933579 24.28067189654367 190 196 196
3.475094813603126 7.025082584309495 21.705752439766744 195 194 201
3.477190870793416 6.967325896917773 21.609304714726317 121 124 125
4.3864343866945985 -10.780562872595757 30.533972450008328 121 121 121
4.406704192868011 -10.448829814912088 30.251437193798075 161 167 169
4.52909901894446 -11.501634187905308 31.273922950474866 112 118 120
3.5906402194824647 6.973032006660032 21.743295817913403 152 159 163
3.53488318089576 6.7108953121485495 21.19040783491827 128 127 134
4.080408369618599 -1.1219649161439866 25.65965108725208 108 111 112
-7.064068996988189 -9.768447254008432 32.59892366291208 145 146 142
4.041403805799469 2.0827590701221532 24.178542629822022 29 32 33
4.041403805799469 2.0827590701221532 24.178542629822022 29 32 33
4.706191998513034 -10.55196597217181 30.35306622983714 119 122 123
3.988349805898219 3.126525131250819 23.684425367607748 27 33 33
4.821158852810277 -11.479157762768299 30.838296545447253 125 133 134
4.8255565879077364 -11.487180297944779 30.86754991774093 125 133 134
4.3539757164656505 -1.8685126425086287 25.934996967779902 137 137 139
4.855135083018116 -10.796676112805468 30.48170073149245 146 151 156
4.855135083018116 -10.796676112805468 30.48170073149245 146 151 156
4.1175667851785995 2.6072854033568325 23.667520897169467 121 124 125
4.133272912790272 2.7201755493078137 23.795282970216057 121 124 125
4.92391049947115 -10.5875533249806 30.33101584409346 140 146 148
4.193750194433028 2.49421288326137 23.84099206487777 184 190 192
5.124052136441938 -10.966850825252807 31.09270054774817 142 153 153
4.504845959321093 -1.4968273473509162 25.73383824713639 190 196 194
5.014407613038005 -10.364612145900535 30.19684762352316 133 136 137
2.2001860041680517 5.124540910377634 16.840773994023593 195 191 194
4.6572323679931005 -1.879571990460928 25.887073363551682 46 46 42
4.735703791380567 -1.9648791433708452 26.272722478047783 46 46 42
4.6857767712207785 -2.1549308466960304 26.053039789550365 188 196 195
4.692095289491681 -2.1601282563579165 26.0029422038791 188 196 195
4.412693308426502 2.99718954541706 23.60385455646832 181 189 190
4.718185210715553 -1.666600234786922 25.76835800117369 43 45 51
4.442107980217862 2.7102492624942576 23.754041213183545 193 199 197
4.442107980217862 2.7102492624942576 23.754041213183545 193 199 197
4.457986453577447 2.7468299893828436 24.297473565772155 193 199 197
4.232780157589097 7.044025528774172 21.680323525955057 179 185 187
4.234534629976067 7.048383507817633 21.67977265757241 179 185 187
4.898296583509455 -1.2604628910634024 25.510490593529056 54 54 56
5.643980963620903 -10.690624809372691 30.514437717232575 125 131 131
9.383375801452297 -16.743419175730967 49.679435695874275 152 160 159
5.677702789200369 -10.365734761421125 30.13955844521892 135 141 141
4.8172835421426425 2.359908020170197 23.81820803993499 32 32 34
4.8172835421426425 2.359908020170197 23.81820803993499 32 32 34
4.504868469342947 6.983027719493311 21.42336321601784 157 163 163
4.509669713332002 6.881409856744116 21.4805251707335 187 187 191
4.87928064711407 2.783869894390649 23.64537530352945 179 185 185
4.585024494421498 6.907303888869747 21.550268838102415 185 188 189
4.587248124356707 6.912385423033692 21.566228445880547 185 188 189
5.302692572714427 -1.6930786712105867 26.796023240108752 44 50 52
5.302692572714427 -1.6930786712105867 26.796023240108752 44 50 52
5.232295525058413 -1.3755042438255882 25.506086304962434 37 43 45
4.9864650357767415 2.4444020943718097 23.706255427624644 37 37 39
4.9864650357767415 2.4444020943718097 23.706255427624644 37 37 39
5.122448679804595 2.1410839344511463 23.804824626666306 29 37 36
4.940705194478207 6.91579723763702 21.47417842882027 170 173 174
6.512293851311638 -10.017893734958799 30.4057252787364 128 128 130
5.813252347151895 -2.6303701431478803 25.973014638355078 58 58 60
6.5145283954443745 -10.625936597801262 30.118376839601254 96 102 104
5.7856466410773395 -0.9891148826440043 25.343476431479992 45 45 47
5.193133550239873 6.980564243060518 21.441179572543046 146 145 149
5.326317641506143 6.93948672740721 21.432300230694068 185 188 189
6.237998757031587 -3.088409430578136 26.182275706563264 81 79 86
6.011414458525811 1.078977444810793 23.725903419553088 180 188 187
7.284889225145444 -10.387249252324311 29.96443890836529 119 122 121
-5.511169244364605 -9.38073320293814 29.884814616942087 110 121 119
7.359254921033914 -9.855862539870326 30.06005164203513 137 145 142
6.846898533432182 -4.4386556642754 26.606697959605512 58 69 69
6.7890013057588305 -3.558796059615894 26.296210792203652 192 200 199
6.450770919757771 0.7749410112468046 24.253193055964946 27 37 40
10.768467712614889 -15.468741045395431 47.43585093820869 129 135 133
7.031453760926609 -3.8884683345529085 26.294740388602865 195 203 204
6.263047946481665 4.16823613781337 22.61962213904942 41 41 45
6.6508202930761415 0.46183481968975065 24.42778067270698 175 183 182
7.11189665245434 -3.737018618892408 26.538304589158702 62 61 65
7.080150039038301 -3.713647433086881 26.30516302976417 62 61 65
6.238332870114186 5.12057580693254 22.160990062837563 23 26 27
6.795028791005284 0.003113016925371143 24.63753221839422 182 188 186
7.371904612204998 -4.571871293147065 26.223683760567663 189 195 195
1.0571997251806506 -0.7191907803687047 11.88980003223812 33 39 37
6.988269082981606 -0.12821653676939077 24.610912778757957 34 37 40
6.988269082981606 -0.12821653676939077 24.610912778757957 34 37 40
6.982679248661039 0.29911126235165986 24.56047761299445 172 178 180
7.402423027903217 -3.936525252002275 26.44099436968176 74 70 75
6.914073749737081 0.7034069020049294 24.2300511233655 171 182 178
7.447536380485206 -3.792225182493775 26.8317966771796 187 195 196
7.447536380485206 -3.792225182493775 26.8317966771796 187 195 196
7.447536380485206 -3.792225182493775 26.8317966771796 187 195 196
7.517486187462865 -4.3402969012593475 26.447767348492835 190 196 196
7.957103836396528 -7.34436446631532 28.104744923337204 195 199 194
7.802884340505998 -7.200146207086667 27.732627266154385 195 199 194
6.744017290718726 4.264957682653968 22.90296527188019 27 26 28
7.170896366934971 -0.044502330129515655 24.512743652599138 32 38 38
6.913689977561755 2.4216782716068637 23.318817142600828 22 28 26
6.6562858077589615 5.046752352516112 22.157547632269495 28 24 29
7.169359548571074 0.46795967251918624 24.29208229574492 171 179 176
7.125723156534559 0.34195503982959724 23.87394314810066 171 179 176
7.169359548571074 0.46795967251918624 24.29208229574492 171 179 176
7.640459532675546 -3.8619335842359765 26.287762364611275 57 63 63
7.183939280931298 0.7527328126028952 24.12645501715687 38 32 34
7.778975472460554 -4.589749690056284 26.224381027321943 67 74 82
7.755693409956694 -4.570900619432728 26.179971024010968 67 74 82
7.665742875513127 -3.578743948679893 26.105802982669527 58 63 68
7.665742875513127 -3.578743948679893 26.105802982669527 58 63 68
7.665742875513127 -3.578743948679893 26.105802982669527 58 63 68
7.7326115243153195 -4.085606804161857 26.303278175918095 64 71 77
7.734730340074115 -4.087061671044991 26.32532525097334 64 71 77
6.934335725038999 4.272602963927958 22.456289360161016 29 29 31
6.934335725038999 4.272602963927958 22.456289360161016 29 29 31
7.97979055847988 -4.739865416332676 26.548193304875443 189 197 196
7.8895680491864635 -3.8720061673145856 26.13469988764358 190 198 197
7.9125489186716855 -3.3724354095321067 25.93638614956174 189 197 196
7.4480802650886515 0.24518846940417222 23.772532959231413 42 48 50
7.058971780888515 4.461418540103705 22.420656710237033 27 30 31
7.028787922425318 4.791886579343556 22.21998996449355 37 33 38
7.593034044839705 0.8454330183520172 23.9704931292817 124 132 131
7.220912290170323 4.757351079439888 22.141416676164944 29 32 33
8.186260019697459 -3.155322603039756 25.811789300294294 48 50 56
7.449802718094528 4.604881436680359 22.321145510541665 37 36 38
8.525903632859633 -3.297112558953906 25.29852977559475 39 44 49
8.573750413648714 -2.8342605038917252 25.60429302384302 188 196 195
8.767620072195966 -2.462422845682519 25.309511289982627 48 47 49
8.796103190303139 -1.7476051216036435 25.07206661193469 61 57 58
8.749533977862377 -1.2489790393717637 24.832985107019656 66 58 57
8.980270377041643 -1.6110974122558623 25.076682842780716 196 204 203
8.922009711673791 -1.6952917429627077 24.95649517286219 196 204 203
9.081876069423698 -2.1330982631130633 25.186636701506117 90 90 86
9.03136461482235 -2.2316941923770175 24.941539030340714 90 90 86
9.009693456093629 -1.4735867468037338 24.86487961577031 189 197 196
9.009693456093629 -1.4735867468037338 24.86487961577031 189 197 196
8.691887853087799 1.910114474487176 23.34591006506876 29 32 31
8.691887853087799 1.910114474487176 23.34591006506876 29 32 31
9.292483411069064 -2.257394139210897 25.133409666018597 45 52 56
9.31791592885942 -1.7479521449775945 24.91265407726367 188 194 194
9.31791592885942 -1.7479521449775945 24.91265407726367 188 194 194
8.852410256420118 2.2882544456304355 23.106040951523738 37 36 43
8.830146723837501 2.8316264418152395 22.864725730935024 173 181 180
8.97319558723921 1.88248890902806 23.06428268958319 90 96 94
9.163033401862307 2.2132827382040707 23.110850078776398 174 180 180
9.146593506241752 2.5020938699615694 22.982344994972465 38 23 22
10.27844054903284 -2.890841598501311 26.272461839089623 65 68 69
9.873942996990575 -2.032468103067226 24.92466786112484 51 56 61
10.075994760564756 -2.4511366318608174 25.609191500669542 65 67 75
9.556887681277404 0.1540378950473837 23.719447300225784 25 31 29
9.471108048611276 2.109392369203976 23.139903338672596 29 32 33
10.371263104724587 -1.7194424028205162 25.47310497687892 202 205 206
10.220752112989837 -2.559033600471436 25.18726666193601 195 198 199
9.686319782928061 2.7969554138658768 22.658068785441955 38 40 46
10.015893124209596 -0.7461797411084377 23.415884789910248 142 150 151
9.94363275475982 2.9445629004662353 22.52144414808739 180 181 177
12.365068927551539 -7.048549514089656 27.0856146243119 197 200 199
-19.686056266951187 -10.556007123621953 34.10346602149484 31 31 25
-10.519814089326092 -9.809584040817967 33.11924748069347 86 87 83
-9.809463897639926 -9.414545202330611 31.931953959402023 62 61 61
-7.353450039169513 -7.243111939958974 23.453155197225815 100 100 100
-9.21378717691546 -9.044587202531623 31.81256635141696 117 114 111
-9.309182901783547 -9.484762100777678 32.51283827195287 79 80 76
-8.987695541030767 -10.243004365916851 32.757631170839886 106 106 102
-8.447809626683762 -10.038963538179969 32.644261467554664 126 125 127
-6.5604567935859555 7.264011681138504 23.319449679064622 148 147 147
-6.601105042988233 7.287035848163952 23.437864840731535 148 147 147
-6.330647307401684 7.317095935377817 23.786451533075116 146 145 145
-7.771107210136409 -9.973284643724702 32.19028440536323 136 136 136
-7.345432182245328 -9.76336304705504 32.33731884225413 109 108 108
-6.495787777084362 -9.570507038983676 30.740783311646098 125 131 129
-6.399320975856817 -9.805489944144957 31.746340629236332 148 151 150
-5.264937247836451 2.367437349637592 25.353848248199018 180 183 182
-5.239770859842881 2.3919021953737523 25.552928444745568 188 194 192
-5.992354685482347 -10.076080201716758 32.18876997437138 151 155 150
-5.173497805487555 -10.53460567263519 32.203414588493814 107 108 104
-4.490450497128013 -10.399191356389128 30.291802750636183 133 139 137
-4.8869326699735485 -11.167011998778836 32.40490571553221 127 133 133
-4.595873559593256 -9.728045635067975 31.584438557589518 158 161 160
-4.224271557762306 -10.879097818702158 32.05637466415363 131 137 135
-3.9131659646412205 -4.850724614129714 30.061396566133194 65 76 76
-3.022533290487384 7.141967296238021 22.781123444792065 140 139 148
-3.414706178065704 -9.948287914923826 31.464952399709084 160 166 168
-3.056056658524598 -9.493186005058114 29.540541651338184 146 154 153
-3.078303220457667 -11.012492198517371 31.878974157377762 131 137 135
-0.383932174421036 4.94470599925194 16.52719212024268 148 147 147
-2.594775110167829 0.13338385027343475 26.25375896521964 188 196 195
-2.180543400909943 -4.231956787589834 27.72815864308046 68 75 81
-2.2403189720856544 0.6179690181959849 25.78873834718416 188 196 195
-2.08096631253117 0.6449321430664304 25.301244134402094 188 196 195
-2.151898383945377 5.238606025565425 23.585175789826785 184 190 190
-2.333220445362551 -9.95693676794828 30.94918968021499 160 166 164
-2.3366433502402923 -10.271596290270042 31.488116238959538 147 158 156
-1.760846686638415 -9.448049120120775 28.81121702849364 120 123 122
-1.8429141441116583 1.0427211525358022 25.67542113270487 34 37 38
-1.8340032676171794 0.9454097667768595 25.63875286767661 34 37 38
-1.6794095598276821 6.820647094989406 22.143601515863846 193 193 193
1.422081107455233 -2.9640314526223173 27.013396891832464 32 38 38
-1.1369433624605274 3.5089232128476975 24.37063522520038 185 191 193
-0.4679626270623262 2.6381535932496085 24.09189225137062 183 194 192
-0.6205334927207453 2.6663303810882493 24.57983145370934 183 194 192
-0.3128189269398274 -10.951700849593829 32.032841692247274 135 143 142
-0.36670329219415404 -10.797728666982131 31.094303640605087 135 143 142
-0.49700875330306155 6.881865301928635 21.967590132205036 190 193 194
0.033835658411059795 -10.635805755931562 31.58450948004691 131 139 136
0.04983584026230429 -11.000029865847639 31.507158603794192 132 140 139
0.04983584026230429 -11.000029865847639 31.507158603794192 132 140 139
0.19181709150992113 -1.606191432911489 26.52764123075189 43 49 47
0.4160412147214951 -10.900082069702243 31.410498568086652 105 106 102
0.4160412147214951 -10.900082069702243 31.410498568086652 118 124 124
0.46572207531727877 -10.290150675220632 31.78129976734639 149 152 153
0.6517980767504398 -9.815761809954482 30.933214090508542 160 168 169
0.3583332236067072 2.360746412998457 24.62414005773652 189 195 197
0.2510600641973429 6.979820040658092 22.283406268855416 152 152 154
0.4661645698307785 5.3082426794912365 22.987666280144886 28 34 32
1.168577384345843 -11.097446146107188 31.271437521929442 123 134 132
1.1660787238619872 -10.932649555588972 31.280964402783813 123 134 132
1.2213404216319588 -10.784725956283214 31.223114659044654 124 130 132
0.9570964750180437 -0.4168341559733099 26.16390235987163 43 49 49
0.9746174565826697 -0.4451042482936538 25.943462645462102 43 49 49
1.5471995316144598 -11.144802617505954 31.943057587692397 114 120 122
1.492617817933865 -10.140181107176284 31.126462055051437 139 145 147
1.5296550920917666 -2.9762844157301744 27.008423885997434 89 86 83
2.0101712222176387 -10.486269515712781 30.866034382716602 133 136 139
2.0284188018529523 -10.706526816746168 30.820852490201688 92 91 93
2.148554733150576 -9.86367979988087 28.79055355377686 130 133 132
1.5237669276521106 6.991069254920786 22.137284445046816 193 192 196
2.576454035652904 -10.623836804362844 30.78372945969434 139 147 144
2.378813481688737 -3.2552127959550807 27.00588350292552 152 163 163
1.834273419350537 6.918575492671434 22.22546922645054 179 179 181
2.7473896447359194 -3.3010643207251804 25.55788969512505 55 62 66
2.530757904780886 4.62987016359866 22.993961426086912 29 32 31
3.331423316961487 -0.9809732914716371 25.661235116351385 186 197 197
3.331423316961487 -0.9809732914716371 25.661235116351385 186 197 197
2.7998860183266983 6.94721364651366 21.756338235965657 183 186 189
2.8089088836594684 6.997118596078582 21.806585539946287 183 186 189
4.227303675321939 -2.2490740811700127 26.15543253792396 40 48 49
4.205962579262624 -2.365509667883648 26.09556412265136 40 48 49
3.9768506114626545 3.034827610514106 23.6692148808884 33 33 35
4.676685589142262 -1.427957284646404 25.688099994775097 50 58 59
4.676685589142262 -1.427957284646404 25.688099994775097 50 58 59
5.000304494720136 -2.05526280034694 25.741744018350925 185 191 191
5.000304494720136 -2.05526280034694 25.741744018350925 185 191 191
4.683422409205617 2.429063829680509 23.7432387042983 25 25 29
4.683422409205617 2.429063829680509 23.7432387042983 25 25 29
5.211083253403166 -2.042571318781516 25.83560419877241 50 60 67
5.684539757553835 -3.329449658429579 26.120537071228107 191 197 197
5.815583805862037 -3.3002769490770247 26.52826598342201 191 197 197
4.770311760012114 7.090126408558563 21.403782188765685 170 176 176
6.237998757031587 -3.088409430578136 26.182275706563264 181 187 185
7.021361745677427 -3.8758947520218214 26.243300583361556 189 195 195
7.360780187431655 -3.3888097522270906 26.106573071138207 110 110 110
6.704193364487988 5.129853099057571 22.4889053724942 37 31 35
8.532948414626397 -2.717628046882969 25.55344421105835 188 194 192
9.592929652627394 -1.5577962574780306 24.7774931888884 35 40 45
8.804491319355034 2.7269479051892156 22.74971801489312 174 177 176
10.2216120718046 3.6827064010627204 22.308271616761548 173 173 173
15.732990997299092 7.309101687597226 23.290472944219417 12 12 8
-7.836708367902471 -9.561819558254577 32.853902480492586 156 159 158
-6.3791818306347094 7.169953174358324 22.944235186048857 150 150 154
-6.8738281794332545 -9.946856360191306 32.0027006297572 156 162 160
-4.996019961616645 7.197221797169306 23.305503811278733 128 131 134
-4.874991018687079 -1.7316869574373492 27.226358986565973 51 54 57
-3.777462753271462 -0.36686247710233666 26.745723881154746 46 52 54
-3.7849197573254605 -0.36939483213445545 26.79607567014255 46 52 54
-3.658401497608184 7.169432052660432 23.045058397940757 124 123 130
-2.8681815218884283 -4.281354862233422 28.17512686961988 142 145 146
-2.635278909807316 -4.94703448099809 30.999656260132337 125 133 132
-2.7423588092354967 4.9093149155675455 23.72016280285353 24 18 20
-2.75712762230122 7.067858857432306 22.386427264863645 117 123 123
-2.3911434070330757 4.425565833557345 23.964893002002196 184 196 198
-1.9091059191609845 -9.957814167976325 31.27721912306354 145 148 149
-0.86432014553791 1.5201679482673411 43.67119607992676 34 37 36
-0.23047144565304364 -1.4390698554228947 26.073833584606675 65 59 61
-0.23047144565304364 -1.4390698554228947 26.073833584606675 65 59 61
0.14500785077580325 1.9032871931399482 24.46032445951288 32 33 29
-1.183853398105465 4.939666987184576 14.764489704286124 177 180 183
0.39011131683684763 3.188190214054645 24.376266048304295 33 38 43
1.2107020830659718 -3.122144363898373 27.768673706821254 56 64 65
2.420144533879903 -3.6949615989864197 27.258229127408747 74 74 78
1.6533813062018858 6.963112866647859 22.022340271135707 157 160 163
2.9575275456077015 -3.9187566088871204 27.150190931060575 62 64 72
2.3072467511782158 4.384704163769973 23.292185087731507 25 31 33
2.9001112484589475 0.8947252286626317 24.905169275377414 83 91 92
3.337205047666532 -2.6536534551639264 26.247591281774604 191 199 198
3.3463013788096228 -0.42072131874314883 25.474513598137563 44 39 47
2.6407661906472906 7.130896854430564 21.84522244900538 169 172 171
3.303709466618679 3.5165977542347897 24.06680979090837 171 182 180
3.0238064883098814 1.081594248206224 19.81444274924883 29 30 26
5.43994825755725 -1.5173188675685816 25.823053315679555 184 190 188
3.54863537740222 7.013915869467328 21.783196688732712 123 123 123
5.8322412588198995 -2.7717936026602064 26.04834376888161 39 41 49
6.541141981134823 -4.013253295893274 26.76877930326727 35 41 43
141.61435654576536 -54.37331051142537 375.83461904182786 39 44 49
7.673569246438718 -2.63268410727316 24.69337082964264 189 189 189
7.054804229501669 4.461717107625144 22.403470032854674 21 27 27
6.540588109806767 3.8453331998984375 21.433233087932578 24 28 23
6.540588109806767 3.8453331998984375 21.433233087932578 24 28 23
8.441505624046384 -1.1181401346736268 25.894467516346317 188 188 188
-8.915201388344173 -11.291341564933044 33.15573264966961 121 124 123
-6.82484568185457 -10.076681362689683 31.993732324102425 137 141 136
-16.58077928999892 -61.353066404325475 148.09547555693158 105 106 95
-6.329880545052409 -10.245228346839788 31.554922711701717 140 146 146
-6.329880545052409 -10.245228346839788 31.554922711701717 140 146 146
-6.124489098569484 -10.206962461260778 32.260431294126526 143 147 140
-5.260113512238258 2.392036101621015 25.61565798026999 191 197 199
-5.570674963449556 -10.422552772507911 31.94586814763593 132 143 141
-5.60515161901896 -10.558155863517674 32.30834740534443 132 143 141
-5.109444107768028 -11.106334191018327 32.27177567642967 106 110 105
-4.2528353950479305 -8.736004959757787 28.104571043948138 164 175 173
-3.672845266739559 -10.20789989164569 31.359018776273256 124 131 125
-3.569919354510014 -10.247851148248543 31.728928991604914 150 158 155
-3.312788422170355 -10.490612242441609 31.758255672438178 128 134 132
-3.05637773942483 -9.993634024167292 31.203120769501954 144 155 151
-2.9369297005979518 -10.614626979714856 31.858462361511222 134 142 139
-2.9133667320466214 -10.321039089972839 31.258127419969565 134 142 139
-2.7181286920253585 -10.21722971664895 31.535601137307374 157 168 166
-2.1573001909216116 -10.298879416676797 31.518277676259064 146 157 155
-2.0399500675245936 -10.1073651565912 31.374850308347785 99 102 103
-1.990432502080883 4.320675524666701 24.14712422345449 30 33 32
-1.555353708716835 -10.30173923494779 31.439510286950917 152 160 159
0.13153118299521893 -1.515763686042122 26.50995474197439 94 106 110
1.3239080252530937 -11.114948936690755 31.29485243860934 112 118 116
1.1959601516320553 -9.839802703155359 28.75379405298469 115 119 114
1.601807722576784 -11.114304730374798 31.273059420424534 93 101 102
1.614351038919827 -11.122891022616773 31.360745515607846 93 101 102
1.9529046847592926 -12.061561264357422 31.701470557918984 122 124 115
-0.4504374705284504 4.943138789321639 16.539180714373735 158 154 159
2.3738280617288776 -11.051757741637964 31.132837132020267 107 111 106
1.5658881538717575 4.692542143361042 23.108168461878734 28 31 32
3.0744785232189717 -11.214540561240717 31.014465588507914 119 127 126
2.0743508507737176 7.129259105114049 21.936782111842366 154 150 153
3.0166112360372805 7.124326273915043 21.780818360124137 151 156 161
3.2270990518812748 6.9271740013156125 21.667822826851957 165 159 163
3.228332648921481 7.065507492672592 21.779309250871535 124 124 128
3.3302325340575063 1.7430467297703758 21.966872864173414 27 30 29
3.677347155092641 7.002677064712789 21.642795675270737 168 167 169
-0.0686109929869593 2.9273513418558723 11.059090183992481 179 178 182
5.3888972521883725 -3.257842975200539 24.356102659530965 192 200 199
7.6150473865704384 0.7414350675230335 24.041208649642414 163 167 162
7.519072797775761 0.7471832060948769 24.011258002572312 163 167 162
6.90516257270901 5.001616481322661 21.99002831915872 160 160 160
7.40938511484827 4.505061074900107 22.210603312538815 173 173 173
9.48226128516654 -2.414645689786693 25.164094623494105 102 102 106
9.592393863801638 -1.9661529504264874 24.953800943432235 41 40 44
10.225964186543278 -2.6619501563526526 25.428481990719572 200 200 202
9.144539597579282 4.460222784342884 21.78493453541695 19 25 25
1.8355671273048009 7.172091164667564 21.94417983203417 163 166 167
-1.7044794689062472 3.6930019082626777 13.275990970275544 161 160 164
-5.960641069206228 -9.92202358660737 31.989581830943493 108 108 110
-3.473410391297962 -10.284850422461727 31.60046695329089 110 113 112
-3.1568453899654134 -11.308984029885707 32.19906535194942 90 98 97
-3.1568453899654134 -11.308984029885707 32.19906535194942 90 98 97
-2.904620314588514 4.252110760060014 23.77908169811423 26 32 30
-2.576244903362256 -10.389996273870201 31.693736283643343 108 108 112
-2.2434814576765043 0.6581131205457179 26.158131804519908 185 193 190
-0.9137972721167994 -2.618005737772588 27.33717153293513 190 198 195
0.20061642028348647 -10.796462236362009 31.348644842162123 125 131 133
0.3187076492380772 -10.30026002963183 30.83224422067112 130 130 130
1.8649780037149042 -10.793658162159794 31.136356555918493 127 133 133
1.9229768469136193 -10.593256519471517 29.029936679495854 122 125 124
3.021555129450165 0.43484456496919693 26.255728168032395 40 45 50
3.78330623762228 7.006903313219884 21.629578507329445 126 129 130
4.35225367020565 6.927868294894098 21.69642415104496 180 179 181
5.032497418770841 7.0368531784726684 21.482489115794106 150 149 151
8.854958586526362 2.203480445482978 23.124712657134534 31 31 35
-26.62386124724783 -20.176435338690283 36.846551330148785 119 108 101
-5.2648349133644485 -1.3816134853614723 28.488194991327653 58 58 52
5.879783441357971 1.4226655398908765 23.608372615984916 23 26 25
-3.0396207140408262 -2.4834403052908445 27.225284332158083 51 61 64
-2.0756132010195163 -10.245674363928277 30.74119536267062 106 114 115
-1.5825010388182004 1.8010561715778854 25.85018199855144 34 34 34
-0.619418890524267 -10.533486891205964 31.188947740023092 99 102 105
-0.24587533608472514 4.739918982651442 23.74602194865479 26 32 30
0.5458295167768086 -2.147378597965822 26.762771248553747 199 207 208
0.8539069711506599 -10.774266260432189 31.155937010083502 139 147 148
1.3444965576480803 -1.1268628893486075 24.981558816933198 39 47 48
1.9474631461817178 -12.044445749952475 31.561450140627358 127 132 120
1.9272346703612977 -10.165785412014522 30.398663642213343 136 140 135
2.0848249765398115 -11.117633598088588 29.171765495626833 103 102 106
2.496986220425112 -12.167439516685093 31.734443162996712 130 132 121
2.126808734395927 2.24902863534662 23.45804412282893 22 28 28
2.6405490788461723 -3.5869940324450997 27.03872148955083 70 73 74
3.6928298866100238 -9.849643043559835 28.784574557492334 132 138 138
4.564819124650766 -11.000513214983297 30.775418723310356 140 146 146
4.923884405230297 -10.585042571595668 30.330988522019315 140 146 148
5.014039445572718 -10.96400471578307 30.507506314143807 132 140 141
5.0931673367240125 -9.908960585309776 29.948625760202795 149 155 155
5.232727823048736 3.6040224857292418 22.600071014112277 32 35 34
5.792803810062047 1.3205511131276237 23.268773683838283 26 26 26
7.640059946264889 -3.5671653787018354 26.070365990587536 59 66 72
9.986121045024298 2.838708080291943 23.407443289043037 27 26 33
-1.977468054686474 4.290542143838806 24.039271171848277 30 33 36
0.46164003304913004 -10.888347702352787 30.895555128336326 152 160 159
0.8447145321692329 1.0212018797167481 25.022381546245324 36 42 44
0.8447145321692329 1.0212018797167481 25.022381546245324 36 42 44
0.5824168888193676 -10.788632392722 31.251457582987804 154 162 161
0.6930038957299797 -10.744571947198352 32.15785738110786 166 177 177
7.59666196093132 16.438964293584913 103.56720118392134 193 196 199
3.0446888223642525 -10.411508831905016 30.200537256531803 164 177 174
3.1499016345221516 -11.10068043937501 30.918874522764867 131 134 133
3.572152575598672 -10.889278213374327 30.635006475508842 151 162 160
4.117911837256304 -3.752048255491866 30.44987164358831 57 65 64
5.232378002389465 -11.499219801523843 30.757577594830362 128 136 135
7.071391008629665 -11.043318737542485 30.23512239170193 108 114 114
7.91840303419892 -10.842452029885544 30.005731773716963 109 112 111
6.716174543372723 4.209434407950088 22.805301998804126 33 32 41
8.830604965208034 2.0112581020627314 23.22898671632392 37 36 45
-7.353881909167489 -7.931455890968389 28.77821624109008 207 204 201
-5.100329041087894 -1.6240157826300483 28.357867486286555 178 181 182
-4.812260530742065 -1.557996771203592 27.502399321431103 199 205 205
-2.1255736395636893 -4.578515588277593 28.275497051808475 202 205 206
0.8513100243289221 -10.790621949736478 31.19767314054864 150 161 157
1.791719379354023 5.233869711911549 23.48040778963015 197 199 205
1.4664490400523822 -2.709465711434195 27.142278113964473 60 63 66
1.8106980222867315 -11.572309561578232 32.96100481042986 114 117 118
3.497808975507734 -10.265190678804249 30.231701758574474 124 127 130
5.418738524514216 -10.975319857739356 30.34680104596451 150 161 161
5.8018909598336466 -11.580205297318997 30.716373311529097 140 146 146
6.604445123240738 -11.671502687138377 30.619815781639733 123 131 132
6.788794021610136 -10.501439618898003 30.15271871109747 125 131 133
7.064262396651449 -11.024723501514064 30.171301575135036 128 134 136
7.255838506880335 -12.265296388773272 30.780562116327 124 129 119
8.206530219369618 -10.096980876464821 29.46248572285745 113 119 119
8.321676145391255 -10.66043944140163 29.58226210965929 121 127 129
8.529662213550708 -10.722720552716389 29.85340492353576 113 121 122
8.523410348376688 -3.5034855196858565 25.83272616857791 43 54 54
13.845357492371187 -9.15488825345477 29.180650616869652 201 202 198
5.933425373483132 -5.033461084168396 27.722078658368492 76 83 89
-8.75465354743402 10.239798411705205 23.225811538944775 212 204 203
-5.849941715744621 7.280044677060017 23.22781823520591 195 195 197
-5.922174490065268 7.399334336514581 23.413502407311874 195 195 197
-2.23135581068341 11.707390612889403 20.814115002943566 50 51 47
-2.4583787621034845 0.5085898362491182 25.867519725299697 138 128 126
-2.0727520234655357 12.139478535543107 21.99328945451395 57 61 56
-2.0259707530666993 12.034933643120768 21.64923814171832 57 61 56
-1.3695656386069164 -2.560966891462645 27.89474204959534 55 58 57
3.1296956740351938 3.7629428810191077 23.126075719356333 188 196 195
6.001764062887834 -0.4561991645306019 23.400870337307556 185 191 191
-2.108880790222568 -1.6548498385908297 26.500418342504517 42 48 48
-1.6042198520546576 11.921789635871006 21.444330780204737 60 64 59
-1.6042198520546576 11.921789635871006 21.444330780204737 60 64 59
0.09307785348987158 7.248450434725987 22.470044849286896 200 206 208
2.9831276390340142 -3.900588115872153 28.78884311054601 202 205 206
4.584789922023685 6.904221797160254 21.547910416224173 165 168 169
5.293249046188178 -1.406139853984865 26.75982775837297 204 207 206
7.114090584906159 -1.7432859740766098 25.154480550487268 49 57 58
7.1312528378712186 4.634181193201464 21.44210450056308 29 35 35
8.916636523147009 2.5797736967054585 23.00647951939535 39 39 41
-7.805249880624381 7.700655365030549 24.761686090893072 172 168 171
-4.102496349050961 1.4926748242083114 26.86602326236616 25 31 31
-2.798520074736316 7.080598197272044 22.78875227634578 176 171 169
-0.25102033259339335 7.091492182165108 22.259586633861648 165 164 171
0.17749479205555638 6.977965047495956 22.283786634467347 162 162 166
3.2452166747850217 1.6133509966410495 24.301082201329198 31 32 28
4.906055808076849 6.876964065279852 21.365126759922298 140 140 142
8.261892987432708 -2.8602579463029203 26.207107771701082 61 69 70
-8.083495629652388 7.5401134296138235 23.908660868181887 131 127 128
-6.727236820657215 7.272355382578364 23.315437234054414 135 130 128
-6.825929343256559 7.490689502013107 23.643740973964146 193 185 182
-6.628808523217734 7.537972671626252 23.801178313378976 149 144 142
-6.012637422627265 7.427716155339833 23.446870336617092 189 189 185
-6.291889439305743 7.643630319614893 24.113549685543774 189 189 185
-5.893417613035983 7.354044531818321 23.40126866100835 173 172 172
-4.990374490875887 7.357433501771593 23.243948815536825 181 181 181
-4.788130444147592 7.338319824066861 23.40145373266225 173 168 166
-4.628918341492841 7.328820996705001 23.006334103774822 177 173 174
-1.625190643322273 4.926457326821001 16.585890310518597 109 108 108
-4.386783991698869 7.329793138770318 23.12805660624013 109 108 108
-1.803618666920738 4.036939312160491 14.063321729083935 119 115 116
-2.890735295587736 7.149685582959433 22.758967885580105 169 169 171
-0.7405654581578622 4.2458680772931 14.685956174952333 126 126 126
-2.5254226531307893 7.258106846276726 22.758431945978973 110 109 109
-2.935702442055186 0.14149424998909768 26.03316256205556 26 32 30
-0.5773940784847198 4.284344121139525 14.694833893350769 113 109 112
-2.2334262536728984 7.236705277794963 22.706859096394968 111 111 111
-1.7463433375591517 7.263249737479097 22.598005359751937 164 164 164
-1.7463433375591517 7.263249737479097 22.598005359751937 164 164 164
-1.3648002502607954 7.138743214055994 22.504239523782157 144 144 144
-1.389846817836313 7.197490528223365 22.67918846901361 144 144 144
-1.6265292234811342 -3.7707471729319235 27.42695349298441 167 170 169
-1.6606928683054254 4.291803303520655 14.811580845630777 151 157 159
-1.283635074184363 4.86408586659958 16.556516921721187 155 155 157
-0.5963120849279101 6.990634751888274 22.346103873963333 147 150 151
0.015204515454262107 2.72424171939439 24.401073914272814 137 154 155
0.18918729182685848 7.186934309005263 22.24370770968008 165 171 171
0.21912516845919153 7.137678113432606 22.04379575788151 139 145 145
0.3737558051260058 4.3954360831227355 14.911458034522846 128 128 132
1.6689597665902765 7.048271612275855 22.04358508166708 115 121 121
1.8836743634086244 7.116163547762981 21.97303807825856 95 98 101
2.590809358910244 7.079796796017323 21.88883861196946 148 154 154
2.669973163165222 -3.717587593940781 27.827753803510127 158 169 169
3.096421500497691 7.121218337405925 21.768221591996237 100 99 106
3.216174485313162 7.097319008769229 21.744766236874156 121 126 131
3.2772655627753555 7.108873723825701 21.749385575344203 149 155 157
3.9063394618577414 1.2261762122111448 26.005290274832884 14 20 18
4.09302931965528 6.817286265734314 21.356116933347547 150 153 154
4.239009940810858 7.078659196519718 21.627469751551967 149 155 157
4.239009940810858 7.078659196519718 21.627469751551967 149 155 157
5.096931330150723 8.869538085543317 26.167804579231998 151 154 155
4.530918317579273 6.964159156716188 21.254629242971212 156 164 163
4.543529282367969 6.973402660345296 21.311014923553945 156 164 163
4.8499398642332 7.07805527317728 21.501784676018204 151 154 153
5.06239435026386 6.952309550871115 21.536436444970384 153 154 150
5.168942985240215 6.9508719879509995 21.517075260776306 79 75 76
5.0397303814158 6.924641735289298 21.139455782227884 120 126 126
-7.574382484627531 7.4696174337929016 23.573640994215776 121 117 118
-7.073158551020978 7.252937208218451 22.96752441414342 159 159 155
-6.3568662035332375 7.309163481759933 23.46986499604847 167 166 166
-5.928591794751251 7.196535931137468 23.23719615178189 133 132 134
-5.879302597965747 7.233565847120031 23.16390869386158 146 143 140
-4.988368530508538 7.399009313108897 23.257004514782167 159 162 165
-0.9453595409149443 7.223353664299397 22.344623745055365 182 182 182
-0.8636530709690088 7.336893037103295 23.057979370576906 185 185 187
-3.826982134876673 7.34663154578531 23.038237464077458 133 134 130
-1.5860691115527734 2.795618967784519 11.047805782598871 176 179 182
-3.0049166728960146 1.1507834781721427 25.571497452276212 31 34 33
-2.828320320852587 -3.8402582982738362 28.121605452395105 63 75 77
0.13832057827518546 3.214039626321644 11.766266666699188 180 183 184
-1.5893051697770237 7.207516847770662 22.59556972038494 138 137 137
-1.0929806479315272 3.5871324878160404 24.63968592342945 174 182 183
-1.1715296590466648 7.181816091814153 22.29352655119258 143 143 147
-0.6947507245418721 7.034812698469413 21.947506733564065 176 182 180
-1.2489956041122867 4.295565521207966 14.778548177834805 168 174 176
0.12374561198774316 7.125728521132872 22.283087653766255 133 136 137
-0.7487014563927933 4.284975476404753 14.7146939338439 111 117 117
-0.21507202639928633 4.8948113503478945 16.386486712684487 171 171 171
1.883859697946555 7.126675330300995 21.973422499889114 173 176 177
2.1448373649711505 3.950262853163149 22.713954423427708 26 26 20
2.1160463336993702 6.995836731971104 21.555088949370305 110 109 109
2.425003570249857 7.111418101502172 21.649199087399488 176 179 180
2.6786079218411327 7.0194392873429745 21.820481891802213 164 167 166
3.849469389708475 -0.35620165739915866 25.480887442804935 23 29 29
2.5629180609780446 6.094280719507286 19.432285691011465 122 122 122
3.391198985460391 7.109306698833156 21.734433856622577 163 166 165
3.391198985460391 7.109306698833156 21.734433856622577 163 166 165
3.5748818966517306 7.088757077835057 21.49206926827949 136 136 132
2.245034426906474 5.061522952812316 16.765086720647147 110 106 107
4.616467613618852 6.955046028751938 21.53828479719738 166 165 165
5.9987413687693785 1.6154449539884628 23.943157068753973 19 20 16
5.248756063137421 7.067014670671803 21.44158068685229 169 172 173
8.513136459871621 -3.1686052629470782 25.621213802011514 25 31 31
9.643763915097653 -1.9823132412345625 25.040011555181614 31 34 35
-7.802437455028543 7.337519151331111 23.310824551079367 191 185 189
-7.77028519853623 7.437571042242377 23.71938879031951 140 134 136
-6.278728326738987 7.198983073098688 22.781900929158727 150 150 150
-5.427520393280252 7.48330705298598 23.308214691463036 200 200 202
-5.466947802034061 3.226392738120156 24.733686148200018 30 36 36
-5.202706753794548 7.346307719657406 23.128035423338513 146 146 148
-5.175276434082663 7.315616340491963 23.165140278498612 183 179 182
