ply
format ascii 1.0
element vertex 713
property float x
property float y
property float z
property uchar red
property uchar green
property uchar blue
end_header
-1.5737310630394612 6.00564416922319 24.358255405215594 57 59 65
-1.5745301794020108 6.008889576342161 24.370080196632575 57 59 65
-1.5554209378144932 0.8529243240562419 27.243769912130077 191 199 198
-1.43102765109749 5.645300088127924 24.499477418925704 33 33 37
-1.4301004601141556 5.64875061745755 24.51747161111695 33 33 37
-1.2638245675673783 1.5731229068894472 26.770679916988083 170 177 181
-1.250923960337944 5.243209420477533 24.76542672610763 29 35 35
-1.1927068910952587 5.8973682073293565 24.36104013140478 32 35 36
-1.1800966371054264 2.023755401085967 26.485261708677065 45 48 51
-1.159887514724427 5.665065487299598 24.478000023368246 145 136 131
-1.0389430826554276 -5.186682841499297 30.708062815087125 140 143 142
-0.9491889635439 -4.887384843299533 30.5278558056287 89 92 93
-0.9213204922823606 -5.587772396413841 30.8920224661833 136 136 136
-0.91379070993687 5.628543044051426 24.474040671335047 46 45 47
-0.8816544947395784 1.6553770780354706 26.64507812096936 44 50 50
-0.9030016479194881 5.816599143454701 24.430540155818825 190 196 196
-0.7144762456193777 1.986977671690141 26.47716326013411 54 54 58
-0.676756309730232 2.2399977180319985 26.29895699727162 191 199 198
-0.6765350342064778 2.240029080620599 26.292826423575846 191 199 198
-0.6196292556282246 1.3817186014767753 26.737799013628916 55 52 47
-0.6609338756027634 5.658646625196973 24.457357740349785 191 197 197
-0.6650324747033811 5.6610782882473485 24.476647755470967 191 197 197
-0.5864419712538007 1.7826811770810198 26.576410150114082 190 198 197
-0.5153419239804609 -5.114562645152259 30.47433747718339 141 149 150
-0.4432776286103829 2.200893209213662 26.31539667983663 191 199 198
-0.4431408641404943 2.2014191477068503 26.314217389635782 191 199 198
-0.311323431804273 -4.719899849491535 30.374545201776947 146 153 147
-0.44510430438944754 5.65245116837969 24.441124130754833 99 107 108
-0.44931052468109856 6.078067160862083 24.217186758947328 45 48 51
-0.3799796324061326 2.0010059575113006 26.377270380267838 48 48 48
-0.38029069746012495 1.9983172764702846 26.391153256722916 48 48 48
-0.3735704449884754 1.7757874964990896 26.488930004630912 48 54 54
-0.2692827613498079 -5.047649281802205 30.58613218064983 151 162 162
-0.25869887681427295 -5.067950023090298 30.736437674974244 151 162 162
-0.2596467304721778 -5.154686072167273 30.643693067356516 107 118 118
-0.23550170746256535 -5.237565887238489 30.569629752197628 135 141 141
-0.22229213289515637 -5.191893395590796 30.39261602868358 135 141 141
-0.2701512051376837 2.348757959643377 26.233376379518493 55 54 61
-0.27088178567170956 2.349388528534082 26.237159173985138 55 54 61
-0.10924689708856425 -4.911192671294986 30.440769430722465 101 101 101
-0.15098842806868315 1.7859619488117007 26.50308405226339 47 47 41
-0.01598108684444785 -5.32790421232297 30.91897495957871 137 145 144
0.015159605901196513 -5.168602914866147 30.5278569846758 105 112 116
0.05939842712717791 -4.732857156137409 30.32474191767659 126 133 127
0.09943272005108109 -5.70119251121397 30.862261879559288 121 129 128
0.11267468213348975 -5.054739881104635 30.57834221807851 140 148 147
0.11453967823905625 -4.426397406324148 30.16721731844256 170 176 176
0.007379948207016719 2.958947769270975 25.847102178756845 36 42 40
0.17640430681143857 -4.809496536145631 30.28038852286834 161 169 168
0.25313175385258446 -5.340682741595247 30.68019926089118 139 147 146
0.25313175385258446 -5.340682741595247 30.68019926089118 139 147 146
0.29192243806703466 -4.67014519897106 30.431322292062703 171 174 175
0.3955501431646995 -5.344708298088593 30.65173289800702 131 142 140
0.40257362698736576 -5.36688176768319 30.80112782393488 131 142 140
0.5142714230953487 -4.846447989301213 30.473016468928236 152 160 159
0.4955686616087133 -4.824803945453617 30.23411284696039 152 160 159
0.5369953379642861 -4.446490692609432 30.08893289227566 167 175 174
0.5645217325855529 -5.0889450921468296 30.41242575704248 142 150 149
0.35911453510425145 2.955361434858743 25.806015522416473 29 35 33
0.35935502234697575 2.9580913344278246 25.825336660488812 29 35 33
0.5985974595683602 -5.730787835968187 30.787944980673583 125 131 129
0.39059196982245403 2.5998197050410337 25.92267056875846 200 211 209
0.5768585003855442 -5.08559082238807 29.98976087958653 100 100 100
0.5992043546464493 -4.915719147488511 29.891758630799227 135 142 136
0.509318202950229 0.790182854493925 26.956271654301624 47 53 53
0.732819754187916 -5.318688143922877 30.398141039887797 127 135 134
0.732819754187916 -5.318688143922877 30.398141039887797 127 135 134
0.776976483414723 -4.460388123111353 30.129948910331652 158 169 167
0.5228882821158631 4.2204645938826415 25.139782222137782 189 197 196
0.4317854323864216 7.3610787663921196 23.364992357763715 40 39 46
0.5973508050795632 3.173581499530469 25.696809113653952 192 203 201
0.5990260887645281 3.1738574482249535 25.695055124415216 192 203 201
0.9311382585668819 -5.763389514783085 30.749403177595564 123 126 125
0.7605674114963294 0.5701410458339367 27.04490740094283 193 200 194
0.5369392959531246 7.721717033068124 23.219308974067093 37 37 39
0.7805037192137895 3.3236665557181193 25.562312156720903 49 52 55
1.0708286951867934 -4.639293440367818 30.14596003588103 133 136 135
1.0077233164642283 0.3683493567794162 27.109319469475523 62 67 72
0.7732488138345076 7.260673690743475 23.45989000071151 32 35 36
0.7804076199244039 7.251265438722263 23.422824801203834 32 35 36
0.7778812851739305 7.2447126428863005 23.40191473654861 32 35 36
1.0705448672350009 0.002585914789688376 27.312837936428043 60 65 70
1.293772052450368 -5.394113196537828 30.546240233650174 130 138 137
0.8104770850838192 7.485032317837334 23.280168683255987 165 179 183
0.8065533589014822 7.487758587553047 23.279201088908135 165 179 183
1.3339261124403954 -4.696292608696259 30.18244646617014 116 119 118
1.0218676860614495 3.574916403519441 25.47489265898645 189 195 195
1.0272076608458325 3.5876595054752536 25.578441326947157 189 195 195
1.020608436503517 3.5776357755179133 25.47730417753023 189 195 195
0.8756030235857017 7.047281417766947 23.49395155397775 133 141 142
1.3789357865604752 -5.187927189673197 30.054048319499774 122 125 124
1.0195275633108412 4.195820770190103 25.11285404325434 44 40 41
1.4432644998690713 -5.142063637897147 30.317758777045597 132 139 133
1.4999007487513978 -5.359813538371133 30.30265867189883 132 143 141
1.258021227474652 0.5630957008904887 27.015015172747045 74 77 76
1.0636532419633102 5.509571748293956 24.3620305546783 26 32 30
1.0740658278515072 5.52746677648318 24.411121728721337 26 32 30
1.3070716391890038 0.20713208924959564 27.178946102771132 195 201 199
0.9988607584350119 7.691299741017495 23.144183642443547 143 134 127
1.3262270073255524 1.9097041188657515 26.29036717237165 33 41 40
1.1087776971331667 7.022864452782905 23.567357430781666 146 156 159
1.1091877539122932 7.01299109155196 23.537431191490466 146 156 159
1.680463436737889 -5.39142114061709 30.443023588210895 135 143 144
1.2927088572925611 4.036887896343394 25.134299794665715 38 37 39
1.2866629171600408 4.036761802792308 25.098049589270676 38 37 39
1.2926121068731853 4.038249363051359 25.119534575560223 38 37 39
1.51551131901815 0.390925263528381 27.03462338914771 64 69 74
1.3154688007439808 7.263374921250954 23.359244872190057 191 194 195
1.3155427586565231 7.256392109630917 23.350020100639238 191 194 195
1.2341133401230413 9.393233944898936 22.17612481389443 192 195 198
1.5124076650728695 3.989894027811617 25.148298825966187 183 194 192
1.5114770411770184 3.990000736816433 25.150499122434162 183 194 192
1.3664318090765482 7.4843394481928245 23.236078154581705 195 198 199
1.3652603485092183 7.484915046988718 23.24000380229829 195 198 199
1.5606133190428861 3.5546939967502493 25.35656462321491 185 193 192
1.5868734852799427 3.7903367350008086 25.23458896861176 42 36 40
1.7787399571338716 0.0008489771984241068 27.211722355468215 190 198 195
1.6238475187443886 3.3238533850403513 25.458063629175108 189 197 196
1.62513827985801 3.323064898141832 25.464717817170527 189 197 196
1.4262108209903803 7.8539210156381944 23.079874197810533 46 49 52
1.4335978468809503 7.857841599376294 23.0770716477846 46 49 52
2.1086982482879137 -4.898103214025813 30.170331960434748 147 155 154
1.6919445792879972 4.136949483453268 25.053532931513473 37 37 37
1.6911307110838651 4.138355623098917 25.05786736669912 37 37 37
2.192344465044155 -5.0209538478501035 30.00437406128586 94 100 100
1.9336974176826986 0.47813143902022126 26.946823338866945 62 67 74
1.9341801037065218 0.47907537409666745 26.96203150700411 62 67 74
1.7942588007089333 3.55647713852257 25.339397324405336 46 42 43
1.8455720267876765 3.1416245622144934 25.569895003258445 84 86 92
1.5246934037402253 9.342913964031403 22.175148301891372 190 193 196
2.3758416300084564 -4.711304613308848 29.97880991022574 134 137 136
2.434104451502421 -5.189231053814709 30.200226481894937 141 149 148
2.56296301658792 -5.057426179239783 30.160196048548798 111 117 117
2.1053041602041502 2.9269661341387585 25.636961681133442 139 140 136
2.7823269777302317 -4.584581331090296 30.077608004787763 153 161 160
2.9781255236623485 -5.104413316287538 30.34609730139102 104 112 111
2.9781255236623485 -5.104413316287538 30.34609730139102 104 112 111
3.056666349269802 -5.59115763709437 30.60647908035711 132 140 141
2.3571599332369493 4.763884901203995 24.6329196969272 172 178 178
3.062317338550003 -5.21237165096017 30.345711353033053 146 154 155
3.0703324680231328 -4.727749689781608 29.93951856762205 150 150 152
2.1429688319553297 9.39933303388801 22.08452056428766 188 191 194
3.1398768590300814 -5.078365719854707 30.137506072709563 113 121 120
3.163443760488832 -4.916984406859745 30.014339068870147 144 155 153
2.2467149842737495 9.420531789706775 22.06292625676559 188 191 194
3.2368950006033606 -4.499287409058364 29.825781837121983 161 169 168
3.2777170680323535 -5.20748231067965 30.21122882591769 151 157 157
3.2930275343592235 -5.223759925146272 30.316998679338816 151 157 157
2.7444731283987602 2.342160005303428 25.857379606523516 206 209 208
3.3601085654105867 -4.383517583121122 29.66216760299665 165 168 169
2.695778648193006 5.0659975349515 24.482850517192208 29 29 33
3.4157270730511367 -4.901988655138096 29.991391606228703 154 161 165
2.6271210923885286 5.960627425305504 23.965972167976094 44 40 43
2.6318977674610298 5.962186982528112 23.9700967921739 44 40 43
3.4088711198259074 -4.503820522213656 29.74378763740406 134 137 138
3.5201488404063825 -5.615009682825667 30.384169196642038 124 132 131
3.0034793683573846 1.706058552366245 26.17266169087005 43 50 54
3.54542549133583 -5.0884151588347555 30.11257991955487 118 118 120
3.543116465861366 -5.078413859003761 30.071022519447393 118 118 120
2.7630025683775132 5.607167789646939 24.08160666272123 32 35 38
3.6093713395273905 -4.940434324272564 30.028860308045104 143 149 151
2.8315020955509302 5.425719660301188 24.21790745867797 63 66 69
3.6817618156427923 -5.222224363968259 30.11118083964693 143 149 149
3.1299354909073083 2.0254449196742383 25.96293986109924 190 198 197
3.6789281072417683 -4.756241593212612 29.847739426741782 112 112 114
3.8856543026104844 -5.671826814908492 30.607480631332127 131 139 138
3.8025525472682267 -4.958200078660172 29.986172822411707 151 157 155
3.7583327847065853 -4.909234242610563 29.728831222687184 151 157 155
3.2660489300144766 1.6984618914450922 26.123090002086414 188 196 193
3.2667384682863263 1.6984321352582432 26.118628122349172 188 196 193
3.7917233792156946 -4.5347262430884765 29.796768154171815 123 131 130
3.3035591281247902 1.4633597069433935 26.24355256555053 36 47 47
3.3059996897574386 1.46201666509951 26.25076569006412 36 47 47
3.0220621671402013 5.860036267724759 23.954667605167753 25 28 29
3.334312855764067 1.8829420291025918 26.022037077256563 191 197 195
3.3348728437825454 1.8837336870190156 26.023865557042235 191 197 195
3.0586289019338877 5.608738639034856 24.090376349833676 152 152 152
3.058723477239426 5.608490998202148 24.087325761835892 152 152 152
3.058509735392587 5.609110310855355 24.090755811923373 152 152 152
3.0578213755343797 5.607030022990912 24.083450696014886 152 152 152
3.472558827835637 1.7310956661791443 26.062397682044168 47 41 45
3.4699069656116177 1.724870663754337 26.076363224317785 47 41 45
3.5011117021033957 2.3300999009529146 25.794938715978063 48 43 41
3.2804673274416802 5.375891190443606 24.153262992055243 174 174 174
4.1999708243083695 -4.948546671544307 29.95279324898105 147 155 154
4.127363588333144 -4.368768772713989 29.30953459160565 160 166 164
4.298526265065679 -5.272356487004417 30.198744974782944 139 147 146
4.248994703300788 -4.754242022292597 29.807454026040695 144 147 146
3.391664381911181 5.314023654626638 24.187509462022195 181 189 188
3.3916433801580808 5.314562557719678 24.187579907625015 181 189 188
4.275468661314398 -4.494206387805234 29.662041125347656 133 136 137
4.350436613271516 -4.631940316062644 29.806313719490856 167 173 173
4.345158946446591 -4.619478844260189 29.74545253499073 167 173 173
3.1513788257026154 9.29442282243373 22.03137805983275 157 157 157
3.15651337872803 9.303992043619369 22.04210053015051 157 157 157
3.8115533452964026 1.6805399479393048 26.055783953657333 43 45 51
3.796220605480637 1.913991449213461 25.9234978901657 41 47 49
3.796220605480637 1.913991449213461 25.9234978901657 41 47 49
4.425540987081204 -4.500940600983249 29.513260828564523 103 106 107
3.548017749726748 5.400289616014293 24.116001546645496 182 190 189
3.548201654153922 5.4009185799413 24.117166884357705 182 190 189
4.546062077211684 -4.989170687083426 29.957016351867686 146 154 153
4.569978213862211 -4.506230229702459 29.556649051029414 93 95 101
3.785509845681299 6.012140327149594 23.756226860445352 35 38 41
4.287691247845815 0.6727403791841863 26.435580673271303 45 56 54
4.892864104250644 -4.546580277638932 29.660764821833904 111 112 108
4.950403748821089 -5.092857481596441 29.874136395871112 140 146 148
4.9121869072226465 -4.7868402797286 29.648012083492734 116 116 118
4.322838473837619 1.0620059230420025 26.300244487753584 188 201 198
4.990431865805611 -4.977338164420457 29.950629036917782 138 149 147
4.236400668076824 2.519866395026139 25.536865183429803 187 195 194
3.827400348944183 9.360143112691 21.889626431517993 185 191 193
4.682976117249852 0.6888167907444143 26.439457830173158 193 204 204
4.92673010373375 0.4856789651756274 26.47533347639126 167 170 169
4.382897225467274 6.574365567970562 23.364190421499455 186 192 192
5.644184095339584 -5.267309601548871 29.733305962756496 128 134 132
4.808665444212709 3.0872993215313964 25.168437475786025 75 75 75
5.181548622647037 0.2884950613196161 26.565522151794248 44 54 59
5.584039434258015 -5.873901752209297 28.69231285589778 125 126 115
4.871461767249686 3.9565456411494613 24.688490850013377 35 38 41
5.908138880686449 -4.552966722279437 29.333541050588067 94 94 94
5.424516468317806 0.01835091975613515 26.643953913016862 47 58 56
4.702452290927957 6.884985585386914 23.115804217935732 30 29 31
5.052715181653949 3.7045340878945945 24.82920146620204 35 41 41
5.049469891983806 3.703303357867885 24.82059229970905 35 41 41
5.178024777375216 3.396748955290326 24.99925910904124 178 186 185
5.694747026866997 -0.40342026372427203 26.849196946523787 55 66 66
5.7022758091160926 -0.4052524307194637 26.92215995600502 55 66 66
6.326103310677894 -4.899466609632318 29.659467343831185 87 90 91
6.38568258781442 -5.036245612370067 29.781140265901303 123 131 130
6.38568258781442 -5.036245612370067 29.781140265901303 123 131 130
5.358932257615948 3.201410725356989 25.024816208067246 176 184 183
5.358817886205881 3.2012935339541424 25.025884942425535 176 184 183
5.286063157911752 3.9112261592672413 24.65676531453892 165 178 173
5.7067582799738625 0.2803315387493906 26.51411530716378 191 199 198
5.706141818193843 0.2809982093161653 26.51060703348106 191 199 198
5.706363892884708 0.2798808217101787 26.513206598046086 191 199 198
6.465551398374296 -4.723802828394875 29.66263801073012 121 129 128
6.589541139023725 -4.701679059903026 30.160935187174797 133 139 137
5.0900617978983504 6.9647301108866735 23.045040304970343 42 47 52
5.08676682683399 6.95171562376443 23.019106817276935 42 47 52
5.5228149406474625 3.2669721298081695 24.952965189821796 175 181 179
5.5225515024354 3.2669635126778562 24.953129191729133 175 181 179
5.070024694738894 7.705557766217228 22.74801858182734 28 22 24
5.525620837729069 3.7031042531352916 24.7087707575617 190 193 192
5.522764650107875 3.695856505508701 24.690489550765772 190 193 192
5.526093606997319 3.70099446992514 24.708146877304014 190 193 192
5.535410119083482 3.9515223895130034 24.57962311454643 176 183 177
5.784851566968755 3.5170687416638025 24.77104477833345 110 113 114
6.187789623180085 0.4574256156248111 26.295206016762016 60 57 54
5.805025825394015 3.677744117135193 24.641800129943853 119 119 121
5.90893813075104 4.0285765840422005 24.466248862708895 33 33 35
6.291489472748595 1.0317805296099054 25.712380356041642 39 47 48
6.425283686125846 0.6367079978221217 26.159250975442784 199 207 206
5.751183499937649 7.281189742438713 22.75769227726905 35 34 38
6.9765355112942835 1.2094427588166488 25.762453008311624 92 91 95
6.977746152566678 1.203020867783739 25.75017322590225 92 91 95
6.968313312358974 1.830745564475093 25.43375808238506 44 43 50
6.932558713913295 2.248360456605651 25.23568020124783 126 126 128
7.223069407276677 1.5028770648881085 25.569304444008363 201 209 210
7.212144999965482 1.4912615194069783 25.51913396173067 201 209 210
7.174724668120081 2.0569525116389764 25.301227194825756 53 58 63
7.174724668120081 2.0569525116389764 25.301227194825756 53 58 63
6.906762902456615 4.952109801360919 23.874915854364264 33 33 35
6.905636286725178 4.950359087674697 23.867460873561747 33 33 35
7.4341975464638725 1.8193099267546804 25.337286266485464 53 53 55
7.428760762734779 1.818171916523464 25.316068202178613 53 53 55
7.5941207190577575 1.2526838201092731 25.635016830900504 42 44 50
7.594500348298062 1.2517545468880247 25.63474481647749 42 44 50
7.0260092914854 5.752352853414759 23.39229396794615 127 130 129
7.292980515846669 5.465672119835485 23.47932984890368 38 37 37
7.95265428667617 1.586253913355692 25.402799521519725 200 206 206
7.999991092573943 1.3382858547094074 25.51027691027679 133 143 148
7.58026117205826 5.157612264846362 23.63941638621621 152 155 158
8.08258266169899 1.9832109657164334 25.10955039000345 38 40 46
-31.997121441132226 -11.07872509369848 62.396920673257064 111 107 96
-9.398807286312765 -4.30002755039304 31.392110557539695 63 63 59
-8.109109887314386 -3.812259409057595 28.955987425859647 114 115 111
-8.418990418546539 -4.070815149550216 30.911772337381915 100 104 99
-8.418990418546539 -4.070815149550216 30.911772337381915 100 104 99
-7.87482543082586 -3.378070417576538 28.802006074433212 87 86 86
-7.198855921104719 -4.016509551587961 29.152541127914656 125 124 124
-7.274743654488747 -4.773176168881935 31.34484954924551 130 131 127
-7.060467195724284 -5.68037425539491 31.665544202639566 127 128 115
-6.923071135487573 -4.364115070846563 31.13596326323231 103 103 103
-6.695589267910952 -5.0356958988761535 30.331063140487224 117 118 114
-6.9002017857851765 -5.816464395109343 32.15721068829887 122 123 110
-6.500125885072473 -4.159168573927392 30.470018616210975 158 161 160
-5.373282935751145 9.397870819670153 23.15762157000177 193 196 199
-5.420696043302188 5.255751726344394 24.960094494537138 38 33 31
-5.646707444412796 -4.4087823766814935 30.967369178663873 140 143 144
-5.021141168705808 6.137136188200612 24.76681919213544 38 38 40
-4.97354708128396 -4.454723210477478 30.50131112857636 140 144 139
-4.72126604922015 2.324363818823049 26.604120903744036 188 194 192
-3.7565495897481176 3.0229428030206216 26.142640442985645 39 39 35
-3.516476739350171 3.6245311487891825 25.801034433367377 196 204 201
-3.3468248591703262 7.215855636342162 23.676158844727038 110 120 123
-3.1525996592374477 -5.638552041683858 31.311533176561404 139 145 143
-2.8224638665492443 0.058638618640583444 27.66691830091455 64 67 70
-2.800591369923964 -0.16518813709522262 27.77797616963974 186 192 194
-2.775470751936154 0.24864354429530588 27.530420475080437 62 70 71
-2.6041646671883085 -4.654265413660092 30.536204752722693 149 157 156
-2.605087009469046 -4.64750205438294 30.521215001469614 149 157 156
-2.5758437044336 -4.654657642590842 31.083451232504753 162 168 168
-2.431480266506723 -4.634532807942313 30.43321531352007 154 162 161
-1.8200342961271998 -4.383471378289072 30.18375710677554 155 163 162
-1.4601249573615613 -2.919761449900751 21.874511234676056 153 159 159
-0.9108711658010632 -5.215557166271155 30.773503485704477 136 142 142
-1.3809824638399666 9.401204398687673 22.56220966659379 188 191 192
-0.5151750808511273 -5.129101681124763 30.49999341230959 133 141 140
-0.24584556083407597 -4.689118952816721 30.72097356583117 142 148 148
-0.14406163178576575 -5.1292864119114565 30.36493069001284 93 101 102
-0.14406163178576575 -5.1292864119114565 30.36493069001284 93 101 102
-0.048863999594496395 -4.777734890158132 30.216946350322438 133 133 133
0.020550980342367364 -5.309959028953754 30.629444654385974 129 135 135
0.011832413691339347 -4.931118976675212 30.39836556783224 97 103 105
0.011832413691339347 -4.931118976675212 30.39836556783224 97 103 105
-0.3660735196684271 1.3182481501434673 26.70664411531018 60 63 64
-0.6994969802108273 9.3842995462664 22.444131859393153 188 191 192
0.25653921035113536 -4.969934676764685 30.39338923672343 132 143 141
0.03480913671284802 2.610472952806659 26.02793308260869 186 197 193
0.13322539608505993 1.151986567930933 26.771374959152382 192 200 197
0.5940668209786591 -4.637858477160444 30.082216481861412 156 162 164
0.003252946223477721 9.380718857195728 22.31997110185 187 190 191
1.1166772135562233 -4.414185398197038 30.000406093938544 93 96 97
1.2594100035522158 -5.2117826753438266 30.414525230565744 104 104 106
1.3109362507466038 -5.703406288568059 30.596488080486044 96 104 105
1.4980854471365086 -5.033094900585263 30.204143580064496 93 93 93
0.3496830446319437 9.26145072686357 22.037846301069926 185 188 189
1.749867377520313 -5.279062586229972 30.259835133529627 109 112 113
1.817774741306629 -4.8651976269221375 30.129121086364353 137 145 144
1.302228993261468 3.7894339177645744 25.262259594838465 182 188 186
1.3024317691004876 3.7898451723607676 25.26267202410928 182 188 186
1.014167354087208 7.211587303387812 23.460890549355568 173 184 184
0.8618865697520816 9.39457903074853 22.222422379685977 184 187 190
1.9330973541977086 0.48006496762853923 26.972405916244536 58 63 70
2.4115815447103746 -4.4670815655877725 29.44291130494494 163 171 170
2.4115815447103746 -4.4670815655877725 29.44291130494494 163 171 170
1.6899857721660596 4.13815223737891 25.04780034562587 32 35 36
2.5352320311441954 -4.928232252353208 28.91247565381785 143 149 147
2.0784493310013836 2.552685143916238 25.74035150620029 36 44 43
1.7672088961664398 9.371100985411209 22.157887372602442 180 183 184
2.3555635134220725 4.763829940343976 24.633455020339696 179 190 188
2.749313966403898 2.345739635715912 25.88051425318025 143 146 145
2.886215706481608 1.3866716512241586 26.34240550058537 48 50 56
2.890032401029012 1.3856927622074764 26.368300071686015 48 50 56
2.6895770893929285 5.0641432002491396 24.46430616963651 31 34 37
4.022327275098328 1.8970909025387916 25.91971162171514 43 46 45
4.322084098036719 1.0623790044430912 26.299367565868437 190 198 197
3.4545422947693476 9.492952472646918 22.082179105754445 180 183 182
5.428357726995237 0.018859912283545794 26.648294247517466 38 45 49
6.169812105450836 -2.4647228726439834 27.814156230847544 197 200 199
6.0362518583940235 -0.14326209519159327 26.627438075284967 192 195 196
5.520525034171565 3.711446460360117 24.701385374202903 150 150 150
5.524209913987954 3.702140717282089 24.703581369910122 150 150 150
6.224020787290916 2.458002256166374 24.99063243428959 30 36 34
6.6844247336933815 2.8093460057444033 25.09122239918167 37 35 44
6.117789238968031 6.527813961025017 23.08438852811565 52 45 39
7.809328851150551 -0.15278798218837086 26.38191939123116 33 39 39
7.678573528555857 1.6229412959122893 25.39199481558343 192 198 196
7.686001765392273 1.6307343797125045 25.412285429958832 192 198 196
7.031770206388118 5.756771888916379 23.411047773096904 159 167 164
-8.52051929797412 -2.9015037642794024 24.947956999960706 104 105 101
-8.6672325894432 -2.2518518371225893 26.038118908598964 101 101 101
-8.612909035720659 -2.5759809271139744 26.273419606948025 110 110 106
-8.403752134061538 -3.0846407658395973 25.859916806654848 115 112 109
-8.55357545877469 -1.6972875943374641 26.246212775658886 79 79 79
-8.65243671687322 -1.8816430217015854 26.945083532007803 97 98 94
-8.084182551584483 -2.29350060273481 24.6708869322829 124 123 123
-8.260883374155881 -3.085679814110019 26.201216988590737 104 99 97
-8.260883374155881 -3.085679814110019 26.201216988590737 104 99 97
-7.930344165656656 -2.9491309287379037 24.392104064398872 93 92 99
-7.930344165656656 -2.9491309287379037 24.392104064398872 93 92 99
-8.218570101623081 -3.298911887863248 26.536301134577307 116 116 118
-8.000428002604107 -1.8231579084649827 24.804395706727934 101 100 102
-7.990176292691049 -3.1224401291367867 26.122592346197216 130 130 132
-7.990176292691049 -3.1224401291367867 26.122592346197216 130 130 132
-8.005337364583298 -2.5772674919380014 26.324672180292865 147 144 139
-7.923643756484162 -3.3345605266613787 26.476475677562217 129 128 128
-7.890130229240198 -1.7606683404142374 25.946357296172096 124 125 119
-7.941700151866718 -2.712227700295681 26.63538179608838 132 132 128
-7.900420036276099 -1.9283924466646938 26.18254772069227 118 118 120
-7.788403557457965 -3.123074360887804 26.020157242147143 124 124 126
-7.862071779697951 -1.439397524564725 25.91853307408267 101 104 103
-7.778389091257585 -3.0128247752947863 26.037308631822235 101 100 102
-7.59505251155625 -2.7557394830922757 24.633210019353584 101 100 102
-7.865725666094219 -2.115562452834251 26.24659199827299 131 132 128
-7.845443149767358 -2.332424211218962 26.261317105178335 130 130 126
-7.62028945452819 -1.6440584108185268 24.614711675841658 105 105 105
-7.453788489357978 -2.9923753611153505 24.628822238270033 140 139 139
-7.687335758185576 -3.0875641854512907 26.525602703426753 137 137 137
-7.464423404036829 -3.3824600630761776 26.591167676438566 143 143 139
-6.790702357485612 -3.764716765551326 26.15977569117578 138 138 138
-6.516815026714906 -3.6905512963897467 27.01476927406961 136 137 133
-4.84548915281208 1.627451908180722 27.033802247723248 148 155 159
-3.74377649020785 3.0368730251780285 26.250366826327166 38 37 37
-3.2231930692906965 0.14888159731945497 27.485937268928563 79 85 87
-2.7707480978912407 0.2325743189192516 27.57729297778819 60 67 71
-3.0904312472170585 7.474487917578261 23.578360961525775 20 20 14
-2.6011272001600463 -3.722556353555771 26.808331055989864 158 161 162
-2.567995108538913 3.838835610691846 25.58664656693538 178 186 183
-2.3298118708667936 0.2186734350431441 27.64099983116696 115 114 118
-2.478313171853887 4.1871752010397625 25.391744888767374 34 33 33
-2.4773621552123233 4.188978817806615 25.408552904619835 34 33 33
-1.782868251851643 4.469788113565601 25.252988306534057 145 151 151
-1.1438765619616722 2.1775024402046355 26.386635554807857 40 45 52
-1.1508364684417849 2.1739888340348252 26.302163045069207 40 45 52
-1.1400369885105806 2.1802898028851208 26.372822232960957 40 45 52
-1.2783239722336557 9.362797300822068 22.418551483460092 179 185 187
-0.3415153457624474 1.7070349389522639 26.556991354411853 45 52 56
-0.2682849318022558 2.3495273801987926 26.220675592602184 41 43 49
-0.008359019713576114 2.995842881627068 25.893559987836863 35 41 41
-0.012540777313341885 2.9912270270664543 25.873915950836462 35 41 41
-0.11023742136486546 4.44019473700556 25.053119338881626 26 32 30
0.5271421415581851 1.1913400646944983 26.84404243842537 53 53 57
0.26628130011342555 4.806859574630664 24.860247484646585 27 26 28
0.14413199900214918 6.294234275002399 24.048575615214403 59 62 61
1.0242458402692534 4.022712813975687 25.175854154417586 164 167 168
1.0187336097929205 7.6962369253114895 23.193894825221733 164 172 169
1.5816445902804432 3.796400687611461 25.21170007622057 170 176 176
0.9466954144213883 9.36702879395396 22.172512581386094 170 178 179
1.9132359597273638 9.354415447530629 22.134566316901534 168 176 177
3.0244082792622855 9.430713006682492 21.98843440653949 169 175 175
3.1818740872933073 9.32002463180515 21.964811393921032 170 173 172
3.88927099127473 6.688686736371635 23.43465530854298 20 23 22
3.655134010947419 9.306254006080419 21.858237631814713 124 124 124
4.6580193846307845 7.782351298365449 22.66286227202521 25 30 35
5.913541345482044 4.034046539969706 24.46927622223957 23 26 29
-13.490279634710845 -5.353314135516621 32.21186533491606 61 47 39
-8.475660655037352 -0.5100403453084954 28.358746676266197 66 70 65
-8.012442543381928 -5.365860926382236 31.649868981425396 119 123 118
-7.135746343422699 -4.09819287066613 30.68055435116461 154 161 155
-6.318155201053887 -4.445277283366501 30.646006801590804 156 162 162
-5.972705053960975 -4.702653441827978 30.70715310746961 152 160 159
-5.435448190920869 0.7502965649920572 27.517038159417396 69 77 78
-4.901336543248763 -5.305398818260766 31.149337926946732 124 127 128
-4.901336543248763 -5.305398818260766 31.149337926946732 124 127 128
-4.589884521085344 -4.502169974366414 30.746542650446397 155 163 160
-4.490340712577276 2.0451135465290022 26.81953761280104 51 54 57
-3.665024382960303 9.337123208855994 22.70589644186946 195 195 197
-3.363232448607819 3.870661854083489 25.631348414434857 38 38 40
-3.4103609802810193 9.283687200106174 22.58028131365341 192 195 196
-2.802180432733411 -4.774755695743846 30.689078640878193 100 100 100
-2.412435697068692 -4.779672929233553 30.563173906542165 101 104 103
-2.6794491260787128 6.893471231734024 23.841325525182786 31 31 35
-2.6829550255878574 6.914146729906025 23.90251245548545 31 31 35
-2.4753099828485574 4.1946997691505175 25.39771111212775 37 40 41
-1.9009660923222758 -5.096194836734943 30.89890280973658 134 142 141
-1.266260749639112 -5.063763638345198 30.665596454561634 135 143 144
-1.1479615732303052 -4.875346744674877 30.481032992347192 96 99 100
-0.5671122308320973 -5.22797241856999 30.69034803268756 139 145 145
-0.9159498292592945 5.620614019391314 24.450672116083535 100 106 108
0.15341575339242264 -5.690355426474124 30.833853724761227 121 127 125
0.43732449394099754 -5.715882612845958 30.714439968077563 124 131 125
0.5245065156258838 -5.338319669068781 30.593909440593695 132 138 138
0.032306251413401176 2.611394098117255 26.024395988863347 189 197 196
1.068496752299045 -6.052481305153522 30.903939795311487 124 126 115
1.1874129420354556 -5.83152686993171 30.9491135287534 115 122 116
1.0456668165299772 -4.868984036461432 29.391674292029517 95 94 96
0.37044584211335224 2.6210886820321067 25.909961294524283 65 68 69
1.3302106401789502 -5.70727373104699 30.265383152010454 119 118 118
0.42803802553496867 7.3448725528033165 23.331841367064904 33 33 35
2.054840499443724 -5.484960327329322 30.52941161793275 124 130 130
0.5345102211717767 7.7107113266099 23.209303553183656 56 55 55
0.6246888323134506 9.262462923460365 22.15290280893451 187 187 189
1.0704588221675915 7.397937385799349 23.36103352819762 49 40 43
0.8216614573134464 9.224616814151549 22.102607492625093 172 175 178
1.7765350998729237 6.154194401788962 23.62893609674424 34 37 36
2.894351991410788 1.3960322253106323 26.34433891218764 44 43 50
3.3033282702681475 2.1974579990562453 25.927518974377502 194 202 199
3.3014047368268007 2.194182358311948 25.901021611401863 194 202 199
2.7453276594497518 5.594002359846453 24.01937040912472 53 52 52
3.0989949957378626 9.33093371130767 21.993022491174482 162 160 167
4.523586259752134 4.7609603475844215 24.510496942804025 38 36 45
6.2170111408769255 2.4469971006979034 25.03050652586373 35 38 39
7.0943929433150075 2.009107190050179 25.373023806955356 44 46 56
7.800460545034223 5.723325464509365 23.28682565209421 183 182 184
7.5456253730848095 7.405850194915853 22.52492646598734 21 24 23
-42.80169433750414 -15.02872436853804 65.71267137341734 96 94 86
-8.411676430502347 -1.456822336924222 28.93219001309462 75 78 77
-7.307803361576447 9.505832937603532 23.63932826721054 197 200 203
-5.487900537839057 -4.602382685470192 30.92801361399762 116 119 120
-5.487900537839057 -4.602382685470192 30.92801361399762 116 119 120
-5.299043666409892 -5.392293827434593 31.389587740850516 121 127 125
-3.6315078986753297 -4.62708857341781 30.72072693260211 131 137 139
-3.564961685452751 -4.66723106534077 30.439162691394444 128 136 135
-3.455889487085875 -4.687813737967461 30.736695174222152 131 137 137
-2.3300091656034367 -4.577312626781033 30.593044421671735 94 97 100
-2.2581048219148516 -5.417624240639545 30.812376097365334 133 142 135
-2.35222773492165 3.626601609209486 25.62005566453436 34 34 36
-0.4384382538243905 -5.1816621552651405 30.404531011930423 134 140 140
-0.5395330133843688 -4.925182790252854 29.42905242284152 106 114 113
-0.5395330133843688 -4.925182790252854 29.42905242284152 106 114 113
-0.2074782608711681 -4.8170660412794275 30.332949681791256 149 152 153
0.9561583205087847 -5.116459280898695 30.293201330257396 137 137 137
1.2724814130448794 -5.126093644091057 30.30906700723371 133 136 135
0.2765756842246036 7.908747123023471 23.119653976451353 99 102 105
1.5082025650697917 0.3959106917911457 27.005922330274455 51 61 68
2.199230387225112 1.1410272729986233 26.647827424347813 41 49 48
2.2715414919085637 1.1555994158209895 26.898157806458592 41 49 48
1.8912556722929734 4.81128685834986 24.574453768248784 23 29 27
2.5277607466596015 0.7415554817557869 26.441139011032014 49 45 50
1.4387919812898762 9.496165292893524 22.113474145463673 183 186 187
1.9173728772577137 9.381972289781528 22.181587911865968 176 179 182
2.963626774089983 9.424070492756776 22.020215882027486 177 180 181
4.51720979954119 2.486280144354003 25.27170756952977 37 36 45
5.0328550311015015 3.5313851614228846 25.07169625457777 28 33 38
6.713664959695232 0.5932627047140304 25.870900619175618 35 41 54
5.892278531963746 6.745105678188279 23.056581827402233 20 26 24
-13.924370065878561 -4.528843783830533 29.191799666344078 35 30 26
-8.492281104466958 -4.106733985049129 30.8521824442777 67 66 66
-8.206843769949407 -3.605617441371746 30.00203909041363 79 79 81
-7.378110611638814 -4.2019869935150815 29.550872139243722 101 101 101
-6.52759138418467 -4.178967640715965 29.552761658195745 130 130 132
-4.233718068708163 -4.796737532844658 30.7536141399904 149 153 148
-3.51915497103746 3.211530431332191 26.007716826999292 195 203 204
-2.9744263843743526 -4.3248427260386 30.504158559269033 168 176 175
-2.4358562703069166 -5.894326368309565 31.17636635729022 126 128 119
-0.7615729716075553 -4.907193745949893 30.595635203747403 106 112 112
-0.3199362821913866 -4.934737138416413 30.73569831475179 106 109 110
0.46651897397568093 -4.538565430966683 30.208824183538436 164 172 171
1.0306860480173645 -4.6493563105303135 30.1511186874002 143 149 147
1.0606285136899687 0.0036715064911309768 27.31511130348726 55 65 70
1.5431747125070618 -6.12012117632453 31.108923319022345 128 133 121
2.1085848140455914 -4.89839600950445 30.170977489563853 166 174 173
1.5794438749537747 3.796175118373905 25.219595197931437 128 134 136
2.595548943033908 -4.945888810839697 30.3326244795643 144 155 153
2.7898673000046763 -4.956142846175761 30.24309474750815 150 158 157
3.5203874919871376 -5.6153935320919945 30.393290257935554 116 119 120
3.67007788275844 -5.212755318905877 30.044616647666388 140 146 146
3.7478893918205674 -4.4063713948587315 29.662566658694605 161 167 169
4.3091956025133795 -5.290994606504068 30.235793797628016 125 133 134
4.247347660643329 -4.720421682137026 29.786832049156068 142 148 148
3.053829085587463 7.359086223900545 23.18148313517082 23 29 27
4.6293036064766175 2.4878144582201203 25.557785053931457 40 35 45
6.9720064053790916 5.238495362544498 23.439347106932345 61 60 60
-62.34074064367472 -12.762791590830279 97.4752472267615 27 27 21
-4.4983878351694395 -4.224222492721785 30.495483786022724 160 160 160
-3.7885555391341663 3.0254457498660954 26.236698206498488 44 44 46
-1.5885726837204732 1.1996489318627848 27.066959025460623 55 58 59
-0.38098072340877154 -4.425043270775431 29.78631171756366 162 170 169
-0.1206920472209255 -5.054446616142541 30.6224598800833 150 158 157
-0.1206920472209255 -5.054446616142541 30.6224598800833 150 158 157
0.2691489150666923 -5.194665820341054 30.59723635666859 93 96 97
0.2766602962733827 4.831577844561654 24.953484250252746 121 123 129
1.4231382037296414 -5.297256337254782 30.66135535776303 112 115 116
2.252700874459693 -5.139452424322372 30.163098220675227 151 162 162
2.60530646544716 -4.646117904249299 29.48392644616551 160 168 167
3.578216636769066 -4.472476244602468 29.672450791976278 141 144 147
3.299595307312676 3.6528616932147266 25.148373159572845 27 35 32
4.029544005317494 -5.219707877153677 29.915291494827866 145 156 156
3.7808312489449496 2.1425427411907028 25.822805652405314 41 48 54
5.042546737314272 -5.741128827461029 30.167403800162564 134 142 141
5.174596301322903 -5.203536533308835 29.5186579247493 142 150 149
5.162827643559214 -4.514765406775495 29.40665249368709 132 137 142
4.626898835887466 2.492809682351201 25.57557315166392 57 56 63
5.6314750526393595 -4.822014794406047 29.67876825075213 122 128 130
5.646559531394166 -4.983455619131563 29.745407508760763 145 153 154
5.646559531394166 -4.983455619131563 29.745407508760763 145 153 154
5.589802294750397 -4.417912367934595 29.26617465552567 156 164 163
6.027706823418392 -4.534370258608966 29.221349607506227 129 132 133
6.849600464781724 -4.71015655495819 29.46265725032943 90 96 96
6.8581001840654565 -4.629434795427902 28.953058209292788 114 120 120
7.416068802335799 -5.4032324317815865 30.060957519820608 88 91 94
6.763528642789543 0.6304975196757442 26.073533586914124 60 58 65
-4.026606018672357 0.8328664961185157 27.41597729513737 47 55 56
-2.844845023065422 1.974009616174429 26.816534978846256 37 48 48
-2.0617522940362503 2.580214068801403 26.07236867031846 45 53 54
-1.1866904755481598 2.015542624157155 26.506365311795754 58 58 62
-0.02591926271848738 -5.059628651773708 30.315161872336876 99 102 103
1.2764477136186694 -5.048741306220851 29.982836582320882 152 160 159
1.9001214132084876 -5.457079970803177 30.681070856359604 133 141 142
2.089425359659858 -5.308153392898675 30.42639716007363 113 119 117
3.535900620382833 -4.581579197326727 29.786041525061012 174 182 183
3.535900620382833 -4.581579197326727 29.786041525061012 174 182 183
4.364507906478878 -5.685461869987711 30.344756695967963 128 136 135
4.881021524607224 -5.723553087552228 30.302974770617954 101 107 107
5.45533932619518 -5.272174719441265 29.94712771924021 133 139 141
5.45533932619518 -5.272174719441265 29.94712771924021 133 139 141
5.650925277387409 -5.183017677237999 30.106972671161586 115 115 115
5.650925277387409 -5.183017677237999 30.106972671161586 115 115 115
5.705010195739363 -6.0931294976736945 29.828220936485796 128 130 121
5.8262467147736094 -4.7643082349823125 29.316126749311188 138 141 140
6.169436094816195 -5.1063049018498265 29.658357159740472 134 137 136
6.615847682099989 -4.885390797310107 29.662435157880854 121 123 129
6.714561825661376 -5.024920936973171 29.680653005920604 107 109 115
6.714561825661376 -5.024920936973171 29.680653005920604 107 109 115
-4.795865990416224 5.262147515822944 24.96872168237129 74 54 55
-3.2935107531204237 7.693350882446015 23.939835025152753 41 38 35
-3.2935107531204237 7.693350882446015 23.939835025152753 41 38 35
-3.157175981106463 5.6097246457119105 24.842275374843595 28 31 32
-3.1623018885213443 0.4354779196748734 27.81330259747007 58 63 72
-2.268462242364521 4.855718385316844 25.299357959709663 31 34 35
0.08450184170090336 0.7762935142408428 27.386076729828766 55 66 66
0.48235505880055896 1.1485439091570728 26.9533356567527 192 202 205
2.5002104101806957 2.9281787040633716 25.448560533719558 151 156 161
5.287286497023287 -4.440437023344968 28.926191118494145 132 140 141
7.020765061212887 5.244786281148701 23.50750474198885 26 25 27
-3.07975344499837 13.614684038680121 20.553201352038222 32 29 26
-2.764110196273173 13.397634094515496 20.870350321787758 27 27 23
-2.7892002406699774 13.467568125797706 20.963349609947564 27 27 23
-2.5186333521134094 13.622078877638918 21.20051786978673 26 25 25
-1.959677185680615 1.2347889960993759 26.951454233300048 51 54 55
-1.3814838537020433 13.263302411201025 21.134719479208723 25 26 22
-1.2237380676614704 13.35344012750474 21.297968425176737 30 30 30
-0.9348731909919759 13.380455683355164 20.82446825573855 33 30 27
-0.9348731909919759 13.380455683355164 20.82446825573855 33 30 27
-0.8088829891520195 9.264589819013386 22.279021599284206 192 195 196
-0.43929522192189685 13.55744259943588 20.492636261913745 60 62 53
0.13808823220963656 0.7869416266139219 27.005202312956527 52 60 59
0.21181009487301483 13.271573994970883 20.67493183006837 23 23 19
0.2559366879336123 13.10781713460677 20.398477947389765 23 23 19
0.2877635642745348 13.347235222580048 20.160366893581976 33 33 29
0.4006382160515236 2.5982420404938122 26.29997101718009 197 208 206
0.32130991485747906 13.757047373058302 21.50668054459792 28 28 22
0.8811822084298626 13.296712762208971 20.11155200393529 32 31 31
1.0163911560167882 13.5429171527202 20.41717783068069 32 31 31
1.3249355077794664 3.422091107438173 25.71196452798107 188 194 192
1.4037244883978288 13.042589269451513 20.359672485073162 27 27 23
1.4129727580045321 13.397329868260583 20.242569525942393 27 27 27
1.5900558658877282 13.232313217922725 20.667580644773977 25 26 22
1.7780565898257368 9.332085082900843 22.18879422445475 183 186 189
1.8549070705245128 6.632244927340638 23.806015190833428 148 149 138
1.8549070705245128 6.632244927340638 23.806015190833428 148 149 138
2.297134143578414 9.329905896470382 22.17752090803286 155 155 157
2.3727077690404723 13.34278481867744 20.187410887600553 29 29 29
2.3727077690404723 13.34278481867744 20.187410887600553 29 29 29
2.7317302118706808 13.144016782229114 20.237591608536608 60 64 59
3.1280363639236843 13.140867986231868 19.88933267195021 28 27 27
3.5908911403345076 1.6503018372020875 26.08923124934401 146 157 157
3.5908911403345076 1.6503018372020875 26.08923124934401 146 157 157
4.490752799094686 4.724290975829911 24.371588486610783 161 167 167
5.165123696464818 8.795533033919135 21.987582735789555 183 189 189
5.977072756298024 0.27638973212523554 26.462253572537932 80 80 80
6.444085531332946 0.9703803576795239 26.013365833096824 62 65 64
-3.9250881489480927 0.9351881588562629 27.298560154544262 52 60 61
-3.116789240816839 5.5778105130964715 24.71818973293405 29 32 33
-2.9338042650689613 13.34021549289875 20.79286117989123 56 56 52
-2.923714319622049 13.344979389067772 20.767665061226747 56 56 52
-1.1974521871360928 13.472534811082001 21.00066456454502 40 37 34
-0.0558667544349085 13.703413858444744 20.66067817359854 32 28 29
0.5600631674074698 1.146143126025832 26.453313334561667 185 188 189
0.5600631674074698 1.146143126025832 26.453313334561667 185 188 189
1.8095208479922869 0.14945701392788321 27.11956366202862 93 89 92
6.3029455581076315 2.471076388248881 24.96711256981474 41 52 52
-5.222162213773428 5.920264476076875 24.686969390868917 29 32 31
-2.8149974385536676 1.9682348838087969 26.63194858660923 26 32 30
4.3406960410813 0.7190451036788689 26.563967957372082 44 57 56
5.004487147952726 -0.5430690537276681 27.046120865700264 192 200 199
5.008468915164744 -0.5299610847313372 27.019710021722013 192 200 199
-4.738890315406688 8.892997142811836 21.768053209729008 177 173 174
-3.7243588885078966 9.250076861053836 22.316125846143663 181 184 185
-3.938262780314854 0.8991200045401528 27.283979042486017 34 40 38
-3.4410272155765846 9.07166919068594 22.2001575075632 110 110 110
-2.3750989121804382 9.292540555195885 22.263751540448123 177 180 181
-0.23600342799314028 9.324368482142175 22.196480043772194 165 171 173
1.127837682413828 9.393302909020433 22.210968343907382 155 163 164
1.8069506921022833 9.399773732458105 22.115319841837692 158 164 166
1.9076292764571268 9.497397906451033 22.17138267793434 164 167 170
2.6932481166356204 5.069700106432318 24.48157576136938 15 18 17
3.4235821200015604 9.449791066223058 22.023581773725866 149 155 157
4.036635176076277 4.291659024672813 24.441310620010782 13 19 17
3.6071349219321363 9.306896632311073 21.97045337338378 111 111 113
3.6919497206146668 9.2915783101823 21.88964686975158 160 166 168
4.468295268661074 6.192730915408255 23.629744845283806 15 18 19
-5.8924978633548335 8.648196552093928 21.573801051250907 188 188 190
-5.6809397059999505 6.045819356175194 24.95617940179306 48 54 56
-5.481651554260996 9.41161284831789 23.32797534597712 192 192 194
-5.161421292254695 8.82998766178222 21.932299432331334 134 131 128
-5.1812598368097 9.120968456351141 22.509594707340614 181 181 181
-4.910341618623985 9.049161016632505 22.115092691854574 187 190 189
-4.864344939925621 8.921126792903303 22.181784102240627 155 161 161
-3.720849101869408 -0.2326303093787225 27.45659613286059 70 81 79
-3.7082962292519794 9.1138058401056 22.432126839797956 185 188 189
-3.5225610393932336 9.153699836124714 22.397314426354985 147 146 148
-3.221132777216743 9.354254201257586 22.610588066599988 179 185 185
-2.897324131070588 7.638651526896033 23.8994084607236 118 108 94
-1.2976639462809267 9.341691695565983 22.546153751682116 128 134 132
-0.9408706379516942 9.240338916041399 22.342645813587563 172 178 178
-0.9404627929283849 9.239720680998262 22.342841366064953 172 178 178
-0.6553317601721806 9.300443244957078 22.309560344131913 171 179 180
-0.38775925932706184 9.347628564348497 22.35256557022077 170 176 176
0.41621082236115187 9.402162801488762 22.29462483197455 162 165 166
0.7020341165300928 9.381077923053091 22.279338011027974 167 170 171
0.9438885514452913 9.259551106932 22.06787988516078 131 131 127
1.0399055779928654 9.389510922686862 22.21057014126381 171 174 175
1.3705330663136954 9.375094074369683 21.99504818085396 166 169 168
1.9580324366603412 9.40511246693157 22.12273864374953 143 146 145
2.612253198684063 5.945483476821472 23.89706401730306 21 24 23
4.237992516140111 0.6271267638860485 26.402595988122982 29 37 36
4.237992516140111 0.6271267638860485 26.402595988122982 29 37 36
3.2423480415717334 9.436273574361207 21.846553015052827 166 169 168
3.2423480415717334 9.436273574361207 21.846553015052827 166 169 168
4.416877806803429 2.4282165906191873 24.927572946373107 26 31 36
4.452449247173714 4.714412474526213 24.271653652305936 24 23 30
-8.392250346443122 -2.18543042574696 28.64495166186006 74 75 71
-8.253498528042567 -1.4785926282192485 28.411424222803998 79 83 78
-8.205202448686643 -1.5974645017787237 28.331529520750788 77 81 76
-8.540927079912532 -2.110701558554476 30.114644054801943 78 81 80
-8.266393401960809 -2.2704066748080396 29.174893363610664 70 69 71
-7.153356880290186 9.198350019606371 22.661408781211964 195 195 195
-8.43463979260371 -4.084324762814104 31.43926982181782 90 91 85
-6.621289252981009 8.98056401112895 22.334089160298724 168 167 167
-6.713998275187951 9.16091439388479 22.775493865394036 168 167 167
-5.980240671998549 9.003129105134196 22.35501190918399 195 195 197
-5.620710621364945 -4.411326892459888 30.46163000801676 119 119 119
-4.9761660328678525 9.304594794124107 22.77137125267433 186 189 190
-4.875406355726212 9.140930996284458 22.354231612501426 186 189 190
-3.091821199274358 7.447288628875258 23.492821011245482 121 113 110
-2.270938486161888 4.823767552041719 24.803681723145864 22 29 23
-1.89573104181653 9.400311156205898 22.69815957926009 186 189 192
-1.589189083140848 9.361034787790945 22.380962326854615 179 182 183
0.6310367674777142 9.423491255807328 22.183786854951638 172 175 176
