ply
format ascii 1.0
element vertex 675
property float x
property float y
property float z
property uchar red
property uchar green
property uchar blue
end_header
1.0834092008543592 0.0761923041554526 -0.39974088625105286 114 114 114
0.8389577739083364 0.04974646657900173 -0.3876540210985629 207 206 208
0.9948782454816762 0.06635396095030992 -0.3899162979173368 191 197 195
1.0003281057369602 0.06532027113932175 -0.38832392228680995 193 199 197
0.9893490445394914 0.0628283199212083 -0.3902803478011613 58 63 68
1.0808437004661748 0.06939618973956323 -0.39788853415863684 132 139 143
1.0844723481140304 0.0720591928595433 -0.3943586072687057 100 100 100
1.0943490972509078 0.0731580023648003 -0.40735233078151256 100 100 100
0.94759693543574 0.057142815893556506 -0.390081838787676 191 197 197
1.1008985738086594 0.07240975433705547 -0.4118841171406906 154 162 161
1.095792534290786 0.06498784967624523 -0.39802616103905475 105 104 104
0.9451548629160131 0.05107319769179431 -0.39094234305275277 39 42 43
0.9144697791655739 0.04875454125908966 -0.39307469771399484 36 39 42
0.9144697791655739 0.04875454125908966 -0.39307469771399484 36 39 42
0.8970302604289595 0.046354646744042445 -0.3920960170153439 31 34 37
0.9779021374929094 0.052395752196197076 -0.3893813903824952 190 196 196
0.9852636872337501 0.05295557067136435 -0.3922409631096763 56 64 65
0.9031781034649331 0.04500429317346573 -0.3928355188678217 190 196 196
0.9026198152698444 0.043962464146801015 -0.389754470896532 190 196 196
1.0852032252598853 0.060228020707242494 -0.39998124307881794 167 173 173
0.9581563569257308 0.04890782166237272 -0.3922337500017995 43 49 51
0.9726107402666477 0.04779493706965665 -0.3917992275682783 47 53 55
0.8989163923738301 0.040913563432067146 -0.3927473442891979 189 195 195
0.9651832410151339 0.04586195449093821 -0.39252093164141505 189 197 196
0.9028381430867161 0.040920585357174244 -0.3932638425359555 47 46 50
1.0954313917282879 0.05402368720499298 -0.3966933551574924 105 106 102
1.1024490865388012 0.054522913435529716 -0.4063278988649451 105 106 102
1.095738136127034 0.05192064341642655 -0.40507581588813385 154 160 158
0.903486960136455 0.03709415389411324 -0.3927468705250398 189 197 196
0.9711176321384098 0.04179026292814028 -0.39191606329129813 190 196 196
0.9007397031121005 0.03668852935853232 -0.3930326603613126 194 197 198
0.9612671935536676 0.0379458194348965 -0.3922698349839739 187 198 196
0.9612408256228369 0.037934905551672386 -0.39206681546566113 187 198 196
0.9759617773799164 0.037988115916633286 -0.3919648443507641 48 54 56
1.101018158430852 0.04665132576438599 -0.40392202481882755 98 106 107
1.0830078590507008 0.0456665800620536 -0.38244791338720296 98 106 107
1.0946663485174912 0.04596930000403375 -0.3974714537923654 146 157 155
1.0795283551242674 0.04493853564516982 -0.37995484539624635 141 149 146
0.9677809853869829 0.037194489161359395 -0.39083025680324773 43 49 47
0.910723877818937 0.03417986226137439 -0.39586877237089646 188 196 197
0.8402058722550028 0.027048911681787437 -0.3898011875117083 193 196 199
0.9616892174462739 0.03374676428935707 -0.39093284997704186 53 49 52
0.9615951411555848 0.0350212303157633 -0.3926021367662074 53 49 52
1.077627864150389 0.041998113648282875 -0.38290078957835605 155 163 162
0.9035365370838376 0.030377006892998087 -0.39387643580278275 34 34 38
0.8960405549169979 0.029510838078578256 -0.39277077471676114 38 38 40
0.8961184051787514 0.02968716313958203 -0.3934728950360223 38 38 40
0.9651430552585067 0.03421737963463043 -0.3927348987881453 189 197 196
1.0933287038199777 0.042277781897050545 -0.39806558200083875 100 103 102
1.0997135541325687 0.041955796541674126 -0.4067888153530268 100 103 102
1.1059562046294078 0.04255669931206265 -0.41090737081761913 150 159 152
1.1059562046294078 0.04255669931206265 -0.41090737081761913 150 159 152
0.9685892598843286 0.03427326523902335 -0.392084934999724 53 53 47
0.9685892598843286 0.03427326523902335 -0.392084934999724 53 53 47
1.102845119216844 0.04174206077211834 -0.4060224920306386 94 100 102
0.9132367071460465 0.030747002149833058 -0.3941097075733423 36 39 40
1.1122229286549197 0.0408782133885666 -0.40798197487603755 96 99 102
0.95898761692156 0.03200595182420624 -0.39272107240135784 39 45 45
1.0979132228724713 0.03961759291899547 -0.40719709834119366 154 162 159
1.0979132228724713 0.03961759291899547 -0.40719709834119366 154 162 159
1.0869802706967704 0.039383477957577566 -0.4038676785110087 109 112 111
0.9684109670412242 0.031005407426569695 -0.3919014241940408 42 49 43
1.0968576378909487 0.03850454141282817 -0.3995120180985912 146 154 151
1.1074031186032502 0.03892164497270413 -0.4098164132228801 120 123 126
1.1085235154065693 0.03843318652856658 -0.40195561764039023 89 92 93
0.9174284544227437 0.027254012485381743 -0.3949706916173136 189 197 198
1.0942623140753676 0.034400845842938066 -0.4009593296668803 119 122 125
1.079600236262612 0.035411947124708826 -0.39516588009247483 98 106 105
1.0833168127584651 0.033743440111218846 -0.40124106225632306 112 115 118
0.9129630577391092 0.018918908173977518 -0.37177601335077576 29 35 35
1.0912181623710162 0.03566375763970203 -0.40043312327915 96 97 93
1.0912181623710162 0.03566375763970203 -0.40043312327915 96 97 93
1.1061739696220707 0.035856581671770284 -0.4107741930893896 145 151 151
0.9558802481128554 0.027643023870734293 -0.39543265907158515 188 199 197
0.9536655175377792 0.02773440548371333 -0.3934155567521804 188 199 197
1.111256446657786 0.03523174320585897 -0.41395799709000486 102 105 106
1.1109373922752512 0.03551210284084974 -0.4134303231611246 102 105 106
1.0473020139999987 0.01625775753286555 -0.3468908111465076 152 160 159
1.0870314351431667 0.033354183039350026 -0.39961209756220206 155 161 159
1.1089987962978127 0.03113514690337005 -0.40345647086362724 100 100 102
1.9649128699190817 0.20138263203343618 -1.3081948979844253 105 100 98
0.8873155933128349 0.016184730043744988 -0.3714873356385281 31 34 37
1.091009746022342 0.030405053047915336 -0.4001136347356418 102 102 104
1.091009746022342 0.030405053047915336 -0.4001136347356418 102 102 104
1.1037309105345758 0.029480131908564595 -0.40997665051866394 108 111 110
1.0803436494472174 0.029203621793981283 -0.38213231152682053 106 113 107
1.0787858638358276 0.028387642588778347 -0.3936386670989811 116 116 120
1.087518727858271 0.028183752847073577 -0.40540425197854374 108 111 112
1.1124492575656184 0.029271238940415542 -0.4070584494435247 91 91 93
0.9496549616370685 0.022431022943353123 -0.39525465838359314 190 198 197
0.9493742261254822 0.022165895091628345 -0.39406393236312565 190 198 197
0.8647858675007319 0.016512434039543215 -0.39314461067694845 45 45 49
1.1007385811975758 0.025056264053284417 -0.40277010943747343 103 103 105
1.0851190757924314 0.026678392676567228 -0.38282213984009095 96 100 95
1.047712040996682 0.013132908986092609 -0.35741789356830655 103 102 104
1.1290290486574748 0.02878379046207721 -0.4189608543417737 104 100 101
0.8396555424236453 0.011105849466690604 -0.38632252714550386 129 128 137
0.945767488748436 0.01843751888406565 -0.39481701696712435 45 45 47
0.8807170729092475 0.013986075345702795 -0.3933732319074296 25 28 29
0.8679930222847854 0.012786085750819895 -0.3921349984621491 186 192 194
1.0799704332753906 0.022095460344462484 -0.39450450165468826 106 109 110
1.0702851827123134 0.022058661109379086 -0.382746993397328 106 109 110
1.103322013980913 0.025001313797316748 -0.41982376809058636 164 172 169
1.0985665369362494 0.020962619462212485 -0.4062844840719989 153 161 158
1.0831916501466956 0.020869232014703174 -0.39557073427032763 174 182 181
1.0067280558521494 0.01689373160284204 -0.3933787474488601 70 80 85
1.1031417875789225 0.02030255906881111 -0.3993873064813136 142 150 149
1.0876372037767374 0.019049192338518883 -0.39587177296491577 107 110 111
0.9920729561695821 0.015236154971319076 -0.39097083907965946 191 197 195
0.9918658553353499 0.015122393051948669 -0.3907047615060546 191 197 195
1.1163172590983235 0.020256422767720123 -0.4035019394424442 74 74 70
0.8754894454740924 0.011175991874241294 -0.39551682636916924 184 192 193
0.999002220579764 0.01542995537282807 -0.39349728893353364 190 198 195
1.1074483244304911 0.018438713694122665 -0.40877696407299 112 112 112
0.8716662158915716 0.008801826559542604 -0.39138630995441026 46 45 49
0.939943138397537 0.012250016034797015 -0.39542175981304956 190 196 196
0.9384160726186412 0.012243663103274896 -0.39612124174364916 190 196 196
0.8797295353725328 0.008907962391733333 -0.39435786885774765 43 43 47
1.1074022065900058 0.016278091017449908 -0.4110212467291857 132 140 137
0.9319348743905965 0.011098267798943651 -0.39608910350896914 45 40 38
0.9288303959224389 0.010805163263651534 -0.3960725786430808 37 40 43
1.1014403671527389 0.015266538353932302 -0.40675915867345036 94 97 98
0.8521569747961575 0.008949787653777972 -0.39840689493775533 191 194 195
0.9307667780964985 0.007416697950782372 -0.3842782648223595 186 197 195
0.9919648482425703 0.01133793006588356 -0.3955966506368284 55 63 62
1.1140609392989318 0.015606895182681787 -0.4005837176643478 98 98 92
0.9954026999207218 0.010937772379374176 -0.39179092805605215 70 75 82
0.8688178210105639 0.006072601771362399 -0.3929040190317247 186 192 194
0.9673839675368021 0.008702142671934402 -0.3945754549136506 33 39 37
0.8804462746350186 0.005526595888965805 -0.3942891576949597 185 191 191
1.0640970720190979 0.0086721819564284 -0.37078752583447655 172 175 176
1.1056373594536346 0.014539382129108946 -0.4207331654348338 110 113 114
0.931008668924224 0.0064249754324157 -0.3939993983468099 183 194 194
0.929832056471199 0.0067533825640639245 -0.39361964001148564 183 194 194
1.084944250560341 0.011218289189211311 -0.4006526923071532 106 109 112
1.1010775381619555 0.009788275608952601 -0.41377259100719854 115 118 117
1.1038534034619842 0.010363974400474398 -0.41589061519468246 104 110 112
0.8693810062303803 0.0023193978886416125 -0.3945615755230791 43 28 29
0.8692089139264704 0.0022148556418630566 -0.394159733191889 43 28 29
0.8764729306894085 0.0025119472436155393 -0.3952847666507666 46 45 54
0.8764170922762046 0.0024994559865891743 -0.3950857267516643 46 45 54
0.939125007417963 0.003493925066016649 -0.39504217812991305 48 42 44
1.106422211381271 0.006311729498611927 -0.4062565169584579 100 103 106
0.934521837533151 0.0025057661157279194 -0.39373608274526695 182 193 191
0.9422349304520229 0.002927014538354682 -0.3948135465619006 183 194 192
0.9431703560010706 0.002749007014683277 -0.3955807781737105 183 194 192
0.8661294654126008 -0.00018741554328845821 -0.3930044222965644 34 40 40
0.8677274535408829 0.0009672743337967521 -0.39883586901112517 34 40 40
0.8403145589578919 -0.0016351059648203933 -0.3917589268031096 194 197 200
1.0923234854441803 0.003852249149440323 -0.39743596019844835 158 164 164
0.9908452106430476 0.0012051344786772435 -0.3924975700438655 55 66 66
0.9923870107341336 0.0012197635385344024 -0.3941874013128696 55 66 66
0.9453074094333355 -0.0006187581190476945 -0.39345033314947736 44 44 40
0.8872487532205384 -0.004392704933259764 -0.3953481490255787 184 190 188
1.0925824556795465 -0.0033270710500491333 -0.39957854932694975 160 168 167
1.092786311589668 -0.003264893063816361 -0.40289951125943624 113 113 109
0.9500898269144417 -0.003814301526894515 -0.3954522363738584 189 197 194
1.076648156980331 -0.0045827699958984934 -0.3711870156399798 105 111 113
0.8410167476159878 -0.006206546698773011 -0.3932663363106718 129 129 131
0.9913019928557125 -0.00355231223922272 -0.4109457608397915 52 60 61
0.8398184758968323 -0.007539219030864134 -0.39242560002482507 192 195 198
0.8393020528731142 -0.00722640200577826 -0.3914630557854459 192 195 198
1.0735294496260694 -0.00654094039465667 -0.3838450312676834 160 168 167
1.0666933570897335 -0.006861454516434122 -0.36874873625673876 152 163 161
1.0926951078752558 -0.006514996624646093 -0.4025479865510659 103 105 111
1.0926951078752558 -0.006514996624646093 -0.4025479865510659 103 105 111
1.1064964320667123 -0.006173139738572187 -0.4125515925904406 101 107 107
1.0805591927437606 -0.005170234306577053 -0.3816852745430539 101 107 107
1.1082118247332144 -0.007576729933333104 -0.4165462352749953 138 141 140
0.9795966123574512 -0.009011759764240155 -0.39329555704010666 191 197 195
0.955704049100582 -0.009187223418592929 -0.39436210269884026 190 198 195
0.9546413164038454 -0.009345208494636378 -0.3923241361953838 190 198 195
0.918085231538678 -0.00945128936148163 -0.395754644541871 185 191 191
1.086842688860691 -0.011378371567493406 -0.4000284568806929 157 165 166
0.8410496827105352 -0.012206577742754627 -0.3949249873766799 147 146 150
1.1085311142794574 -0.008981351878131594 -0.41734433688354144 152 163 163
1.1027142199884885 -0.010321413796791117 -0.4106440415385259 152 163 163
1.107208529215933 -0.009133057281940167 -0.4191037852068564 109 112 111
1.107208529215933 -0.009133057281940167 -0.4191037852068564 109 112 111
1.0906725570833327 -0.01234300356837173 -0.3994638614140957 106 109 108
1.1192243690729056 -0.0093319434784083 -0.41840972776491653 105 105 105
1.1192243690729056 -0.0093319434784083 -0.41840972776491653 105 105 105
0.8406673065686106 -0.014433862543891025 -0.3912442049107542 183 189 191
0.9590135208432334 -0.013262713124942324 -0.3938482770423028 42 48 50
0.9591625524365557 -0.013102404506584743 -0.39400415843093606 42 48 50
0.97721456399628 -0.014345477262116027 -0.3953315375360974 41 49 48
0.97613773786838 -0.014029017911775847 -0.39526247317568586 41 49 48
1.0717875717085004 -0.01551688375217113 -0.3717425400586752 118 118 120
0.9131458152224108 -0.015495993192847071 -0.3942528844005355 29 35 35
0.8980164984118901 -0.015707716150575587 -0.3936610744679354 30 33 34
0.8395629367332901 -0.016710647074515465 -0.3908778092308189 196 195 202
0.9627863461864585 -0.016296691251446005 -0.3960198820605305 184 197 196
0.9698125245152195 -0.016156244086363694 -0.3929152157884894 188 196 193
1.093885846121437 -0.01809529162926358 -0.40101766556831986 146 154 155
1.10964588410947 -0.015190724679426944 -0.41865311947390993 154 160 158
1.1003824956198625 -0.01567496157828709 -0.41866816415198777 117 120 119
1.1010484681798274 -0.017120775331801525 -0.41144916343455645 116 117 113
0.9074243014830469 -0.017806567559919665 -0.39522050152813865 183 189 191
0.964437663683762 -0.01850578598583872 -0.39362973022667574 192 198 196
0.9700996515668576 -0.020086856715896887 -0.39362684563483785 48 44 49
0.9700938360279959 -0.02009428634774551 -0.39430335554735263 48 44 49
1.0960460462887436 -0.02040205010401818 -0.41560883868317927 171 176 181
0.9735406825090541 -0.020331345379571573 -0.3927026517791051 188 196 195
0.973578106276722 -0.020359588482183243 -0.3926314085243987 188 196 195
0.8985321361216634 -0.02136366114484743 -0.3919103057160099 176 187 187
0.9617532432941721 -0.021486844116696772 -0.39139759076497743 188 196 193
0.9651962288020147 -0.021171457054953477 -0.39034774209919854 189 197 196
0.9663570304652336 -0.021257687578038663 -0.3924212481921286 189 197 196
0.9042493004553841 -0.021437904476525254 -0.3948992466255439 50 44 50
0.9044899246240957 -0.021293388894627615 -0.3954794412982056 50 44 50
0.9042493004553841 -0.021437904476525254 -0.3948992466255439 50 44 50
0.9043362915161629 -0.02135259281370353 -0.3951052885440044 50 44 50
0.9674865862513836 -0.023122446543508066 -0.39082612517786586 42 48 48
0.9594711533447332 -0.023838240774736008 -0.395667662585579 39 47 48
0.968720911957603 -0.025433443810930084 -0.39037560858400705 55 58 61
1.0760134321463926 -0.02608980243101506 -0.39268144025236024 121 124 123
1.086503234546542 -0.029311150976826374 -0.4002313957617871 153 161 162
0.9064390488571978 -0.026596736064436594 -0.38894557114531575 186 199 196
0.9065655884399916 -0.026534021064932852 -0.38928655216966085 186 199 196
1.0977063305374555 -0.027661423291355017 -0.41785327607907685 166 169 168
1.085816387802258 -0.0307513500694574 -0.4015601026238285 83 83 85
0.9013895957289006 -0.027135508134035424 -0.3921665319286967 183 189 189
0.8417648647980858 -0.026491675294760073 -0.3929503943105328 143 142 144
0.8423577997079765 -0.027520404827258167 -0.3909162674124226 143 142 144
0.9676806897456194 -0.02831153689032813 -0.3911061759725032 189 195 193
0.9726131467186752 -0.02684886674600569 -0.40022123747020605 189 195 193
0.9640405699806047 -0.02836938182662223 -0.39137978772853416 47 47 49
0.9640405699806047 -0.02836938182662223 -0.39137978772853416 47 47 49
0.9057574754837499 -0.028566161398820764 -0.39120068947110825 38 37 41
0.909735752214935 -0.030156262270419266 -0.39015071423765496 26 32 30
1.097670364030076 -0.032561836444201464 -0.41741584741084825 158 164 164
0.977138888729181 -0.031721252511354305 -0.39270465646071717 50 58 59
0.965883708263884 -0.03132456386516962 -0.39350671939755927 39 49 52
0.8412535384480612 -0.03129626361037207 -0.39399145947263114 108 108 110
0.8412535384480612 -0.03129626361037207 -0.39399145947263114 108 108 110
0.8405780493251187 -0.03190888260050133 -0.3937832038177572 118 124 126
0.9773179789274191 -0.03330160758768708 -0.388268289638839 187 198 194
0.9787207669012509 -0.03500228023613132 -0.3912198097876739 187 198 194
0.8412843923835441 -0.033420733753240915 -0.39165452322874794 180 183 184
0.8407006870751473 -0.03315007352196383 -0.38987760809696015 180 183 184
1.1017347028995166 -0.037801707293190705 -0.41599877782477773 148 156 155
0.8408460862537447 -0.035403545511945626 -0.3909889103764922 196 196 198
0.8408124937758729 -0.037221795283200756 -0.3886680463375992 112 111 115
0.9885727945307244 -0.043536944874519076 -0.39249473801458873 50 58 59
0.989125840228873 -0.043873286812487235 -0.3921250518800725 50 58 59
1.0980866803378908 -0.04817653765409732 -0.414553922954035 93 94 90
0.8896786048867787 -0.04415921260430096 -0.39871041203735846 181 184 185
0.8863787352424897 -0.0418068235749913 -0.3914007274789249 181 184 185
1.0759859994173415 -0.04834649689690078 -0.3926680366769089 100 100 102
0.9925270460585623 -0.04718004069064481 -0.3923449008393533 185 196 194
1.101112572503147 -0.05277212239315442 -0.4151381667171647 133 139 137
1.0798372842629116 -0.05292698195351514 -0.3945148134219354 132 140 137
0.8810835126810554 -0.046928452061189514 -0.3916734659107954 27 30 31
0.936565112351575 -0.04865581548896149 -0.3957740848260073 43 46 45
0.936565112351575 -0.04865581548896149 -0.3957740848260073 43 46 45
0.9935523546335945 -0.05106934020697815 -0.39201642209225745 187 195 194
0.9944013590198543 -0.051300697424032586 -0.3930041329832779 187 195 194
0.9956865668787289 -0.05007480179991644 -0.38982600332738804 63 71 72
0.8663885135367231 -0.04685889838444514 -0.39413796225773273 29 32 33
0.9413018740490572 -0.050001109012965915 -0.3956643340472114 178 184 182
0.9412496343818728 -0.05006812586766162 -0.3952499260579518 178 184 182
1.105287023217033 -0.057697948432429126 -0.41638762052661626 74 74 76
1.0085401730784957 -0.05352987428049162 -0.3987017098412819 188 199 197
1.0057227188898699 -0.054229187503796315 -0.3918380396810703 188 199 197
1.0993158196939146 -0.05951806017138063 -0.41186960774594406 120 124 119
0.9314075973994186 -0.05245386082445125 -0.39318602921169715 176 182 180
0.9424914762542758 -0.05254210056518064 -0.3922332803586962 176 182 182
0.9969530726086085 -0.054610316332175585 -0.3928243302458835 189 197 194
0.9348268360388846 -0.05270862117484239 -0.38924527234352296 174 182 179
0.9893831614861076 -0.0531084141855141 -0.3864273344660062 63 66 69
0.9892217315952055 -0.05317580858446582 -0.3859540295248343 63 66 69
0.9893831614861076 -0.0531084141855141 -0.3864273344660062 63 66 69
0.9979388396028067 -0.054060192297547646 -0.40581473531960643 51 56 61
1.044213583883335 -0.06047807014433456 -0.39531892006015223 197 200 199
1.0026814806274549 -0.05664040651784629 -0.3919991036837709 192 198 198
1.0817968525689263 -0.060470822616229165 -0.396840825159479 110 121 119
0.9457986961247384 -0.053769801764811914 -0.40427958459188695 40 36 41
0.9430009982623954 -0.05500436034326999 -0.3947470595464658 40 36 41
0.8760103159664516 -0.053501122116931824 -0.3762528905346601 175 183 184
0.8799035183737831 -0.05172466813101762 -0.39669271497081443 175 183 184
0.9066803549228047 -0.05418850017607701 -0.3952394598661755 21 27 25
0.8681035861972795 -0.05223956490653248 -0.394068849739274 175 181 181
0.9344610542368308 -0.05567213546999074 -0.3927847602321216 54 50 55
0.9339336546061233 -0.05547389638430497 -0.392145033097661 54 50 55
0.9379629958564477 -0.054415296781778776 -0.40346668022158355 54 50 55
0.99706344947722 -0.058208568508708036 -0.39313496919644453 65 60 68
0.9927980751026793 -0.05886343120261464 -0.39305502083934296 188 196 197
0.9932762213459093 -0.058536220225458485 -0.3946978387878574 188 196 197
1.0090703192565342 -0.06219037891032746 -0.3968948441041536 192 200 199
0.879191755982035 -0.05529802462084795 -0.3939108559561464 44 40 43
0.8503636747972994 -0.05487224685183441 -0.39565580741985645 183 186 187
1.00807393606045 -0.0624485217933217 -0.39175225247974094 64 71 75
0.9970423619300535 -0.061758560260228884 -0.3923569769289222 47 53 55
0.9367978436755703 -0.059120166169354144 -0.3914830173210035 174 182 179
0.9227719089189488 -0.060696294806939846 -0.36705471516830435 171 177 175
0.9897384738328546 -0.06229324764044259 -0.39261817048021475 56 62 62
0.9897283252570602 -0.06191082380200139 -0.39416380801510964 56 62 62
0.9431136213883977 -0.060231780853040484 -0.39403133140898317 30 36 36
0.8768550439160033 -0.05697451211156773 -0.3947450228804884 175 181 181
0.870665784954967 -0.05721602336485249 -0.38969640096223274 172 178 178
0.9279231660099987 -0.06156214463168274 -0.3907449359312032 30 33 34
0.8737391664201298 -0.058947809226417944 -0.4031700240399336 35 34 38
0.8755119009023224 -0.06252813271620283 -0.39378790359861837 27 30 31
0.8753560804349103 -0.06234588811749279 -0.39360987004756237 27 30 31
0.8651524437445157 -0.06356337707160793 -0.394456481584668 36 36 38
0.9806356345164494 -0.07079461147682999 -0.3949972167759881 191 194 195
0.9803097585521553 -0.07101935904474138 -0.392984856921093 191 194 195
0.9771836721831579 -0.0744900619908275 -0.39521867255449006 50 49 58
0.9741842293683874 -0.07255694797337395 -0.38758294048236663 50 49 58
0.9662176864921002 -0.07517232218715025 -0.39309414159947964 43 48 55
0.9586023803631569 -0.0749714753234981 -0.3925947373669754 44 46 52
0.9616220438162782 -0.078246542264048 -0.3922399146452857 188 196 195
0.9616220438162782 -0.078246542264048 -0.3922399146452857 188 196 195
0.9033525784831522 -0.07550722283760626 -0.3946689976515437 30 33 34
0.9146779184644647 -0.07641479572803303 -0.3994584044168018 30 33 32
0.973654429407116 -0.08161700888135254 -0.3928158828800666 52 46 52
0.9660084660755565 -0.08186496373137879 -0.39465642197086365 63 62 64
0.9660084660755565 -0.08186496373137879 -0.39465642197086365 63 62 64
0.9760343559283707 -0.08361654130478194 -0.39500808126421355 37 43 45
0.9760343559283707 -0.08361654130478194 -0.39500808126421355 37 43 45
0.9075467571738055 -0.07878358831574205 -0.3946312489116515 170 178 177
0.9118024793494477 -0.08253032453938043 -0.4033688091380512 170 178 177
0.8998820149156226 -0.07900699816077507 -0.39496078509324695 174 180 180
0.8998820149156226 -0.07900699816077507 -0.39496078509324695 174 180 180
0.9749254689573618 -0.08807111591962344 -0.40059918548737417 189 195 193
0.9696030924457948 -0.08571599666988552 -0.39329986531735367 189 195 193
0.9637510062872401 -0.08586978480780882 -0.3956879051702488 189 197 196
0.9096038223137767 -0.08285090973471285 -0.39851364509363235 35 37 43
0.9059273855318852 -0.08290229289180444 -0.4000028433442586 28 31 32
0.9799954996019042 -0.09089225189590786 -0.3934033586800278 51 50 52
0.970059396722241 -0.08937399458614168 -0.3931907135506201 51 49 56
0.9458631234936156 -0.09113801598802075 -0.41063720601858633 21 28 22
0.9775953596048655 -0.09350460847781301 -0.39351010957795485 57 57 61
0.9004637540282671 -0.09049884300662053 -0.39281560933993537 171 179 178
0.9121191479636116 -0.09224902432974506 -0.3943376189875648 32 32 32
1.1119624467883287 0.32393615890471866 -0.4082064468690749 27 27 21
1.0963234992301152 0.19351558836390728 -0.41316561237396493 56 55 55
1.1143423881196692 0.20999743165832088 -0.4604117480955276 59 59 55
1.1013734745256718 0.18832334780228518 -0.4217352053453104 77 72 70
1.0605227973337852 0.1650323555849266 -0.37955647585918595 111 112 108
1.0541335903510447 0.16243160048176544 -0.38559788877359735 84 79 77
1.0919582052912082 0.17464540576817694 -0.41377944810659845 122 123 119
1.0688227318127712 0.16558806601631415 -0.3882045401904914 82 79 76
0.8369793138751415 0.12550735091514645 -0.3862782218640024 159 159 155
1.0797036937831597 0.15714792992944376 -0.3898010375690613 84 83 85
1.0769754490144479 0.15006924587123394 -0.38686992306262274 85 79 81
1.9544027523416696 0.535578609991011 -1.1864087294602736 85 74 67
1.0702440629861154 0.14239312231815338 -0.37994140091889206 98 97 97
1.0903474884769802 0.14628437252665824 -0.38848768544266615 133 133 129
0.837486382801041 0.10750920989538497 -0.38606870022148676 206 206 208
1.1119569536485954 0.14285681168103562 -0.42165356331957204 125 125 129
1.0710896787997084 0.1300578544874241 -0.3787558124405747 159 163 158
1.1234561251886792 0.1501390341710532 -0.44300950084930035 104 103 107
0.9004351036609519 0.10519449487843838 -0.38606550701483533 188 196 193
1.0054745771297275 0.11368130746422768 -0.3828810946846668 77 80 83
1.0054745771297275 0.11368130746422768 -0.3828810946846668 77 80 83
1.0920206779327566 0.11664515521708935 -0.40573378542332594 112 115 114
1.081261460087979 0.11079727833461349 -0.38978267141910394 158 161 160
0.973123751956377 0.09194244784026276 -0.3882270134412676 56 59 58
0.9464849160686912 0.08799848181556201 -0.38833151319771675 36 42 40
0.8387247289305281 0.07245403004737933 -0.3865141376646022 140 139 148
0.9805531214293131 0.08505086335504819 -0.394006814564625 55 61 63
0.8736386579497037 0.07404270169318264 -0.388523661654358 36 36 38
0.9431023244810308 0.07881050666833646 -0.38867015753787726 45 44 44
0.9370838327522283 0.07892084990254983 -0.3906631934785911 41 44 43
0.9271293430769235 0.07680523541129726 -0.3901659137542135 32 38 40
0.9408052609584756 0.07648131331884228 -0.3904456703112547 185 193 190
0.9407370486352296 0.07647859992732624 -0.39049557244521016 185 193 190
0.8742430149701929 0.07018442902643003 -0.38668130830406455 184 192 191
0.8742382724435313 0.07027087556891215 -0.38714932014524994 184 192 191
0.871156567829147 0.07154360306424756 -0.3924005158354691 43 35 34
1.1017757669654562 0.08934362754269475 -0.39918903364820374 105 108 109
1.0937940240347794 0.08865882785569548 -0.4125867056291431 108 108 108
0.8701496201304633 0.06786689791751102 -0.3896798509028751 184 190 192
0.929589729113541 0.07139996239679472 -0.39041796180162974 42 31 24
1.1295244111718727 0.08819746625683694 -0.41950705423711365 88 89 83
0.8785791172662699 0.06728804547660566 -0.3898169980726238 183 191 192
0.8791712701271087 0.06760632791983233 -0.39142785726454493 183 191 192
1.0878775200364061 0.07911321072890151 -0.3963614231983288 161 169 168
1.0935170305352726 0.07840245395435509 -0.40581589100321147 100 106 104
1.10714595535964 0.08353315682226736 -0.423990129553696 166 169 170
0.9982108031068098 0.06855406343443311 -0.3893818287999572 78 77 79
0.9982790586411029 0.06865427221629793 -0.3895766290502625 78 77 79
0.8401842820451506 0.0568769269480906 -0.39124850563705 195 195 197
0.8397939395585855 0.05658677932863814 -0.39015681007038105 195 195 197
0.9911861171105054 0.06308430698003525 -0.38453052250638886 194 202 199
0.9911861171105054 0.06308430698003525 -0.38453052250638886 194 202 199
0.8402184963387633 0.05422445418051042 -0.3866443237955081 125 124 124
1.0825653421376387 0.06686296471241514 -0.3919989584462338 110 116 114
0.923538390223954 0.057987694250795904 -0.39350507996474826 185 193 192
1.0778015922622592 0.06457690588184939 -0.393145789687261 109 108 110
0.9732665342029059 0.052982233529949234 -0.3817752185016699 189 197 194
0.8969486506392665 0.04626769482301017 -0.39187657915795926 29 32 33
0.8969678549896993 0.04623178038807433 -0.3917081452820053 29 32 33
0.9048650318071247 0.04688232539428949 -0.3985413770555059 179 190 190
1.1034004283345062 0.05217573322082813 -0.40685309841062983 93 93 93
0.910216426378133 0.04269123921754904 -0.39269559639857193 25 31 31
1.107923361819295 0.05091742708432649 -0.4122790979045224 103 106 109
1.0939484195998124 0.04783531926200116 -0.3990178183122396 93 93 95
1.0977360251650583 0.043074944035065385 -0.40761921308686855 155 163 162
1.0931116759370543 0.040196487686584535 -0.39571683515860917 151 157 155
1.0931116759370543 0.040196487686584535 -0.39571683515860917 151 157 155
1.0911691273947117 0.039933509357451574 -0.4099774977783311 115 115 117
1.098673427934001 0.03883141277531831 -0.4104472426251168 94 97 98
1.0989014096129954 0.03886667795889642 -0.41036558605021495 94 97 98
1.0883218286431013 0.03774423804384774 -0.39504938055341093 157 170 167
0.9649329994638567 0.03421082462990733 -0.39262471546129096 187 195 194
0.8405926420056969 0.02986141174131624 -0.389675128499844 181 184 187
0.8408785937681232 0.02875859084344314 -0.39074974527845663 107 107 109
0.9580687942611847 0.03265216986887998 -0.3934290484994094 36 42 42
1.1033366995471965 0.03239222569781729 -0.4069870195124752 146 154 153
1.1039411066553744 0.029720081343657435 -0.4059093668810937 100 103 104
0.9225954104154085 0.027570646210446713 -0.3940829414798031 27 35 34
0.9849451479793502 0.027544402592450903 -0.3908024319602227 50 63 62
1.098231624056239 0.028848606463726886 -0.39801806700410897 105 108 109
1.0783114089967571 0.029186725143518 -0.377409276662633 142 148 146
1.0862411734252269 0.02847669634331432 -0.3986734179235074 156 162 162
1.1062616485122059 0.027221747872583434 -0.4109879038644142 139 147 146
1.111056283775405 0.023755023508332713 -0.405071633013076 98 98 100
1.1145138119994866 0.026015975604582308 -0.4206898415544825 147 155 154
0.9858560859012181 0.02240297109486163 -0.39274161324779533 189 195 195
0.9858560859012181 0.02240297109486163 -0.39274161324779533 189 195 195
1.1225003512017335 0.022728023852133985 -0.41105466786267697 91 88 85
1.1035657157961554 0.018244637368562897 -0.4079381125618544 141 147 147
1.0938138184901594 0.01661142505341108 -0.4076921129483286 160 166 166
1.1042512682608285 0.01841707799681979 -0.4187140836027035 167 173 173
1.1068312311944724 0.016870122323851332 -0.41063362939749903 140 143 142
1.1085200785078886 0.017252829620773066 -0.4130113803456052 140 143 142
1.079949743175206 0.015998002805186148 -0.3812069930606108 95 98 97
1.0865678744786733 0.016486472962018137 -0.383403108264667 102 101 105
0.8393144865427086 0.012531915294901644 -0.3810829842002185 175 174 181
1.1066127868989868 0.01111762392850287 -0.4093066294960769 140 148 147
0.840898285602903 0.009121907546912784 -0.39118281696315177 105 105 109
0.8396307318019722 0.008338554355740064 -0.3882901623753369 105 105 109
0.8410293167748093 0.009010630104966867 -0.38778073555843784 105 105 109
0.8715647609299755 0.008899854468488701 -0.3910162456272212 43 46 49
0.9923648956758523 0.007706628882025024 -0.39241995555137615 183 194 190
1.0793194550771412 0.007260001515450153 -0.38294302249928125 149 155 157
0.8400198841456765 0.005717802285794573 -0.3903916074542008 187 187 191
0.9983614577283043 0.004012841487108308 -0.3914314321999611 187 195 192
0.9314642512194983 0.0035194565826097324 -0.3940880194697967 37 33 36
0.9314169483106491 0.003776543719826006 -0.3944554335183646 37 33 36
1.1104333214938191 0.0010782821122280106 -0.4166577172499079 103 103 105
1.08082137293957 -0.00048071680706560674 -0.3954146894875025 107 107 111
0.929042152006164 0.00045091003582664087 -0.39514361778994495 31 39 36
0.9288785844315869 0.000431200002563483 -0.39541552949442904 31 39 36
0.9287366667863567 0.00029975124496954347 -0.39460617125290365 31 39 36
0.8714964670987242 0.0023852115028808116 -0.39654324273833613 174 180 180
0.8720286040953754 0.0008957015512877529 -0.3920255108645917 174 180 180
0.9385788448583317 -0.00020990525356847219 -0.39392295227874047 37 43 43
1.0071992160498275 -0.0011092673232473834 -0.3903472533607107 80 86 88
1.1082118247332144 -0.007576729933333104 -0.4165462352749953 138 141 140
0.8421085849846155 -0.006797727604601933 -0.3946196630646098 109 109 111
1.1017140183860163 -0.014563553150746002 -0.41351320691021676 102 102 102
1.0797428755963836 -0.019764932892446897 -0.39711749168705335 112 115 116
0.9131744814269429 -0.015497842663394436 -0.3942650379784078 27 33 33
0.8413162423029333 -0.014173395243882074 -0.3912179736019623 176 179 182
0.9618131221699341 -0.0211980190418641 -0.3921554580718888 185 191 191
0.8407328040140976 -0.02075318762694465 -0.39094644513925547 187 190 193
0.9068848921159295 -0.02493649882770035 -0.39310319645896913 171 177 177
0.9700239395935569 -0.027623127651479895 -0.39067014526666743 185 191 191
0.8407895011137592 -0.022491185870970355 -0.3926471231179984 109 112 115
0.8417526025373587 -0.024320100979047278 -0.3944955809724078 170 176 178
0.8416494606767403 -0.024350596322147845 -0.3955342519282554 170 176 178
0.9824971520887635 -0.03281600243141313 -0.3846809937813804 46 54 55
0.9250673279304005 -0.03584459466870754 -0.3928452186523373 30 36 34
0.9863041304617675 -0.040334231342664485 -0.3929917746594768 190 193 194
0.9473368047442172 -0.038946702093168285 -0.38904384289676425 183 189 189
0.9442674170492162 -0.053055615686869104 -0.3924267052080385 168 179 177
1.0090703192565342 -0.06219037891032746 -0.3968948441041536 185 191 189
0.9998651882944076 -0.059489764734293245 -0.3927152181763606 193 196 197
0.9473488660468679 -0.06314624034149503 -0.397599788181598 30 36 34
0.8768550439160033 -0.05697451211156773 -0.3947450228804884 164 170 168
0.9621113276535826 -0.06929984792944772 -0.4049146354088053 36 42 44
0.96514677029359 -0.0771831637231339 -0.39615176216582076 188 196 195
0.9146779184644647 -0.07641479572803303 -0.3994584044168018 27 30 31
0.9646256276601194 -0.09281569922410468 -0.3935220817450504 36 42 44
1.0450341352018235 0.17006910380980608 -0.39142169058696236 87 86 88
1.1057695588126184 0.17027746561318785 -0.41893787481608274 116 116 112
1.1215146473107693 0.17421711647139337 -0.44270164562238573 148 151 152
0.8395371976844714 0.12496714364520926 -0.3950764212280789 129 125 128
1.1144461407229038 0.15189760109937883 -0.4351599982503546 160 160 162
0.7808328874642066 0.10059812351171021 -0.39608541219346094 71 73 64
0.9777336272663284 0.11032591332058675 -0.3958747720828568 62 64 70
0.8385953897672174 0.09850596223458995 -0.3855543521661343 128 131 134
0.8386897464262442 0.09849247897158245 -0.38525995204596325 128 131 134
0.9649003036882599 0.10469482855233597 -0.38846434034230803 55 54 56
0.782690109124109 0.021338056781462923 -0.39382096712943576 67 67 63
1.0045640191019911 0.09090923219008445 -0.38647980304646395 62 72 75
0.9468267065790379 0.08846295732018031 -0.3894931377326054 37 43 43
0.9466650737289253 0.08269007634748139 -0.3887950679858478 184 190 188
0.8702324160383038 0.07494372979392645 -0.3894189902365653 175 186 186
0.8707677640106211 0.07554080235183229 -0.39264854026109114 175 186 186
0.9315855744260794 0.0769351971331295 -0.39008833277250476 181 189 186
0.838767219956734 0.07302960200824778 -0.3895170483938513 188 191 194
0.939606259862852 0.07237539860485144 -0.38888643267947126 181 189 186
0.8702192709255694 0.068109978315842 -0.3901642915881533 177 185 184
0.7844070740421163 0.0642098051622551 -0.3979496020511334 63 54 57
0.7847458629459427 0.061383764241769424 -0.38890249288188644 81 71 71
0.8689972863197577 0.05623528269338473 -0.34447789298593395 23 29 27
0.9280071840929782 0.06324542893064224 -0.3934147867405143 31 34 35
0.9284438652550676 0.06340709783106267 -0.39436741050792545 31 34 35
0.928600034004676 0.06369849012176947 -0.3947081658646193 31 34 35
1.0794722772665084 0.06287670597112108 -0.39495871647302483 99 102 103
0.9642128792104412 0.046858423341493406 -0.39694873735177394 184 192 191
0.964019533169631 0.04677718697207542 -0.3963145032591516 184 192 191
0.9661132348635978 0.038785465954583744 -0.39210924788004364 42 45 46
0.9993132401972536 0.036946833514722735 -0.43346352923067444 56 64 63
0.8964806378111093 0.032629871461261395 -0.393657664893003 67 59 56
0.8405448333971411 0.029448125144837797 -0.392530341550679 107 107 109
0.946408511450381 0.028145724341286232 -0.3897812055556573 37 43 43
0.9767163470789918 0.02317808614112925 -0.3891257041628491 46 53 57
0.9281630564389862 0.018306799890088987 -0.3957390293260474 30 36 38
0.8674655816591397 0.014553466209011226 -0.38841581386924356 165 176 176
0.9892117501828297 0.008805678707775634 -0.3883186231216162 181 189 188
0.8754658787640289 0.011108768240854635 -0.3943757692027749 164 175 173
0.9358792173880677 0.00727522678613476 -0.3959103304069439 47 43 48
0.9352092307747655 0.007090186179675258 -0.394976679478471 47 43 48
0.9899713516238594 0.001154626711894029 -0.3912771512865446 49 56 60
0.8394627761191984 0.004921464942036622 -0.3820671602859415 107 110 111
0.9049619395630298 -0.006924770912983151 -0.43050599539891526 27 33 31
0.8393955133762598 -0.0030322973990669607 -0.3907554314339946 95 95 97
0.8393878434872024 -0.0030540062270216174 -0.3905759352092964 95 95 97
1.012853858907879 -0.00965312922276291 -0.39759856237636326 50 55 60
1.0112415009331415 -0.010661958473761736 -0.39734589908761225 49 55 57
0.949081335319141 -0.009082186611518103 -0.3957191891526169 32 38 40
0.9626690313504808 -0.014049201205115373 -0.39775669967801447 166 173 177
0.8994409820528718 -0.015344886556890536 -0.3981559233284831 25 28 29
0.9580505365037554 -0.019263579342938757 -0.3866863684186942 189 195 195
0.9580505365037554 -0.019263579342938757 -0.3866863684186942 189 195 195
0.9660816218009154 -0.02316124079389538 -0.38882954377185874 41 44 47
0.8963409540691022 -0.03920004943663614 -0.40160753155905177 163 169 167
0.9931629772809083 -0.041688659164226476 -0.38574108993735207 35 40 45
0.9333434882160986 -0.04773067831653546 -0.4310692426422259 21 24 25
1.0045442162379121 -0.04782376927785331 -0.3925480711408757 34 42 43
0.9973526823779756 -0.050136546921825044 -0.3934780899421097 40 48 49
0.9933072546831543 -0.05853359928232482 -0.3946517201272965 184 191 185
0.9998651882944076 -0.059489764734293245 -0.3927152181763606 185 188 191
0.9949551260942124 -0.06992051789153522 -0.40575101536276365 187 190 191
1.0025819091254746 -0.08623118987433237 -0.39692473405392065 26 32 34
1.0864413130572397 0.289044170268539 -0.3789718614724516 85 78 68
1.079060775898251 0.2744784554738104 -0.3790630072990818 65 66 53
1.0943079506517501 -0.014094911102735122 -0.39949624762372005 117 123 121
1.0857402470519828 0.16795494831141808 -0.4071062767262999 191 191 187
1.124006279910072 0.17406657854066698 -0.4206898157890066 89 88 88
1.0436282079059906 0.12830102122582718 -0.35037803582211635 144 144 144
1.072854448859352 0.14002125789555714 -0.38282510262848257 106 106 102
0.8372555336601016 0.10917101532263615 -0.38566986829196637 184 183 185
1.0945928457855185 0.14064966808880333 -0.41036710051146863 114 115 111
0.8389847813286778 0.10550527129309252 -0.386600749209699 143 139 144
1.1234973565145805 0.1368204994826174 -0.42246208744548347 100 100 100
1.0979026077675655 0.12925086380442305 -0.4146681743405699 163 169 167
0.8923149309869339 0.09548561892139655 -0.38112521671791794 36 42 42
0.9680741522112624 0.09652010709562385 -0.3978886240386938 59 52 44
0.8388944631345427 0.07898863835250922 -0.38584679114277404 131 131 135
1.1131817368354173 0.10093618389187191 -0.4205664595862992 110 116 114
0.9464849655481722 0.08219716843520576 -0.38793754593723623 191 199 198
1.096266392919682 0.0941209149541104 -0.40711521740445933 157 165 162
0.8793230673972877 0.07610093543089037 -0.3907192133760092 30 33 34
0.8773064214428378 0.07469991683953446 -0.37860552388716123 26 32 30
1.091527553492559 0.08471996273636086 -0.3829263538408426 92 100 99
0.8375801331392088 0.07098216932915313 -0.3877900207631881 141 140 144
1.0935170305352726 0.07840245395435509 -0.40581589100321147 100 106 104
0.8758783698264353 0.0627155745250046 -0.3740288578614918 29 29 33
0.8813560335146389 0.06292430562299296 -0.3946734343915863 29 32 31
1.1037539150677298 0.06859950250251544 -0.40965009109047806 133 141 140
1.1089155589369875 0.06648225471168255 -0.4060490310911212 104 110 110
1.115518780934471 0.06471140338674107 -0.4078740280641314 95 98 97
1.095903799267676 0.05566879223601373 -0.4048074743284286 161 168 162
1.127068308224223 0.054178415077407165 -0.4215903463089199 136 142 140
1.0759579111946387 0.04807212117020741 -0.3800996207594676 152 160 159
1.1045253272788056 0.048807868243329874 -0.40953182277913847 145 151 149
0.963425456932351 0.04483682095376046 -0.38970936614887575 188 199 197
0.9735033434214534 0.036829242640239464 -0.4078241827899727 55 55 57
1.1039586431625095 0.03203691504458178 -0.40578897231722494 101 101 103
1.1128698484305306 0.03031288178911818 -0.4148189570211995 100 103 104
0.9784927507440051 0.027099010660932645 -0.39097984111864853 189 197 196
1.1134082920251156 0.02048475677134015 -0.40696263330144905 77 80 79
1.103260887841577 0.020836617899095966 -0.4089924896390214 84 83 85
1.1138870902718854 0.018557334354343466 -0.4049178444890049 131 139 136
1.0827551335103345 0.01901897619476443 -0.3845134064229368 77 77 79
1.0753087167453161 0.01710186601603571 -0.38070079714203175 91 95 90
1.1026569884793134 0.010613761296911498 -0.4079484514284454 94 94 98
1.1064063577426408 0.008641383857915705 -0.4070054144802087 79 82 83
0.8746928636832331 0.014994802009020982 -0.3939211241233069 29 32 33
0.8809097146915009 0.013582817084690953 -0.3890183706330573 23 29 29
0.8742016818181064 0.009692389593177978 -0.38088750669871185 176 184 185
0.8685780917019977 0.005667619347870292 -0.3874996978766484 180 183 184
1.0725551555206003 -0.007422469574245172 -0.38379022726996537 88 88 90
0.8398599474968083 -0.002358843501762878 -0.3894545250053764 178 184 184
0.9043865777213087 -0.017505355290502705 -0.3934949109365105 181 181 181
0.8365567679396443 -0.020951783176099137 -0.3590993146681186 179 175 178
0.9874163452085515 -0.04312440416070547 -0.40203039293545995 40 40 42
0.9532109711286542 -0.06447419557222697 -0.38769125864426296 29 35 35
1.0893464019447974 0.2943911166223969 -0.379563839157179 87 80 70
1.1256033473468108 0.15973966923549346 -0.4269411525878256 89 89 89
1.0720038450959 0.1322661414036835 -0.37983986142578496 169 173 168
1.1093213618343623 0.024154759947454217 -0.4008526567475494 131 139 136
1.105464442186724 0.11805965769749024 -0.40623290221179464 107 107 109
1.112029335133831 0.10223417885402204 -0.41243866764494813 96 102 100
1.0668448736032614 0.08966014054342315 -0.3774008941248956 168 176 175
0.9454813797478806 0.08029978345511221 -0.37206824034193825 40 48 45
0.8755683744214704 0.06905873151268803 -0.3773474390342593 33 32 32
1.1005762953901213 0.07726057336190915 -0.41129299216868737 153 161 160
1.072950526584402 0.07168288863004829 -0.3829414347085215 156 162 162
1.1049625468616853 0.0692972821035931 -0.4100901904505902 103 103 107
1.1049625468616853 0.0692972821035931 -0.4100901904505902 103 103 107
1.1032493665482401 0.056718537825318875 -0.4111465699767412 96 95 97
1.1120712711265617 0.053922391830871934 -0.4091412110818479 93 96 99
1.0721743687359993 0.04260690975106811 -0.37959829486795393 162 169 163
0.8371615468763435 0.03848503001782211 -0.3755172735446315 129 128 135
1.088742071445902 0.03793244912465639 -0.3953913356028366 160 166 166
1.1064489149852381 0.032780450020355456 -0.40864006625313914 98 98 98
1.098506869606958 0.030414900510792285 -0.4067153245982362 146 152 152
1.1103790985496957 0.029334328139044918 -0.40738558492307597 147 153 153
0.9466221952218216 0.018421372989209983 -0.3962917120226815 43 42 49
0.840379349021189 0.013225921336099747 -0.39113833270730625 115 115 117
0.8408599224774166 0.008984010387620624 -0.39075291083912506 112 111 113
0.9634270835910219 -0.005720228038980514 -0.40803680479000315 38 46 47
0.8393721470040858 0.0015690740982619658 -0.39434887633107335 120 119 121
0.840558046413717 -0.007305968902905589 -0.391291907204325 164 161 158
0.840622403921836 -0.008272565021499704 -0.3879861422081408 123 117 119
0.8406115312754642 -0.008649131390227946 -0.3941241647359387 123 117 119
0.8412636446413967 -0.03566225728281353 -0.39135982994907054 166 169 172
0.9910508881646611 -0.05896343603402951 -0.3895276057768339 192 195 194
1.0927284710787226 0.27050624170759097 -0.3943179614729478 29 26 21
1.0980282738807614 0.25609177417046686 -0.3869396805711503 132 129 115
0.8943810713141397 0.10008671981457555 -0.3850053836864082 37 37 33
0.9479580213610277 0.08595069199750417 -0.390861642887186 47 44 41
1.0903048306219139 0.08982360538912387 -0.4016150755994896 161 172 172
1.0892545578346073 0.06566610625591919 -0.40145115850333174 128 131 130
0.9199350621421807 0.04733272889108558 -0.3826294620727379 35 40 45
1.1102991591045475 0.048146762718201036 -0.4021810692299694 100 106 104
1.0905877203727556 0.039877428653947784 -0.4112153052111233 121 124 127
1.0942623140753676 0.034400845842938066 -0.4009593296668803 119 122 125
0.9312419282990172 0.005659953863935411 -0.3888041316905134 53 48 56
1.0976523353880014 0.00430011712974895 -0.40017845384665984 145 153 152
1.090328961472815 0.0035168157817060982 -0.40022393131925615 122 125 128
1.090328961472815 0.0035168157817060982 -0.40022393131925615 122 125 128
1.0891243726700812 -0.00403207212831801 -0.4012280295623861 168 176 175
1.0921520268372054 -0.01636146662440032 -0.4023148041623381 106 110 105
1.1034677471412926 -0.017085632485861244 -0.40116547264412583 98 101 102
1.103490424580265 -0.017137048971305975 -0.40089123336112875 98 101 102
1.08299843067027 -0.01938921775727262 -0.4006704283331753 161 167 169
1.0945621933962582 -0.02021478399257526 -0.3985729514442905 96 99 98
1.0873568852254132 -0.020647421123038263 -0.40012760687958243 160 168 167
0.89660822025471 -0.014233235991775176 -0.39056343112537895 36 36 38
1.088110579948451 -0.0278308335193465 -0.39680510277010056 108 114 116
1.1606741556034028 -0.06773311080482765 -0.4911506378916663 84 90 92
0.9968599644089784 -0.05841955201793305 -0.3921583477876559 197 205 206
0.9566573898803185 -0.07362679541298953 -0.37790904512014395 199 205 205
0.9425643163681001 0.08008352730828991 -0.38336848721483974 197 203 205
1.0982174722396287 0.03281094612162594 -0.40278987941631234 152 163 161
1.094932708369266 0.0015599640986466302 -0.40033980158966387 96 99 102
1.084246290125317 -0.01393356521996966 -0.40210022451874156 181 189 188
0.9002161539150259 -0.02356072881878446 -0.3938013856682959 187 195 196
1.1056684686269753 -0.02978548778485466 -0.4026631706273633 107 110 109
1.0923823492128457 -0.03990223224373992 -0.4026208618497889 96 96 96
1.0923852279277557 -0.039904105914704086 -0.40259821824476966 96 96 96
1.0976489161728413 -0.04696905323962871 -0.40215890011189354 108 108 108
1.064961691747665 -0.056100616456655525 -0.3780659447607144 135 143 144
0.9980328321941299 -0.05140015300706133 -0.3966039456426723 57 62 67
1.094159661474872 -0.0582372490017201 -0.40161012527308054 127 135 136
1.0890417194267228 -0.06099742448449381 -0.39787925522918083 91 91 95
0.8686674216684424 -0.05341661676403353 -0.3878789320857877 189 189 191
0.944690111577304 -0.09711379657988982 -0.38883391795859595 32 35 34
0.9136975151274707 0.07808034527770787 -0.38706049144253696 37 37 39
0.9664850016504756 0.07296758010839677 -0.3952975119669028 32 40 39
1.0851312882985897 0.07688191485895163 -0.3950810706943595 167 175 172
0.9621688457133916 0.06186473784669413 -0.40727574740244454 40 48 49
0.9757785139657673 0.020642436279068324 -0.3879592921931072 53 59 59
1.1105304642816847 0.023282430273531007 -0.4000022578452631 99 103 98
0.8761096285512185 0.0067807216086356965 -0.39302968253419224 197 199 205
1.0993922886779641 -0.004688220100735986 -0.3986246851715701 110 113 114
1.1035692808817472 -0.00974454481552568 -0.4027625013338688 105 113 114
