ply
format ascii 1.0
element vertex 125
property float x
property float y
property float z
property uchar red
property uchar green
property uchar blue
end_header
0.760787230464518 -0.049948331850909335 -0.013375310384017416 113 116 117
0.7615893617044506 -0.04973621208621166 -0.017255552960440453 137 138 134
0.7605683398420087 -0.047777858232540896 -0.013320389516077173 155 155 157
0.7603164286080243 -0.04724408948296913 -0.013739088590879932 141 149 150
0.7602959616468136 -0.04695504128922023 -0.013840418061852376 105 112 116
0.760067555134993 -0.04672181807938376 -0.01406763218375108 126 132 130
0.7601874500467991 -0.04573994438448499 -0.013770476311894354 94 100 100
0.765977184372253 -0.10498795945621588 -0.025810030655821457 141 149 148
0.7661379558516481 -0.10485968364583013 -0.02556483576482052 148 154 152
0.7657163657847376 -0.10479816226692207 -0.026015462775863987 131 139 138
0.7659719376190812 -0.10449759888190746 -0.02564267982989652 104 112 111
0.7660125687054382 -0.10429407206172264 -0.025506752588240002 150 158 157
0.7655632223162184 -0.10427480397455462 -0.025945274819527978 131 139 138
0.7655632223162184 -0.10427480397455462 -0.025945274819527978 131 139 138
0.7657978742948397 -0.10406723847826092 -0.02564614349336332 143 149 151
0.7654109240736409 -0.10340570207336996 -0.0258890932129845 130 138 137
0.7659942190063976 -0.1032311304245829 -0.025144735244528656 144 147 146
0.7659017037890248 -0.10291915957538492 -0.025192627059657243 141 144 143
0.7651553898567138 -0.10249449471960853 -0.025798845643216762 125 131 131
0.7659270375620801 -0.10215387598824047 -0.02485043750306477 121 121 123
0.765799730593688 -0.10194824882978192 -0.024907904949152404 138 146 143
0.765799730593688 -0.10194824882978192 -0.024907904949152404 138 146 143
0.7659576362879672 -0.10185533774731678 -0.02474811299326049 146 154 153
0.7658550027799615 -0.10179592766844138 -0.024820639533473243 92 95 94
0.7655624778423158 -0.10119182762873416 -0.025014819419072663 87 90 91
0.7681293738629771 -0.10112050515902879 -0.020953642275033397 94 97 100
0.7656035350002993 -0.09645463543079459 -0.023103108513503525 196 197 193
0.7611964807955027 -0.05136011320395886 -0.013122080194467667 138 142 137
0.7633423102050644 -0.05151266144793781 -0.018667824525592135 87 86 88
0.7623611127443765 -0.051407104134836665 -0.015661610625435814 132 132 128
0.7618578480743563 -0.050868996012646224 -0.016270817882398127 136 136 132
0.7607076187022306 -0.049493248298142334 -0.013415379188438097 122 122 124
0.7605244147276222 -0.04802147135843335 -0.013427872156539023 150 158 157
0.7603015769275049 -0.047469958076915585 -0.013706122773608062 136 142 142
0.7601917476335105 -0.04662737269147808 -0.013881774909769731 139 145 145
0.808604058534489 -0.01071492961265767 -0.08442916444570482 30 33 36
0.7628538715629504 -0.05222852769626773 -0.016199280889829942 95 96 92
0.7629275030845873 -0.05219015899809183 -0.016061109644776226 82 83 79
0.7622023098504818 -0.05199157280197847 -0.016132764155530027 104 105 101
0.7625851386734559 -0.05189596926153908 -0.015424941692613459 101 101 101
0.7628161696868003 -0.05175931406487603 -0.014947263884679861 79 79 79
0.7625659466883425 -0.051763688071009104 -0.016482001578720974 124 123 123
0.7621767379092333 -0.05174523393174772 -0.017023881380426365 93 92 99
0.7627987527257059 -0.051654190155581536 -0.016059155373652264 101 100 102
0.7621411733312441 -0.0515143936950989 -0.01604745612700661 130 130 132
0.7621411733312441 -0.0515143936950989 -0.01604745612700661 130 130 132
0.8566056257776592 -0.0876986005540305 -0.5592371086209847 87 88 84
0.7624151384731597 -0.051472063332204415 -0.01557121496850431 147 144 139
0.7624220189752727 -0.0514032097289969 -0.015328273536374748 134 134 128
0.7627314185878479 -0.051381203900328465 -0.014696038814853036 124 125 119
0.7621271188522595 -0.05140003029875491 -0.016020458725792122 124 127 128
0.7628354793588359 -0.05141566063888294 -0.015856609236257067 105 105 105
0.7623921889298487 -0.05130960188144905 -0.015635049558403006 143 146 145
0.7621625673867078 -0.051283829115002406 -0.015943694265660804 142 145 146
0.7618558833299985 -0.051219564446054335 -0.016370384283557686 135 139 134
0.7610196829031458 -0.05269515784026054 -0.014320414459077358 72 69 64
0.7613143071759186 -0.05248930001155131 -0.013352444966403513 60 61 57
0.7611958188791137 -0.05228039594215486 -0.013491710798761838 88 88 88
0.8017225500710454 -0.061452868234809166 -0.11703266177512787 82 85 84
0.7611837162181442 -0.05220339487459855 -0.013477078156337592 82 85 84
0.7611537088390956 -0.05205255521204098 -0.01345553278331859 82 88 86
0.761368577698392 -0.052003885161534834 -0.012925242214332062 92 91 91
0.7611512665704326 -0.0519462776427163 -0.013451571067051558 87 88 84
0.7611512665704326 -0.0519462776427163 -0.013451571067051558 87 88 84
0.7615520779133504 -0.05163685848189881 -0.012140186485119126 90 96 94
0.7598105340457869 -0.05117410320388467 -0.005783157248175414 41 45 40
0.7618618355009628 -0.05130976324788829 -0.010805609087112089 66 70 65
0.7617498042670648 -0.05129650428303372 -0.011121028656110326 77 80 79
0.7616036683975427 -0.051257485286813245 -0.011761273919847237 107 110 111
0.7615748561549298 -0.05125494815830028 -0.011867393115504716 118 124 122
0.761093362859711 -0.051299895984807456 -0.013271479380706039 138 144 146
0.761093362859711 -0.051299895984807456 -0.013271479380706039 138 144 146
0.7618925701416988 -0.051241583947152884 -0.01230349979603881 103 106 107
0.7615089506400631 -0.05124246799145106 -0.012141350645786335 114 115 111
0.7612262458247501 -0.05126664290999054 -0.012903309559130488 144 144 144
0.7615482776411269 -0.05121312380407282 -0.011945974900877532 110 111 105
0.7609787113682704 -0.051278580597771004 -0.013521466094141498 121 125 120
0.7611929380608237 -0.05119224338331817 -0.013012592844598145 143 146 145
0.7609492503488238 -0.05118237573503823 -0.0135590119571712 98 104 102
0.7609492503488238 -0.05118237573503823 -0.0135590119571712 98 104 102
0.760757653553481 -0.05106668781183685 -0.013928784557100097 98 98 94
0.7607067216389538 -0.05104629666660597 -0.013982338654966552 119 123 118
0.7606682171598048 -0.05099091518398417 -0.014053437740545693 97 97 99
0.7606682171598048 -0.05099091518398417 -0.014053437740545693 97 97 99
0.7609629196491933 -0.05063860109368694 -0.013273232596320883 155 158 157
0.7609212585018169 -0.05062773920729271 -0.01337157187129539 133 136 139
0.760906693790381 -0.05047310954072868 -0.013375866187881216 155 158 157
0.7607418875368839 -0.05005678762316607 -0.013543286738484275 152 160 159
0.7605697304506709 -0.04996781339852972 -0.01389050687781467 127 134 128
0.7604200693666135 -0.048968490815141465 -0.013881009023243147 133 142 135
0.7604200693666135 -0.048968490815141465 -0.013881009023243147 133 142 135
0.9088597969172572 0.02825997704965618 -0.5092396251213643 135 141 141
0.7604193292624666 -0.047987854170146 -0.013701199760402702 134 142 141
0.7602678272474136 -0.04789567725687989 -0.013917378176088813 127 135 134
0.7603243058757051 -0.047323188496849744 -0.013714645966257905 112 118 120
0.7601895633918381 -0.04676723419050393 -0.013827359087991476 131 137 137
0.7601701594427365 -0.04656292302981589 -0.013857033694417493 128 135 129
0.7600127691030635 -0.04630389278132538 -0.014185654028806264 115 122 116
0.8971858823896384 0.09937394477893519 -0.4741084646822444 138 146 143
0.7604025467590623 -0.046307451295707666 -0.013387843298196695 160 168 165
0.7887767344178357 -0.1090680991633196 -0.07209123260641548 89 90 86
0.7603049387381506 -0.045469237422546965 -0.013457896824784371 126 132 130
0.7948782531512874 -0.07458370546762705 -0.09455999873123663 80 79 79
0.9236332352009188 -0.047893413107796455 -0.15409632711325028 37 36 38
0.8135617683222282 -0.10448574375250404 -0.04417604928391919 28 34 32
0.8190432546441669 -0.17196549663679542 -0.20587737719062837 44 44 46
0.8018561794501367 -0.13943776762519905 -0.12477473119894233 121 126 133
0.7999839378375381 -0.1467455368237602 -0.08900306740185003 190 196 194
0.8504053218878828 -0.09885225065310661 -0.40172457989064836 122 133 131
0.8013715000662426 -0.09125373687183569 -0.11576550989213695 160 171 169
0.7998349529608539 -0.04765888103576226 -0.07759724969765847 147 147 151
0.7704381601439704 -0.0910521351286968 -0.050013423029293444 33 29 34
1.3231802870405132 0.05906638172425996 -0.8796454440504232 128 134 134
0.9509490280414149 -0.0017832617134447267 -0.22459842186751725 169 172 173
0.9509490280414149 -0.0017832617134447267 -0.22459842186751725 169 172 173
0.9729706838045162 -0.11892850008862998 -0.25559787755533253 189 188 188
0.894481526268054 -0.026215185651057838 -0.49447373053951005 181 187 185
0.9742102234995925 -0.039455141604932895 -0.2525087062210179 182 182 186
0.9662072812951791 -0.022548253947904003 -0.24237058305642306 176 179 180
0.8105434979117896 -0.037684310171519464 -0.27076534366922134 115 121 121
0.9535522474185275 -0.00732082126370087 -0.22859409754949148 127 130 133
1.183262316437457 0.4482168686554605 -0.5746107617572346 101 111 114
0.8967215916674938 0.01445795104773164 -0.44327859771109573 201 204 203
0.8100249533104323 -0.03439305458485026 -0.12478989983979048 35 41 43
0.7717666586661172 -0.08899210092798295 -0.050092212232928486 24 23 25
