ply
format ascii 1.0
element vertex 716
property float x
property float y
property float z
property uchar red
property uchar green
property uchar blue
end_header
2.2372046292340455 0.7381244054353513 26.616520084181662 190 198 197
2.7672931586182226 -4.541030853000421 29.821899765387208 109 115 115
2.966928760216803 -5.068706141707139 30.14891065442345 149 159 158
2.966928760216803 -5.068706141707139 30.14891065442345 149 159 158
2.449857364844685 2.8942844783192414 25.402906299969786 39 41 40
2.614159854580046 0.7243322851955515 26.664006986787175 55 63 62
3.058597152254454 -4.695467886873818 29.74627234365334 159 170 168
3.1507385722684127 -4.882649143869861 29.81649826539521 128 131 129
2.749880914317232 2.329361993345627 25.792970694656898 42 48 50
3.505335325204002 -5.575432602306944 30.18483259995857 102 105 110
2.7535480441729576 5.571889404739755 23.91477025518256 181 189 189
3.773823568880072 -4.484049922067935 29.551443802762467 165 171 175
3.2797267748635237 1.8596592055386787 25.739490078117637 188 196 194
3.016572945351622 5.827452097025109 23.82779575314481 178 189 189
3.0357384693649943 5.554401247909261 23.865262063164707 49 44 51
3.4458230770650666 1.706153320439023 25.85388575145277 45 45 47
3.4675028355910786 5.716887487390837 24.094985255155056 183 189 189
4.195527351608339 -0.5834095932291046 27.0497475018836 54 66 65
4.289416775297964 -0.6522744142265441 27.096615716261 59 70 70
3.7451199889031788 5.932883002418921 23.470764584228395 34 37 38
4.668423542310579 0.6883325950902885 26.25379160544365 189 195 195
4.641675438361603 6.766555459661541 22.811686168670093 27 30 29
4.641675438361603 6.766555459661541 22.811686168670093 27 30 29
5.587686551216961 -0.40686742840324885 26.357588093913304 188 199 197
5.658879857721896 0.27918992470654747 26.250881658689426 64 66 69
5.603033842007669 3.0782479810093637 24.64568694085275 30 36 36
5.123184415361476 7.192869964580394 22.476274947971717 180 183 184
5.259188767764434 7.770377003355587 22.30686771920403 33 33 35
6.126315120941534 0.44178155271186764 26.017574153824867 55 61 62
6.147835751137272 0.44425699241898514 26.08624463311122 55 61 62
6.858266216688428 2.22313042753475 24.920682172626137 42 44 50
6.4093937943242825 6.068814673673308 22.83089708320109 172 179 179
6.787548540092413 4.856215264213831 23.428277477887008 29 32 31
8.0460138416395 4.481993140839877 22.524308577229455 181 184 185
9.80571447635071 1.4734480384735247 24.592711282172147 198 201 200
-13.415592783549886 -4.637086572870475 31.476194617506085 106 104 94
-7.450320226758495 -4.431144340840709 31.06584892683544 88 83 85
-6.414232369581912 -4.417534412935864 31.093760808888277 107 105 101
-4.734095371122023 -5.18154408639654 31.015325717939348 81 81 85
-4.024372614656445 6.628246563355272 24.199294735370195 189 195 195
-3.647820820606904 7.510087683741083 23.68676611035613 184 192 193
-3.535979881252558 3.637697098500154 25.950169167383464 40 43 43
-3.3741798432465835 7.248028254510878 23.757153367250126 184 192 191
-3.3741798432465835 7.248028254510878 23.757153367250126 184 192 191
-3.1013754630963684 7.701391043155092 23.554033204273463 42 34 31
-2.936404753876762 7.5496334426890686 23.552852358359264 186 192 194
-2.7934170762849337 -0.17674699338841857 27.7414550094279 72 73 77
-1.921835165738995 -4.672298754639045 30.55707607000955 110 116 114
-1.670845166446379 2.6403508832200573 26.186711888136976 189 197 196
-1.5652130708366745 0.8735040859799933 27.10572676413638 56 63 65
-0.8995531532526878 -5.199903735904381 30.827794475641017 96 96 97
-0.3707339871556357 4.97718855169626 24.665468584926515 32 32 33
0.7693162365623646 0.5660477881839384 26.946634683454278 60 66 72
1.005753172872574 3.538668886705178 25.468407858918567 181 187 187
2.0499137724655054 -5.004540094325011 30.094928276096613 149 155 156
1.9260062430696474 0.4738158704697607 26.80261845638171 56 63 65
1.6731899025691739 4.090071352164751 24.805287212388755 31 38 35
1.9659551030139624 4.7721816196313975 24.649991286762717 30 33 32
2.2362185633407314 6.5496117850627105 23.43527162554957 28 28 28
2.247772517040395 6.565468331298021 23.479273643393782 28 28 28
4.339326918632476 6.092461363420516 23.159396662404944 28 28 28
5.3464671568350886 0.009738254521025511 26.270012589334332 45 52 55
6.046314755574301 4.590739734446985 23.54443815556818 30 33 32
6.046844654689486 6.435602295014286 22.77950627028957 169 172 171
6.985343683633532 1.9914608577736292 25.01405021181036 189 196 196
-5.461087010497315 5.255084069225548 25.00152616475079 185 191 191
-3.9711414278329547 1.2433417060823124 27.067225207069622 185 192 190
-3.6000964614048434 -4.179036590844728 30.53581108091597 192 192 190
0.275347790381901 4.805486860762322 24.865735881052863 28 31 32
3.9563153098411896 6.137695663784786 23.258377919611572 163 169 167
6.117994868989863 4.23342350488584 23.839575426256612 160 163 164
6.117994868989863 4.23342350488584 23.839575426256612 160 163 164
-7.833020036116923 -19.81064471864025 77.08992493759179 85 81 74
-5.402715306028018 -20.215008079873 81.36415307341309 98 95 91
-5.402715306028018 -20.215008079873 81.36415307341309 98 95 91
-2.6027955605092497 -19.68078987857816 82.61687878859061 97 94 86
-2.371308818860342 -4.674740837493681 29.974465026341193 152 163 161
2.7290464259330776 -0.6461866002378802 27.340227412928684 57 69 71
-0.5568664675331899 -5.184437598634312 30.537037649347784 107 113 111
-0.5565194152268698 -5.199699339637615 30.6200777919197 107 113 111
0.5309731046131908 -5.30479715596597 30.539313984959694 95 98 99
1.0717049117331126 -5.996808198242699 30.732765362882947 93 91 87
1.1901649336920288 -5.776446549531825 30.776296696882973 81 84 83
3.9563153098411896 6.137695663784786 23.258377919611572 177 182 179
5.900917863384934 -2.3759281754589128 26.75969331478804 199 202 201
-5.510268890198187 -4.6204389927401435 31.10961033107854 154 158 158
-5.510268890198187 -4.6204389927401435 31.10961033107854 154 158 158
-3.4678177279208438 -4.6979204483415415 30.916385071006403 158 167 169
-3.2336785702109125 -0.18826283631569846 27.791220856189437 60 66 67
-2.3096187957661645 -4.560774564846466 30.4501671989058 163 169 169
1.5066700290760853 0.3895377590631488 26.815666631399782 185 196 196
-15.089693095578502 -20.778272698051993 76.35900014510871 107 103 92
-4.2027715551381215 -4.76230421019698 30.566026683752995 105 108 107
-7.06630018697584 -19.395294138819207 76.56877304540026 92 90 82
-3.5395233767585235 3.232321880702651 26.110003495847906 47 47 51
-2.412786171543202 -5.847712725099918 30.971769790308535 100 102 95
-1.566118582870784 0.8674511848563199 27.132943591737426 58 64 68
-0.7495307730867706 -4.86919736718093 30.39095656650942 157 166 165
-0.3157819306420947 -4.87971620658713 30.432213899980617 161 172 168
-0.35638984723912165 1.5377464535013765 26.52637031491177 192 202 204
0.46567835001524915 1.1154301050619202 26.701367511121983 57 58 62
1.0320138589747632 -4.621432258587372 29.9842964278557 165 173 170
1.2638063685261174 -5.876349629050846 30.568342496601243 131 138 135
0.5364640185553823 6.959701014259954 23.58406217559054 30 33 34
1.540704671891921 -6.065861841066135 30.87569997964767 106 105 109
2.1048271451022464 -4.8645877798647295 29.97578561231865 124 128 130
3.505033809741113 -5.576153526694366 30.191809045504396 104 107 108
3.649277509499265 -5.166066210584337 29.794941951945518 105 108 108
3.7316260320793795 -4.373381857567692 29.447209258395176 126 127 123
4.254767082118076 -5.217293475514899 29.842782045772463 102 105 106
4.220888268343947 -4.677412502346009 29.529772335237826 153 161 162
3.7596276040189966 2.1251762020829124 25.62153827136856 190 198 199
5.501492033232987 1.78119481985706 25.725743535780577 32 38 38
-5.529305456128084 5.865571906981705 24.648015739509443 44 37 34
-4.55555066368411 -5.192783023913476 30.34302161596472 143 149 145
-4.117515476334921 3.0218287128372476 26.162235470164582 41 45 44
-3.777264803493561 7.924060903655515 23.634569888342213 38 38 40
-2.8728802498866264 7.029527022976239 23.76880928312927 45 44 45
-2.7808607312956113 3.831113354851811 25.089182078833645 191 199 198
-2.7808607312956113 3.831113354851811 25.089182078833645 191 199 198
-7.00178595734632 -19.38790248419446 76.697731335208 86 82 73
-2.564610772264253 -0.1987970963227753 27.703255992291172 190 197 191
-1.5261777355629425 0.8382101424878219 27.098247518744525 57 65 66
-1.4271787733174952 5.637197082203636 24.443564732297183 190 196 196
-1.045260703081891 -5.2012814979294975 30.801791438058164 95 94 93
-0.9166821522381766 5.153900349506756 25.517026766770545 30 34 34
-0.686852444393841 1.969380272257957 26.257641816636696 47 50 51
-0.30352295146865016 -4.688052829934164 30.312003670344353 167 170 168
-0.43460226397075835 6.040809998010468 24.049265768534916 39 39 42
-0.3685736684620852 1.7663323157247914 26.405988841003893 53 52 46
-0.3685736684620852 1.7663323157247914 26.405988841003893 53 52 46
-0.22921624896486179 -5.205552972138701 30.51984941322931 99 105 108
-0.21782498819066434 -5.174445167609808 30.290283520739663 99 105 108
0.5357389780385277 4.195529249958916 25.003589889463846 37 40 43
0.7631869794742081 4.020181126089084 25.043619410570173 187 196 194
0.7885664602704465 7.224605163798211 23.317696403445957 184 191 193
0.8227797645998406 7.437198523789723 23.113405999198275 49 46 49
1.0326726312447712 3.569226412413913 25.43879665128029 190 196 196
1.6892769695432814 4.113438631027218 24.939306814439043 32 38 38
1.9887546585181977 4.7154392445312885 24.488928056054156 33 36 31
2.631503998320749 5.934592052342924 23.896135229563907 30 33 34
4.18530543015019 -4.926131475929856 29.820433694166184 113 116 117
4.2196314101435055 2.5069321014625956 25.39777659316628 187 197 195
5.514289475316817 3.518651819924665 24.622640588812292 174 180 181
5.882399902620677 3.120395369953774 24.911923849271997 31 37 37
5.578555632800667 7.612061571769484 22.449916044584473 174 180 182
6.28137444277231 2.8033971003219507 24.89097119846008 181 189 186
6.678218158085987 2.8236428722020066 24.919331700074608 33 36 37
6.678218158085987 2.8236428722020066 24.919331700074608 33 36 37
7.18998276350651 5.211608138137418 23.412344045514903 29 28 36
-4.221138267821609 1.4508360459905614 26.967004931208738 56 59 58
-2.5950137866417546 -4.6228573910647075 30.459580941863585 98 99 103
-2.5939924036894744 -4.62167385013691 30.46888716233345 98 99 103
-2.3991579828039304 0.04376937361493893 27.62237313217464 196 199 197
-2.3095233006913896 0.2182116293607631 27.436104523734027 189 195 193
0.02901861773249949 -5.281491482403903 30.62142325218981 101 103 106
1.092970532412759 -4.938949601241874 30.103888155095486 142 149 147
1.7409276489379442 0.35420083961608745 26.932178178493114 59 64 72
1.7409276489379442 0.35420083961608745 26.932178178493114 59 64 72
2.7481397090940622 2.3371008445585773 25.849327996254114 42 48 54
4.22450364324957 2.5189154036732018 25.477188723183268 186 192 192
5.298767311787706 5.431067809635874 23.736892059321374 22 25 23
5.298767311787706 5.431067809635874 23.736892059321374 22 25 23
7.683890928843448 1.6328418466750054 25.44075002874398 190 195 193
7.742509211090967 1.3737941999502883 25.41504210610403 46 47 51
-3.632826584170912 7.67369361474888 23.52816691984339 33 23 17
-1.407930752976637 2.4199233749225857 26.227161717230853 42 48 53
-1.14011129709202 2.1648602934576457 26.32773974004213 185 192 192
2.57156254156489 1.1043107820758948 26.505134329938635 185 191 191
-4.875890109588521 -5.270538031165747 31.049266349952408 145 153 153
-4.875890109588521 -5.270538031165747 31.049266349952408 145 153 153
1.8160310675259814 -17.45121430820927 73.2905977106 107 97 85
-0.6520889361392936 -5.599481651585399 33.03332162079517 105 111 112
7.773034007572855 5.6959037623834465 23.194702424256782 185 188 189
6.498799435783945 8.094511469404415 22.444852021232055 28 31 34
8.043558280790977 6.4636843772399635 22.356653293947918 25 28 30
0.47429141050508566 -4.51014715764507 30.042621991173412 171 182 180
2.7836427763044815 -4.9196797638179754 30.042969056206474 105 107 111
-3.7753453398111163 3.0135066559987362 26.178259383761915 198 202 205
-2.3204125019581574 6.231103189221286 24.088271116826096 31 37 35
-0.12039492128089753 -5.044476188084537 30.55935712495691 114 116 116
-0.12039492128089753 -5.044476188084537 30.55935712495691 114 116 116
0.2686042564555154 -5.183669831693595 30.529763333286137 148 158 156
0.4651314829397777 1.1243076307659658 26.839334778395013 57 62 60
2.2464726093444787 -5.1255983351295855 30.080850660527723 106 109 110
3.566843425944954 -4.45798254098275 29.577912641237546 174 182 181
4.876845832320207 -4.532778764381858 29.57105438578952 159 170 169
5.611358863039156 -4.805104749767484 29.574212437367922 139 147 146
6.00528631905426 -4.517245069671129 29.114343734788488 135 143 144
-4.780770900478522 5.254533464573238 24.838395920042746 202 203 204
-2.062410318053056 2.58306656350014 26.07913702979703 39 47 48
-1.1636550692519203 2.002681390822031 26.37370435534962 192 199 203
0.19228098799821688 6.230861158881555 23.894701672216062 35 37 42
0.2814599703674508 4.812909489358284 24.8576164330981 35 35 35
1.8965167776479306 -5.4373524519276915 30.563891399586726 100 106 104
2.084985860119258 -5.288241175868848 30.307851573297718 150 160 158
3.5240136349662174 -4.560336076766089 29.646679892461318 113 117 119
3.5240136349662174 -4.560336076766089 29.646679892461318 113 117 119
3.2929614264960043 3.658742965423321 25.188840810286223 29 35 35
3.773053058583991 2.135275846852588 25.74645994720976 189 200 200
4.34832917266613 -5.659529092124021 30.200443765558777 106 109 110
4.861578308668304 -5.696215032643077 30.152118672879883 109 109 110
5.431262719030492 -5.244379429424727 29.784860374417924 117 117 118
5.431262719030492 -5.244379429424727 29.784860374417924 117 117 118
5.626774470881357 -5.157401036041763 29.952166848204982 145 154 151
5.626774470881357 -5.157401036041763 29.952166848204982 145 154 151
5.67941401269713 -6.0606134414538175 29.666093093550373 84 85 81
5.798807449943558 -4.737095484775987 29.1491424545417 151 159 158
6.140589867930901 -5.078373472713552 29.493391214526135 145 153 151
6.583699228203671 -4.858091819787624 29.493095054431105 132 138 138
6.6810908658326635 -4.996077662467409 29.506500594404482 95 95 99
6.6810908658326635 -4.996077662467409 29.506500594404482 95 95 99
6.748398438220826 5.909118740992659 23.221287414420317 31 34 35
-6.0445706982979015 9.293688101224074 22.686813926699248 147 141 145
-5.366592285650324 7.4347224108277565 23.676393720166462 27 30 29
-4.995259107591706 -4.484163601514479 30.70487674910016 107 107 104
-3.7849719472332435 -4.613787506618398 30.86200962139028 118 119 119
-3.7849719472332435 -4.613787506618398 30.86200962139028 118 119 119
-2.686273608415861 8.6582782917691 23.28866907891403 202 202 204
-2.4635598738336664 9.295238151655884 22.531637247414857 136 133 134
-2.378113022278882 0.4513639084270101 27.46988027063175 71 72 77
-2.378113022278882 0.4513639084270101 27.46988027063175 71 72 77
-2.092625269802708 9.380284396580315 22.51124706233307 131 127 129
-1.9331201060638048 9.365214643674985 22.510401992776675 149 145 146
-1.1938308938029252 9.382214053523844 22.465297493089892 137 136 138
-1.1474744630963005 7.583250138246189 23.58162186551716 26 29 28
-0.7049016464964944 9.38043320355007 22.39691324296361 131 130 137
-0.6945475779472773 9.320824741349773 22.43058754633899 126 125 130
-0.6866453594427124 9.415260073179386 22.398402156032457 130 129 133
-0.5013107221166567 -5.103166275265014 30.559422419230078 149 160 159
-0.6071273135927869 9.369672352018593 22.395644478889714 193 196 199
-0.15181780914390056 9.402435669298324 22.434529302985077 160 159 161
0.017410420151814963 2.9724889461333763 25.89655499537453 39 46 45
0.18667957415298092 -4.818303468910621 30.395069087315413 106 107 104
0.3080100942983905 -4.655707692422524 30.47242418954573 157 164 162
0.515881439853998 -4.815874395484271 30.344940249350266 110 110 111
0.26064829976033527 4.804082680656792 24.990468745679337 31 32 32
0.6037415719613072 3.1451273072863746 25.536170083286837 45 45 47
0.8955107990369109 8.878834186774528 23.15097711414715 191 194 195
1.0803122597949415 5.550054692170501 24.52008392484633 22 28 26
1.2546234216506724 9.448774654653073 22.30781592955321 122 124 125
1.2546234216506724 9.448774654653073 22.30781592955321 122 124 125
1.3925008672530466 9.419399505012569 22.2317606797681 197 198 202
1.4800856679893286 9.459418515542428 22.203670682887655 125 125 129
1.5388450826769067 9.359467850474472 22.210781850698673 162 160 163
1.5388450826769067 9.359467850474472 22.210781850698673 162 160 163
1.7930614464335275 9.35040829268591 22.25545033851698 132 132 134
1.7854053307867825 9.481611004801543 22.185304357292097 192 195 199
2.291097553197723 6.273423318700745 23.904221691552237 184 190 190
2.6518635181809467 9.462489160212808 22.06224193381311 138 140 143
2.669598312284684 9.333810993519105 22.17940552572431 141 139 143
2.8612984192996325 9.444566024442722 22.217163191558907 127 127 129
2.8715632628962515 9.466052599860399 22.254521077819028 127 127 129
3.09222440976961 7.559329902010892 23.202052896831326 19 25 23
3.193399394184683 9.35523025195576 22.164671610261905 141 140 142
3.193399394184683 9.35523025195576 22.164671610261905 141 140 142
3.5063422234512163 9.346723782431603 22.06456357322323 111 111 113
3.5063422234512163 9.346723782431603 22.06456357322323 111 111 113
3.5195726227175173 9.448377137898722 22.025551936522668 116 120 122
3.5195726227175173 9.448377137898722 22.025551936522668 116 120 122
3.6671758991435626 9.401858560805392 22.017597797624305 109 109 111
3.8826804210521746 9.443872572198888 21.971991896838787 114 112 114
7.493413096899934 7.386940996114501 22.493193643076296 20 24 20
-8.399220027565528 -4.026069863454965 30.3544345940212 66 66 68
-7.810991406171191 -4.42261034897082 30.57152846718737 96 92 93
-7.38381060084314 -4.1890463186859845 30.226287274234398 138 139 138
-7.190147267380931 -4.427535163064584 31.25430887682243 109 108 108
-7.070001050332744 -4.3322928305071295 30.565498500587506 109 108 108
-5.533755155223677 5.831196806124552 24.645548054886646 41 35 28
-5.393313969465395 5.156398853716405 24.530115696490526 189 195 195
-5.211832966224721 2.0749231739892977 26.727887814028033 55 54 50
-5.023401194164125 6.108588585521323 24.60396485319576 34 40 41
-4.982133171878998 -4.4648995882125115 30.59244001523496 108 108 110
-3.231893559643968 -5.38717754633194 31.314328506645406 100 103 104
-3.1184054840002746 5.562928297500963 24.68421049617098 24 30 28
-2.9165612719005773 -5.918968175310024 31.59202193088101 95 92 86
-2.434691954646793 -4.650508246138856 30.54487932305458 116 116 117
-2.434691954646793 -4.650508246138856 30.54487932305458 116 116 117
-2.043013835515986 -0.3589333069450285 27.869778950679233 68 78 84
-2.058602068039364 2.5904669794528528 26.056718128002526 36 44 43
-1.8058843833973697 4.486758326296928 25.346234340641484 31 39 38
-0.893419867881452 -5.1718808780218195 30.612820064384398 96 96 97
-0.034098430365122515 -4.790954028053056 30.30722504392387 96 100 102
-0.0892863813617179 1.3722776449746599 26.85118575570708 54 59 62
0.1398974956706669 0.7741001987639576 26.83546755641612 51 64 62
0.15970835354579785 1.1591149428123186 26.898577460543923 189 196 190
0.4996778678669413 1.1541193906468987 26.801600868799294 49 56 60
0.21774928289516826 6.343497522756584 24.412738273990914 26 32 34
1.757416892376404 4.180342159861056 25.370736526781332 31 38 35
1.57774934940684 7.134041512985445 23.966888217076495 27 31 31
2.229619237924534 -1.203501196215799 27.257757002234857 194 198 197
2.1756638590274866 2.57853137172043 26.240177706917553 39 47 48
2.1756638590274866 2.57853137172043 26.240177706917553 39 47 48
4.32765252095565 0.6992921015510593 26.456936179164675 48 56 57
4.32765252095565 0.6992921015510593 26.456936179164675 48 56 57
3.9175835054584613 6.536245562946018 23.173238162986806 28 31 30
6.5398919913389015 1.0645674227193611 26.456961975874595 40 46 46
6.412576494624943 2.4722690488732644 25.475156324279926 35 41 43
6.231948718050608 4.301170218280935 24.20938709236642 163 169 167
6.224008962284629 4.306020896877716 24.209057997882027 163 169 167
6.954075761139006 2.8878863379688404 25.729422504587664 31 34 35
7.639881284100706 1.6290297595896717 25.26994385431935 190 195 193
7.021819129324821 5.744919251069903 23.356221304503663 170 176 174
7.604364729190897 5.112363402943911 24.64986108209796 24 29 27
8.751769865425505 0.5656582950684239 26.406293184260218 39 45 47
8.856315890647116 2.276379331272317 24.967273542430753 196 197 199
-4.965035691074817 -5.3824666174325095 31.33272826957802 105 106 103
-4.812252054101037 -4.60913251561092 30.742636632204697 147 152 147
-4.645801427858477 -5.2688627230758565 30.94859779209367 143 149 145
-2.6120774084856357 9.291831934420868 22.532659894739695 134 132 138
-2.4728018347572207 -4.326523983110022 30.352467590391086 116 116 116
-2.4728018347572207 -4.326523983110022 30.352467590391086 116 116 116
-1.7977457871273845 -4.352780707812283 30.27426455530369 119 122 125
-1.7977457871273845 -4.352780707812283 30.27426455530369 119 122 125
-1.2228472819365774 -0.446645210316782 28.024113741397763 60 70 73
-0.3741899934275901 1.9820910275651766 26.20535022857665 187 198 196
-0.009304101580854474 -5.283490090634625 30.9213492274348 89 94 94
0.18591962372960832 -4.770956324473249 30.1378418205276 106 107 104
0.26343019861981887 -5.304983303508523 30.664908942829943 105 107 108
0.26343019861981887 -5.304983303508523 30.664908942829943 105 107 108
0.6438335934659757 -5.174182074246338 30.393341379740516 147 154 147
0.5162137660056341 0.7823396841687432 26.755453617751613 191 197 195
1.2990465994154208 -4.5087602898291195 30.09617081937167 122 125 126
1.2944607167534938 3.9990654406575046 24.915401335266463 183 194 193
1.4638855849998889 9.35105725316387 21.937042401516447 125 125 129
1.7220078745946872 9.318902678690314 21.922555494202282 130 130 134
2.15287216040546 9.361204070599772 22.000923130570825 169 168 172
2.4069321113587363 9.30243691290387 21.840807750007997 192 193 200
2.952469926497072 9.2649909875059 21.75805848949538 181 187 187
3.5290123430268565 9.249857126887784 21.666834452550066 180 183 184
3.5290123430268565 9.249857126887784 21.666834452550066 180 183 184
3.8052580527039312 9.19295512205405 21.645269225019504 110 109 113
4.895798552513929 0.4796664016905755 26.196242220854206 51 59 60
6.4113500559876435 7.836455080037768 21.7993258754356 26 29 29
-8.093457698672191 9.390424706919697 23.238007010967827 154 151 152
-7.510965137300256 9.37213794029411 23.131165935963054 200 200 202
-4.914389588535345 9.343088892664229 22.781616978883292 128 126 123
-4.402381497886466 6.69482401502206 24.550583441602488 32 32 28
-4.233438053607962 9.342377415082156 22.72641344836697 195 195 199
-3.9834911721771036 6.284984325486258 24.4709055953411 34 37 39
-3.69359736854507 9.286017622286034 22.578858586946296 145 146 154
-3.584581778758568 9.37853501975296 22.570661489822157 140 137 138
-2.4664127340646664 9.240214205279084 22.45417021629263 118 118 121
-2.0577201750692913 2.5961072229979387 26.030358145625762 36 44 43
-2.173721052114137 9.294873118145635 22.337738249615228 197 197 197
-0.9332329539712675 9.300122934478381 22.103478208703777 132 134 136
0.11910839956018843 0.7823094887542066 26.62158309348974 51 64 62
0.45084609434357753 1.1400907641697253 26.38653245316116 49 56 60
0.28921243181615125 6.682975909252766 23.305317936831823 29 30 32
0.28921243181615125 6.682975909252766 23.305317936831823 29 30 32
0.582174288729128 9.13071094658272 21.81864473120492 108 108 112
1.268723460578702 9.14460410171702 21.54361646476019 190 193 196
1.9608017639301678 4.745184272680443 24.50369654542854 30 33 32
1.6510732898484701 9.11530031564398 21.57153356517681 156 156 160
1.6510732898484701 9.11530031564398 21.57153356517681 156 156 160
1.6495558579526288 9.197096149674271 21.53466988824472 182 188 190
2.158444036296723 7.858059976856366 22.305767485922054 24 29 29
2.108235694863786 9.089509218376648 21.43862612155797 178 181 184
2.9382787628987366 9.084690988012252 21.205058671172207 138 140 140
3.4083669375583274 9.02678755846585 21.147603295211134 113 113 115
3.4788477130697513 9.020477768384152 21.13351668040411 178 180 182
5.216077995655435 3.574609918385313 23.767046960594836 45 43 45
4.841922402238867 7.00525656667452 21.822634933996216 171 174 175
5.5377455597371 3.010444398183825 23.84866819468456 29 34 32
5.987675576484047 1.021673585895789 24.896400592804852 40 46 46
6.103794330721694 5.916469993719145 22.209681646178318 172 173 171
-15.449830129635126 -4.59869376045899 31.694470621188323 101 98 90
-0.02077428519478622 2.9722059160793637 25.683342745795883 36 42 42
-0.02077428519478622 2.9722059160793637 25.683342745795883 36 42 42
-0.13163601046227374 4.364340184657756 24.744775215257043 27 33 33
-0.13163601046227374 4.364340184657756 24.744775215257043 27 33 33
2.179584089827452 1.0998197488956847 26.28118647137971 44 50 52
4.1489791041768305 2.4713018115092997 25.089686231363896 186 189 190
4.050558945310815 4.278716019909025 24.20094529438847 23 29 27
3.7938761099235485 6.557770368224641 22.94710111246588 24 27 26
3.7938761099235485 6.557770368224641 22.94710111246588 24 27 26
4.581609790860699 7.63021544148485 22.236652447017256 27 27 27
6.630580640942084 0.5982738815607518 25.532178711561123 27 37 40
5.937418426797949 6.0040164875947015 22.630287200485675 21 27 25
-13.460828115059789 -5.317263653744966 32.185745459542154 38 28 21
-8.047574179369644 -5.386930803869446 31.89815120763901 87 85 85
-7.637632096634098 -4.415146328706948 30.973066765803733 97 100 101
-6.361301851000615 -4.49039853648234 30.9737569717987 162 167 165
-5.4474996825550726 0.7282461487377204 27.529654866630917 52 63 63
-4.571012584123525 -4.479888410263239 30.72731058304359 124 130 128
-3.6387490628138055 6.963043184098936 23.93541076408975 30 33 34
-2.7948575682156602 -4.741061780759739 30.642830099118612 161 170 170
-2.6653613929064996 6.908249387964965 23.85999104306256 29 32 31
-1.1276762915269876 -4.8427161900168665 30.40740517372583 159 165 160
0.16408146975785204 -5.641883413288889 30.691427006517937 94 99 99
0.44395584658591736 -5.6579525566994455 30.65465510589786 93 94 95
0.42911085827986856 7.296545812034313 23.18070119365379 29 32 33
2.056445157935869 -5.434334475085797 30.363977465064398 82 84 83
3.2276609155998455 2.1430229697896954 25.41973442457023 189 195 195
3.2276609155998455 2.1430229697896954 25.41973442457023 189 195 195
3.87444862536208 6.499182496167445 22.985394704571867 27 27 27
6.043929535818195 0.2611077099882581 25.96488891506428 42 43 58
6.075753463731131 2.3731480016433157 24.484385744259992 29 35 35
-7.86090186187031 9.354443809586916 23.009351186905732 186 177 180
-3.491197178498343 -4.828916476409442 30.86569597256494 109 110 106
-2.818847025149494 0.6622820935940029 27.26372828109649 53 59 59
-2.370457273712054 -4.508738583747952 30.5490113224128 161 167 167
0.03118068553380617 -5.153889391985723 30.674782399166094 146 154 151
0.11117595945163135 -5.701579746295518 31.038399993311664 96 99 99
0.41392181285759505 9.233141093369815 21.895500658483748 131 130 139
0.54693198404882 9.244732498373306 22.061860025192303 148 148 152
0.7817006190931199 7.147649314025788 23.105799920039807 184 191 193
4.030529380445501 1.2656605241142949 25.944750472746577 51 59 58
-7.003081956334144 9.394086637926124 23.287153987149026 146 143 143
-7.778767122089 -4.555477106263619 31.76289171015582 79 78 79
-6.61483410684059 9.402684206157184 23.2059779961404 152 150 150
-6.185724205657415 9.366342859211874 22.969166643735598 189 188 191
-6.185724205657415 9.366342859211874 22.969166643735598 189 188 191
-5.687613366736577 -4.533557930075487 31.320406571328498 104 103 103
-5.212639820904771 9.307770282922737 22.713400841063255 154 153 156
-5.688056344722131 -4.47158648193007 31.441020544205994 163 163 163
-4.748695360728742 9.281211306541731 22.647102203572917 153 148 150
-4.752792241995805 2.3241062925838865 26.841538082490587 186 197 195
-4.519978250736687 -4.27658214809807 30.978921623056372 131 130 131
-3.2211670577485494 -4.600289618322425 30.694037089114623 117 117 119
-3.016192945138796 9.410666697667288 22.78660264834541 148 148 149
-2.3198248460992557 9.173492486512473 22.033319068633173 122 122 126
-1.7690928986479295 -4.425545073175055 30.75642351812042 134 133 133
-2.1080622670264644 9.144060211708439 21.97303339921043 123 123 124
-0.4811616106425281 -5.1332349754236795 30.744170555837922 138 146 144
-0.10526365919869188 -5.1346253048359625 30.61390673515456 140 147 144
-0.10526365919869188 -5.1346253048359625 30.61390673515456 140 147 144
0.020863862508105215 -4.8986476458157995 30.396039446127364 155 167 164
0.06542973531408217 -4.956357758774097 30.76702393895534 155 167 164
-0.8409121117583707 9.01855437816951 21.71484301162221 189 192 193
0.6382336459100398 -4.639077613764445 30.318002145993635 158 164 164
0.33105998003423115 2.550614967039926 25.43769270714958 38 44 46
1.2498651114054802 -5.53697740811343 30.111726723221846 93 96 97
1.5715824157684077 -5.0505595128350045 30.57084101295918 142 149 148
0.5088293128090146 8.927335343029684 21.33022997623969 108 108 112
2.161618007146497 -4.008865099629209 26.61592831615423 101 106 105
3.036758326913877 8.859091688020968 20.551794679152305 178 182 185
3.0756988596820025 8.791983395101889 20.59768517303809 138 137 139
-8.19565293550001 -4.639436062153605 31.722926284473388 105 102 104
-5.665819878532405 0.9503457789645118 27.995716716493625 56 66 69
-2.2596048845105234 -4.644421769575472 30.58460819309331 100 100 102
-6.0307436209923315 -4.777066907817125 31.22634799664348 118 118 118
-5.326544873081016 -5.405024750281278 31.571474913367048 99 105 104
-3.642203253496005 -4.628174262023085 30.84338428629566 120 124 122
-3.642203253496005 -4.628174262023085 30.84338428629566 120 124 122
-3.56360983318659 -4.6990252007954005 30.745781292011532 163 170 172
-2.338845343447828 -4.567498534872074 30.697184536576305 163 169 169
-2.2356581464947207 -5.458914669014245 31.241074013511568 113 121 121
-2.346905886057828 3.5870319191870945 25.544923677947388 34 40 40
-0.8329999415638452 5.424617325806902 24.492200270033553 38 41 44
0.9702887939860597 -5.091402660967318 30.3989913567463 98 99 101
6.667756009693475 0.5796874969178242 25.609440911587747 33 40 44
-11.212631061228151 -1.382214878175693 27.226961044134946 21 20 16
-3.775065678160834 -5.3115558826593245 31.223931938955257 102 102 102
-1.2518785545265625 1.54870781636383 26.72364566926647 47 53 55
0.26153343469380286 8.59929101466702 22.735535062240814 193 196 197
1.0701794262458497 5.470939025101517 24.197711359781113 22 28 26
3.7794490362955404 9.195755187451677 21.510380565343784 116 116 119
-6.79702104737607 -5.1515213695684725 30.997504785735444 85 85 84
-6.1796524463889195 -4.452187479249277 30.564014182192548 158 162 157
0.3123782722192079 -4.445266316833587 30.226390667457032 104 105 110
2.1039473961831843 -5.192695119882042 30.382543803294464 100 106 107
-1.549138717128247 0.8387430903199806 26.954653703145265 54 61 64
-1.5686222637476503 1.196940011160552 26.92413757316165 186 192 192
-1.8080656137170068 4.7857042845882924 24.952960035038124 177 185 184
-1.7888313139274183 4.386795700224597 24.9478493891894 29 33 34
-1.3416631367853418 9.369046804199888 22.288671026444657 119 121 122
-1.2958889536664393 9.2920781836037 22.350219717421897 121 121 122
-1.2697119362279778 9.33625330365775 22.30613733150292 178 181 184
0.2742081579368938 4.768849077920983 24.72710406359088 28 31 32
-0.1320896340460553 9.267994480848097 22.122216271294267 129 129 131
1.5872289736118341 3.7631089980365404 25.071218443103547 163 169 168
1.9144679462185696 9.215413821675407 21.80878667923059 124 123 123
5.916428886698402 3.9932280202917667 24.27171392184274 22 25 26
-6.805066710002198 -4.402153722832337 31.178019383950794 107 107 104
-4.393534148576029 6.647593378576358 24.317578183181237 28 32 27
-3.1719244971537406 -5.356720412872348 31.221587904947086 101 104 105
-2.4612817212267455 4.170663413722219 25.36982171218734 31 34 35
-1.3443562149023003 9.364012865822936 22.28133282217729 135 135 138
-0.8898236973611257 5.593271458092357 24.35665383849335 181 187 189
-0.10160915435887828 1.3529821891765685 26.626546689054628 55 61 63
0.02951571625129413 2.5855080725202377 25.837834841583657 190 198 197
2.939902101107681 9.207855908713714 21.723040447564745 175 174 180
-4.170119920515773 9.442132730688417 22.736683831076185 144 143 148
-1.226604137433384 8.611535610556588 22.731734500316584 187 190 191
0.29860792338900743 7.814695033944808 22.861460873499652 36 36 40
0.5578075303235822 9.349370744657907 21.99235277450952 142 145 146
2.258009363515112 6.537572046172943 23.4311915101617 27 25 26
0.06993105190100933 -0.484095432571382 27.824262042850254 64 77 76
3.7620087015250334 2.123323310787292 25.67149960774116 189 200 198
-3.6074874954371716 6.938450699081403 23.857091998103925 31 34 35
1.92913999929102 0.4829779877818454 26.94817456865075 60 70 72
-1.5616630693562572 5.985707886558128 24.299017346004288 31 34 37
-1.414840039704073 5.619307171197593 24.40919348209829 190 196 196
-9.460157939312497 -4.311714806088576 31.864354547241877 59 58 58
-8.46655250967047 -4.084412181856604 31.359742172163518 123 123 119
-8.46655250967047 -4.084412181856604 31.359742172163518 123 123 119
-6.567938711476446 -4.260420159058227 31.317601389109477 127 126 126
-2.1788714725909015 4.771099796844764 24.93258730055281 31 34 33
-2.1879041267705883 4.74816314078289 24.7612986334559 31 34 33
-0.7349307833223073 9.121194955986052 21.998846900429246 130 129 131
-0.06699882713506182 9.19437562260349 21.83910524161249 187 190 191
1.1610197741500863 -4.40528238694596 30.182680891497803 135 138 138
0.29709405519785625 9.116900015420825 21.681386229656372 170 169 176
4.056009301340484 2.852557746145888 24.848774390107547 35 42 44
3.677704291032265 9.028893999977553 21.166408645089003 177 179 181
6.038615082278697 2.4033754468077437 24.429046789181665 35 41 43
6.433651999975238 7.778949356802187 21.79519041618182 20 25 24
-9.062234169272436 -2.6031191197827717 28.33100947005234 82 82 78
-9.064637168986717 -2.9700141398664877 28.94888713809439 86 86 85
-8.772584045035345 -3.523317901152338 28.17660998872101 92 86 88
-9.047212147923108 -2.0438230952250143 29.156792880439376 113 117 112
-8.69317598428884 -3.554596417132587 29.015084007727502 134 135 131
-8.69317598428884 -3.554596417132587 29.015084007727502 134 135 131
-8.368422880742678 -3.6008249451151544 28.789705719733156 96 93 96
-8.368422880742678 -3.6008249451151544 28.789705719733156 96 93 96
-8.390157754017807 -0.7620383910140804 27.77716039940037 70 66 67
-8.39479470102909 -2.970849291871378 29.029179360955617 91 88 84
-8.211056421257616 -2.0602137552911133 28.178036238550142 92 87 84
-8.145244213588912 -3.5753891168923193 28.64713289359115 94 93 94
-8.1655948672022 -1.6766311193264898 27.99638645866792 194 193 186
-8.098003211110141 -3.4445636329108065 28.434124965295567 147 147 146
-8.196908177196082 -2.4543179293080923 28.63327839308321 118 115 112
-8.195851925216042 -2.681577646720511 28.784200135206785 103 99 96
-7.987822412984983 -3.5087826594357368 28.934341398118537 192 189 184
-5.802654925171991 -4.430636302300477 30.876858274902048 109 110 106
-5.71113795192326 5.043495963740556 25.231991512455743 42 42 44
-5.675496074209542 3.249650456552539 26.463111530814956 35 43 44
-3.7495270085217194 3.03176785851342 26.24010093716352 184 190 188
-3.7957118889537798 6.879815106320594 24.31602945908193 32 31 28
-3.216284569739898 0.16567629392012564 27.85908125496692 60 67 71
-2.829843426520111 0.24831515727202544 26.541479232902653 67 73 75
-3.071706408888827 7.462982016538877 23.58897072058656 176 184 183
-2.5577355823558086 3.8304573184003585 25.573440328688644 177 185 182
-2.3258990371654247 0.21908913894602897 27.57269814664233 188 191 190
-2.5251394337385875 9.293809004049894 22.43290110643349 159 159 161
-1.9580090876505847 6.578627315706124 23.968568393424736 26 29 28
-1.1359939342499679 2.1634523793711575 26.283162897624 185 192 192
-1.1359939342499679 2.1634523793711575 26.283162897624 185 192 192
-1.117539426275724 1.7894175129897445 26.268726239867995 51 54 57
-1.3043191216778651 9.241405133295608 22.262134809744413 121 121 122
-0.4449650339991731 9.270595480295505 22.189794238179125 139 139 139
-0.4449650339991731 9.270595480295505 22.189794238179125 139 139 139
0.5468262771096453 1.1925031657524467 26.843000899949786 45 52 56
1.3847608940038592 0.36977492766856096 27.13929771094364 59 61 67
5.004435777032636 0.3057104412634166 26.4535999103853 40 43 45
5.705199119979541 3.118401009407097 24.903725503545047 25 28 31
-3.4917876421888137 9.241051703353547 22.520656738644604 158 154 157
-2.035180163559346 2.633671587812438 26.16651031919341 41 48 47
-0.40600910625238024 9.136691089333162 21.856240603501558 140 138 138
3.4640701096856366 1.7140831308868039 25.986106514325286 45 45 47
4.0330516807211225 4.265775565144544 24.092295560880075 32 40 39
-1.9383717634763513 6.6687298093902605 24.186560997140216 28 31 30
-0.02523714067846573 4.536547331554237 25.5458971880153 27 35 34
-0.0737478091011841 4.4151111763964135 24.864672782449126 27 35 34
-2.472081109532942 4.163871400847676 25.35295555659739 31 34 35
1.8774003353346804 6.177819329535938 23.75510973169615 27 33 33
1.8774003353346804 6.177819329535938 23.75510973169615 27 33 33
2.8191657809569324 5.591831276955976 24.043734796840102 180 182 181
3.1312412034436723 8.823665374062449 22.7790938080863 181 180 180
5.692333743174614 3.910644769347186 23.76480466277561 27 30 31
1.977573377533914 9.296523547074083 21.970124449651923 124 119 121
4.777439740985702 3.394372854759496 24.174965215536577 170 177 171
5.944647010283585 2.3652479034016975 24.156085284276486 32 35 36
5.874783916779163 6.671974783386658 22.76556061991055 27 28 24
5.874783916779163 6.671974783386658 22.76556061991055 27 28 24
1.0224287231452005 0.014336467519708873 26.828725931474033 196 202 202
6.679710548859193 4.291153601628174 24.241415741781477 27 30 31
2.2569428307981725 6.530698682325672 23.382952695218716 32 32 34
4.428157646497721 -0.7209847927424982 27.50862655924903 67 79 78
-0.7598014117093855 9.500863563662183 22.503021695371206 163 167 168
6.255067755819614 4.734260296432529 24.097747239328385 21 22 18
5.293356625066209 7.541950463298261 22.312022950150926 24 23 23
0.17242530990417265 6.186167526776196 23.712512717282184 32 35 38
6.393570006989907 6.040967579488093 22.765782631751943 172 179 179
2.4730748188506557 0.8154802015622599 26.37246229595502 55 57 63
2.4730748188506557 0.8154802015622599 26.37246229595502 55 57 63
3.0783717886070794 9.434636893974522 21.95951136148507 125 128 129
7.561471300863729 -0.12258978209871003 25.730787269092218 26 32 34
-2.670531138187859 6.914661645776567 23.871712555115835 29 32 31
2.2913928944716524 9.334255285961419 22.060171974462623 172 175 176
3.185047837757508 9.388733495341237 21.854915147561663 129 126 131
-3.7999950127115594 6.81749976140038 24.043853333951542 35 33 37
0.10923397634654138 9.292578423384532 22.23623473537733 142 142 146
0.11872678297890966 9.274028688492493 22.2107465328424 142 142 146
0.6921504061574295 9.26501390459 22.094555172870837 118 116 119
2.1083458496640066 1.1894238089343818 26.252291723830613 40 51 49
2.1083458496640066 1.1894238089343818 26.252291723830613 40 51 49
1.49334594662521 9.427639238186295 21.947029455300534 135 138 141
-4.042973140275325 6.362733247882875 24.489666414292056 39 39 41
-4.042973140275325 6.362733247882875 24.489666414292056 39 39 41
1.7987852373794606 9.135277742205668 21.761690239203826 136 138 138
3.829052445556753 4.833837589693039 23.963824668213906 34 37 36
3.829052445556753 4.833837589693039 23.963824668213906 34 37 36
5.965487138343169 0.2731805612567107 26.41120303130133 186 193 193
3.7763698293478005 2.134273609035649 25.738212994965032 196 201 200
-8.282987315718314 9.595318816578121 23.378357278738793 123 114 117
-7.889346868054156 9.56573443119293 23.31666239494998 195 191 192
-6.29441097060329 9.490003167637688 23.00987289783289 184 184 182
-6.19837096561706 9.484419754105101 23.02261446452141 189 186 185
-5.259171444743739 9.422660850200288 22.82995314423343 124 119 124
-4.841900805196774 9.405250539923916 22.729135600964923 184 180 181
-4.393912144498998 9.3964482618992 22.620657631969927 185 186 189
-3.9566395692783756 9.356272745075596 22.59148271843034 122 118 119
-3.5177470955059715 9.284931252595563 22.502396311034744 175 178 180
-3.2885677317983806 9.353575492974073 22.485126277871224 175 174 174
-2.931726717580284 9.331663829162288 22.413299149781917 178 181 180
-2.502049502797411 9.372511897756604 22.34778927832185 113 113 112
-2.3355537774346287 9.382911516255687 22.3498680343546 120 122 123
-2.1560396942902345 9.270479003887099 22.317831406983156 129 130 130
-1.6921147055639585 2.978853135875845 26.019892869347135 22 30 29
-0.8599638708596158 9.32750114381101 22.077697505925403 105 103 107
-0.8295338341871968 9.212433065268131 22.117635340434163 157 160 163
-0.6894493344420252 9.358976009196441 22.120468402424237 166 174 175
-0.6396464745702689 9.31417118623128 22.111438132772506 103 105 106
-0.4830363539554823 9.341915316762494 22.089547675838837 119 119 121
-0.3043032616222912 9.287573025233687 22.186770029799163 113 113 112
-0.17707631110483618 9.29327521324157 22.073203839196754 164 166 167
0.23856787524004755 6.19382945699802 23.926260398088637 10 18 15
0.23856787524004755 6.19382945699802 23.926260398088637 10 18 15
0.7006084269500434 9.345012485551063 21.964790950386405 104 112 113
1.1621453068492058 9.198001882530127 21.774214440571384 154 159 158
1.8266415369986058 9.19588223716797 21.666669153348913 94 93 97
1.9167750775411483 9.216156075173195 21.621302779817597 115 118 124
1.9770291991419329 9.204622201208787 21.675091684143688 157 161 165
3.3874430487547316 9.181629719977263 21.47340695951595 101 102 104
3.7379621286747233 9.172576743921644 21.42041335932495 102 106 107
4.406077744058089 6.054172016151089 23.19144143993259 15 18 17
4.403521385495391 6.0542270635508615 23.181074304160656 15 18 17
5.732209777155147 3.6115653224634414 24.3354765846942 139 147 144
-2.7004732600228505 9.385719958068897 22.589998681158484 197 198 201
0.7936290368049699 7.231237488988332 23.338662871026052 184 191 193
2.316499323640688 4.223325356166076 23.831545341275735 32 35 36
5.954552121097567 0.2846420652775954 26.36781380270703 187 195 196
2.9643920365177947 9.266374639167704 21.665096829444963 181 177 178
-2.768599440041183 1.9456089952428146 26.347652459575638 38 47 45
2.56541930592155 -0.3602260932940613 27.420306863536233 66 72 77
2.606991607517095 0.7378697612263431 26.852446058868907 55 63 64
8.247231541852118 1.362588807616725 25.797957277139904 50 52 58
-3.0718689168676687 7.690147349092672 25.3538539119314 34 34 34
0.4900644729674089 1.1365341146589414 26.80560446291623 56 61 62
2.000708803939592 4.725518974340011 24.58915549090969 36 36 35
0.13270403242610637 0.7739506266919716 27.077126953319805 56 65 64
2.296783770816411 9.01896686412524 21.486881486530645 154 159 164
3.501276424975364 2.0410369869933818 25.776347117167152 46 54 55
-4.926336310448666 9.429012940420657 22.799143198160984 131 127 130
0.3855726033223502 2.6066720704371624 26.008406146377677 39 45 47
8.189026092050234 4.112244341122486 23.707071701589776 26 34 31
-5.988771408556903 7.656849553664088 19.40327650180196 195 191 192
-7.065740618697467 9.558627772156024 23.25908994582893 195 188 189
-6.161228733413695 9.501697104406096 23.065034679779853 121 114 112
-3.4780930405298243 9.263752503316288 22.53880790940713 130 126 125
-3.292174607201905 9.359414293888591 22.498037329787902 175 174 174
-2.0084246230437817 2.6141876058814355 25.960503190163994 21 29 28
-1.6864610987245037 2.9799947809749185 25.97466721607334 22 30 29
-1.4531537975282736 9.28626698106821 22.244827184265493 168 173 174
-0.1843908855611263 6.459080754911181 23.4236488831503 16 20 18
-0.21048952645975233 9.242247074594331 22.05803007627146 107 106 106
0.6916610564160764 9.234523444304973 21.75670003101301 104 112 113
2.4631363330729408 2.904888897679465 25.593404581761735 19 27 28
2.4631363330729408 2.904888897679465 25.593404581761735 19 27 28
2.1277975587686377 9.26817201873876 21.673076302381997 97 97 99
3.6257928041845866 8.984556166488092 21.29533791479581 106 106 102
3.9547256286292476 6.062448968748379 23.02655427146369 136 147 147
6.6382914957955625 2.797669342024274 24.934100688557564 21 27 25
8.117526335298082 2.7749553795851436 24.084505932013656 25 31 29
-5.567601812253841 9.456896832572342 22.874612724313067 190 190 190
-5.567601812253841 9.456896832572342 22.874612724313067 190 190 190
-1.523089322252684 9.238379177383344 22.251792025443685 173 173 175
-0.8724733791856261 9.190210522403692 22.14296785578981 125 128 129
-0.8724733791856261 9.190210522403692 22.14296785578981 125 128 129
-0.7131197817366471 9.272383179409164 22.060513313137744 115 119 121
-0.7131197817366471 9.272383179409164 22.060513313137744 115 119 121
1.558003854817727 9.20143101997055 21.684141568843838 168 174 172
2.2031282701998016 9.030024051748036 21.54489353121324 114 113 113
-4.211087994741053 9.376124042731812 22.63127269906561 184 186 188
-4.180826909697316 9.428702475988175 22.593738131561782 120 116 119
-3.480518768059856 -4.404605911539569 30.954279167164632 83 80 83
-0.036957268346742005 9.28287224730502 21.931946719399786 135 135 139
-0.1737627821446274 9.295502516542111 22.07695143562889 176 176 178
0.6973262239475354 9.311451230333988 21.89266988248493 120 120 121
-3.1912938188126323 9.341906127227052 22.456394003964263 182 182 183
-1.7186315855856467 -4.353363143116261 30.328258555095562 105 105 106
-1.2531565755374083 -4.496406553019341 30.897754519163424 96 94 99
0.6432766961974132 -4.449265684157128 30.4417598981762 107 107 109
1.1088640931031104 -4.443054470217413 30.334443459389604 116 116 118
0.3743428484972244 9.141222351915127 21.892665262539467 116 118 120
1.9269974008716955 9.146897420767642 21.66975217636839 125 124 126
2.0686690200957427 9.192592798451459 21.616324819864342 172 174 175
2.1984976062933677 9.19414212032607 21.50197260799604 120 124 126
4.547429607360017 2.4974360436602985 25.285375469658536 25 33 32
8.46035687409525 4.667583324893628 23.35670333718245 168 168 168
-1.5141781362785003 0.8340752410318469 26.95984683725946 57 65 66
2.8449142373182092 2.215394163871791 25.68013695624241 169 176 180
-0.3668463998472349 1.298319555480568 26.508320346050247 54 60 60
0.5592840581489578 7.68921958243755 23.104899324252322 178 184 186
0.9933430887382296 7.438267886241521 23.148262970168673 183 189 187
1.5116574399032239 0.3918826753964066 27.00431654612279 189 200 201
-1.404553457485959 5.44761175930475 24.471793796539007 55 54 57
-2.9959939744177224 0.4211130744965823 27.063745402954005 52 60 61
-2.1884702681177592 4.786346095715897 24.92996086679778 37 37 35
0.14532328968805694 0.7587804765466712 26.773722736037076 54 65 65
2.1089680690915156 2.565673440717716 25.859469164453966 41 48 52
2.1089680690915156 2.565673440717716 25.859469164453966 41 48 52
2.2635660763013776 6.632226509002129 23.720910957914985 31 33 34
2.598969237571921 0.7317821775202284 26.503928038060124 60 67 70
6.425964310163546 0.9722213173108927 26.033371753843337 58 66 67
8.266901916988253 1.3718493354498993 26.09996611074339 50 54 60
1.8739458140917367 6.574167035335962 23.579494239633483 184 192 191
1.8739458140917367 6.574167035335962 23.579494239633483 184 192 191
7.045849026529724 5.446634809478368 23.251379213946343 34 34 36
4.98790227979868 -0.5222891526253107 27.034040931073395 63 69 76
0.7355006204163572 9.350922853392637 22.05672123202779 163 167 169
2.668625695240776 9.387376219272284 21.8517556194602 95 100 100
3.6254245055646734 9.22681974200473 21.795694057642645 106 109 112
7.6324177721933495 -1.3153342405733435 26.68172067051837 187 187 187
