ply
format ascii 1.0
element vertex 712
property float x
property float y
property float z
property uchar red
property uchar green
property uchar blue
end_header
0.48238860130914696 -4.637921936868023 30.059073959138367 147 155 154
0.6242494930873193 -5.933617784598449 30.61956097414599 113 120 114
0.6973790295828276 -4.670457600503631 29.964062725808724 174 182 181
0.7153719078955497 -4.662778931263223 29.984412510733605 174 182 181
0.7765344527801925 -4.796376461931678 30.02242778485297 137 140 141
0.4496333654863537 9.221821619291127 22.265381773405135 150 150 152
0.4534391211507048 9.219645416086582 22.270510639068984 150 150 152
0.43735251289384974 9.266604179620208 22.330141078426912 150 150 152
0.9378864117164271 -5.022468755215635 30.1306136512766 154 160 158
0.7730459014764861 0.22581901453259992 27.103299126848853 202 210 209
0.7705883191924063 0.2215731007257857 27.05240102303289 202 210 209
0.9952026739649575 -6.233391093206434 30.81763753438545 131 133 122
0.9896216070654861 -5.570383150666971 30.400074057084254 128 133 138
1.0188484056397817 -5.467382818452781 30.250785716654875 112 115 116
0.768810712427015 3.4033420794402294 25.475941724150815 189 195 195
1.0333705545747744 -4.864240383377799 30.049431030321067 147 150 151
1.1116256691762576 -5.444856590792795 30.38322323148735 104 104 106
1.1254371997416255 -5.400058605287726 30.15863144097162 104 104 106
1.149610353938546 -5.305780834440965 30.20644212256123 151 157 155
1.253749703637291 -6.309283755210066 31.088635134757396 127 128 117
0.8070814799219198 7.072333393009048 23.34922850706387 189 195 195
1.392575910135285 -5.601586737634103 30.548933679643387 131 137 137
1.0269210786221854 3.543097457463062 24.54078239410335 45 44 48
1.4569923890635539 -5.451911103011816 30.219940726304646 112 118 116
1.5236422554422733 -5.048079448328917 30.05507354131851 153 164 162
1.5275033976995838 -5.173808218460713 30.074502225095266 145 151 149
1.7443321271888008 -5.652314703882907 30.485565586424666 131 142 142
1.8126544347795532 -5.059832235001045 30.023911014520035 160 168 167
1.8126544347795532 -5.059832235001045 30.023911014520035 160 168 167
1.9151340850661007 -5.211967734961818 30.04004934326464 138 139 133
1.7168357518700719 0.33566544458258585 26.98720047118596 60 68 67
2.144830773133911 -5.354470013789631 30.163223330674075 147 158 158
2.156587390253477 -5.36491345814627 30.252177118383994 147 158 158
2.2615284708614416 -5.217587604762655 30.007388451921152 126 132 132
2.2887760571277096 -5.107335136030313 30.19652875954472 144 154 157
2.363763854667201 -5.705099487704981 30.42538634332162 125 131 133
1.5690350048532162 9.254157486447601 22.122335944201904 194 194 198
1.5792029100240739 9.2062014073831 22.15280706632443 195 195 197
1.5629970104503628 9.327468561916673 22.02186485749386 185 191 193
2.5448284217027 -5.471520010886685 30.864490243912286 137 148 146
2.4882271983326287 -5.110271658535139 30.05290924419592 144 155 153
2.493647711762024 -5.124810463612454 30.12134943060654 144 155 153
2.4917830495197055 -4.75465130110706 30.007808693778152 151 162 160
2.5572526999901437 -4.633379459809131 29.695984528320878 106 112 112
2.6727580241263995 -5.268300487464004 30.212551453615816 138 142 137
2.770430250399502 -4.880164244442372 29.74811198323735 136 142 142
1.932838033634269 9.29339073325935 22.089442851697974 195 194 201
1.9443701131596887 9.347027949848147 22.208906989292675 195 194 201
2.845398843326221 -5.243870279679951 30.0273384485619 130 133 132
2.85984274824129 -5.080058074547014 29.883897186223898 161 167 169
2.8595845854350217 -5.085031270151414 29.90641199157899 161 167 169
2.9334783814176735 -5.799696273295556 30.47726365485085 112 118 120
2.0710397303320316 9.2951788558774 22.18026023399788 143 145 153
2.049542905112572 9.346061243050402 22.158112086140736 128 127 134
2.057712233289467 9.272767040138477 22.09951294311023 129 128 137
2.941239442911474 -4.665019229921467 29.710158512234138 120 123 124
3.1199283396292734 -5.069255915430186 29.888845996033897 165 171 171
3.1073804309639446 -4.65335032099631 29.530981532472754 107 110 111
3.2205535953266806 -5.786322646965623 30.30585217275665 121 128 132
3.2344011191778272 -5.807641986496051 30.408338243165865 121 128 132
3.2474969351719296 -5.25630345854305 30.012436438644922 145 151 151
3.2474969351719296 -5.25630345854305 30.012436438644922 145 151 151
3.228417169764039 -4.735286545319986 29.58533173808449 165 176 174
3.237980287876131 -4.752006171416725 29.684699715305683 165 176 174
2.568293673767576 5.488728992256539 24.116376890244815 121 124 125
3.30637718925943 -5.100497974505697 29.893698693598147 153 161 160
3.281595927097822 -4.640344035890723 29.5599135550577 120 125 130
3.397220625818127 -5.4049803259338525 30.04865511098544 142 153 153
3.3862804816397136 -4.925758011825376 29.76926507530729 162 165 164
3.4946040747018388 -4.691155104858722 29.693204888979324 122 125 126
2.623829028460711 9.265551307186234 22.0508148080487 179 185 187
3.920996723533082 -5.144948893919864 30.015669335418625 152 160 159
3.9572941839226217 -4.92578654525913 29.74609527245308 147 153 153
3.9778229404514476 -4.656328367722588 29.531161717138218 95 98 99
2.864617388104163 9.24524277768825 21.826576352194724 186 189 190
4.061937433076266 -4.806090020470893 29.75986099291114 139 147 146
4.045804278121855 -4.779889293483004 29.605806115342297 139 147 146
2.956664744900144 9.179284969588723 21.99843896555137 185 188 189
2.9628995629548243 9.18821554902341 22.015742960433283 185 188 189
3.5625858269869877 1.5144547365014025 25.97185617520947 40 45 54
3.578611708084452 1.507441897817838 26.073212074619512 40 45 54
4.277922103492635 -4.673827940509738 29.469181496309485 126 132 130
3.2851980044716442 9.196354575141246 21.968218334270485 170 173 174
4.604871412842187 -4.725901150204754 29.625421360568854 128 128 130
4.621673328437066 -4.957539518074788 29.595905267465085 128 131 132
4.684835746538656 -5.141935062515858 29.8333515544446 125 131 133
4.677096341525915 -5.130636746280711 29.760396513041467 125 131 133
3.9131911018137355 4.232672210787004 24.575885676170035 69 77 78
4.892579953214011 -4.696171744891339 29.429910143148295 137 140 141
4.285759398330345 4.22652334790111 24.533995443745372 180 188 187
4.7308508731401355 0.33181232727709886 26.63376157505818 117 121 116
5.346928653357179 -5.009668645949788 29.721301812292076 119 122 121
5.371246936850033 -5.1669362167722195 29.76664642662051 118 124 124
5.33565426837751 -4.608915661657893 29.384021505168764 137 145 142
5.029532481005186 -0.4691319217745733 26.965164085654635 58 69 69
5.710050088372757 -4.919463664732821 29.812385446040917 105 113 112
5.623624702432339 -4.722416116604604 29.281365458407084 122 125 124
5.198143456949311 0.163149029042262 26.480198178191632 62 61 65
4.482169669463977 7.681280858674674 22.699339721788608 23 26 27
5.87435102334872 -5.148761897609555 29.543588220624102 88 91 94
5.957630174621886 -4.996799431754105 29.234198767089072 101 104 107
6.0338908441270895 -5.14640112459884 29.42084633128634 85 91 93
6.094639043694843 -5.2036792169397845 29.735916101546792 85 91 93
5.164693358780655 3.0823897202587873 25.08044190565124 34 37 40
5.12399595493562 3.4559489115769604 24.89923274333074 172 178 180
6.1644943462199455 -4.887498648604309 29.568051358933253 85 88 89
5.901439198682215 -2.6118946481053262 27.81021910854899 195 199 194
5.115660416282895 5.351760130458922 23.897745409731527 22 28 26
4.854226428404695 7.5686536183183435 22.662604663325432 28 24 29
5.301398862789007 3.5626402987886734 24.68061508388993 171 179 176
5.8739642745025975 -0.5730900944341354 27.0589613532496 67 74 82
5.865572047865327 -0.5691132990551618 27.051721417951388 67 74 82
6.020611299466829 -0.7130957655631887 26.887884388020794 189 197 196
5.603562402289853 3.534878219343455 24.687016665884986 42 48 50
6.821341530194523 1.0909609818483021 26.02921996679693 48 47 49
7.017887749203902 1.3710410730028015 25.6373227026407 90 90 86
7.859036344897517 0.9970870497735841 25.904184656833063 65 68 69
7.920526570735996 1.2326390364023903 25.89825543831542 65 67 75
8.09390946610608 2.79448164221993 24.725494642518786 142 150 151
7.973766792601527 4.4242096783418905 23.029249355541292 181 184 185
-9.550247071215932 -4.314129163349776 30.565989977445913 86 87 83
-9.112111752069753 -4.208972505807529 30.158552361856934 62 61 61
-8.68273272465283 -4.180079186254083 30.079387036697675 96 99 98
-8.403870128245007 -3.982857808919084 28.836964441871423 96 99 98
-8.616240270761256 -4.133497619508649 30.240774733632225 79 80 76
-8.37977859154211 -4.720858770932544 30.80501521350366 106 106 102
-7.919360288293398 -4.560975029724852 30.47097210154798 126 125 127
-6.626880980070458 9.122590071133029 22.479355307752982 146 145 145
-7.405441591603452 -4.517572768805267 30.603754040795547 136 136 136
-7.082284869801594 -4.450454988802346 30.806302936895836 109 108 108
-6.7666726419411045 -5.352318058717127 28.96651841002371 130 131 118
-6.477940874350216 -4.619938587903888 30.535751190767126 125 131 129
-6.321697629869925 -4.561423616291816 30.528346552969722 148 151 150
-5.689778910274967 5.161189638589896 25.080428865012912 188 194 192
-5.94526656139771 -4.632813426573928 30.554559778944704 151 155 150
-5.758189746874809 -4.904330450277115 30.655958426895957 126 127 121
-5.250926969665073 -4.9578276462478055 30.756324454714935 107 108 104
-5.015401980240789 -5.570404507029767 31.031952955697527 127 133 133
-4.803351870565424 -4.383272133194192 30.3968961064596 158 161 160
-4.274998530485155 -0.4972530157303484 28.066605073095793 65 76 76
-3.8180415894663886 -4.554923147497643 30.35438343821671 137 140 141
-3.515528244252824 -4.736606893236989 30.30559715893829 146 154 153
-3.5090849061880274 -5.470925073697204 30.623269602219718 131 137 135
-3.0414711392131477 -0.30254817728973804 27.78814157596997 68 75 81
-2.903374650417085 -4.823641289376598 30.395916809692377 160 166 164
-2.8724758382062583 -4.727143135080643 29.9895254294114 160 166 164
-2.8426492107383634 0.3308678132446342 27.436935562430694 188 196 195
-2.5756993280465386 -4.638227506882689 29.783792302623816 108 111 114
-2.6408138677104684 9.320401611653987 22.899160005826158 193 193 193
-1.2158421285544323 -5.345619266534536 30.47806371755836 135 143 142
-1.5797040764495722 9.26978898373159 22.542254287724568 190 193 194
-1.116817084547923 -4.9826956404447245 28.634643585488877 113 119 119
-0.8951490098023328 -5.223689492313747 30.577792732879498 131 139 136
-0.8713364246100707 -5.394638524406315 30.57219775252878 129 140 138
-0.8655985749550607 -5.401461105670671 30.580719932096496 129 140 138
-0.6133257673327459 -5.037057771690764 30.188453444275257 114 117 118
-0.5597930506342818 -5.324668725329424 30.539204759511705 118 124 124
-0.5738862441947306 -5.206871331439155 30.43452072012791 139 145 143
-0.5687362761934524 -5.206559402484538 30.406124586176087 139 145 143
-0.531472823400847 -4.877845022116891 30.742598641797517 149 152 153
-0.4309778827872288 -5.304085069208121 30.358059460423384 89 89 89
-0.4309778827872288 -5.304085069208121 30.358059460423384 89 89 89
-0.3809090811506829 -4.600869080007698 30.06956473066285 160 168 169
-0.2783330192494038 -5.111736932211445 30.369200378250323 143 149 151
-0.6010234710915635 1.2164386107379397 27.16001610136409 61 61 63
-0.7733578334801974 7.784202827146732 22.763564767533357 28 34 32
0.08222275977330211 -5.494653446259342 30.45381494745787 123 134 132
0.06962245560221912 -5.4957423973807975 30.390726390497456 123 134 132
0.112257373782156 -5.373132723759611 30.320014881545728 124 130 132
-0.2043052182200863 2.8837855650074715 26.04440725509035 43 49 49
-0.21187568037037147 2.8777277998068174 25.99376468302348 43 49 49
0.3758158363198486 -5.569395027127931 30.751673823086662 114 120 122
0.3304482830434322 -4.8338719712894855 30.179128373913247 139 145 147
0.6336099717836509 -5.420275429906072 30.569489367790233 124 124 126
0.28209147846151333 0.6422381287174074 26.976498357264983 89 86 83
0.8438027258774303 -5.173851195180939 30.330576004466575 133 136 139
0.832065616430247 -5.369165849551071 30.20741717372375 92 91 93
0.8664469678257368 -5.361608683095223 30.267308030822875 92 91 93
1.2498934553554588 -5.257631538827819 30.41532284774301 153 159 159
0.13712402703618162 9.133513056991832 22.01509876420509 193 192 196
1.3617918060978058 -5.336029628854163 30.437426779212917 139 147 144
0.7904356922275957 4.0864253957358 25.083693766072912 60 57 52
0.5507122554561615 7.068991014591006 23.179023331608587 179 185 187
0.4465322668758253 9.235498301495742 22.29153513446614 179 179 181
1.1610612724076401 3.966516880889236 25.40876112575807 28 27 29
1.1620052788017918 3.341384764582908 25.882702528119726 174 185 183
1.711467563592493 0.332554474686387 27.026613331410562 55 62 66
1.105670176770884 7.114712305008875 23.26480431553933 29 32 31
2.147278248044149 -4.6523724787746525 29.50235366784186 121 127 127
2.147278248044149 -4.6523724787746525 29.50235366784186 121 127 127
2.5615373709613936 -5.319263935386798 30.00641453260248 124 127 126
2.549307594291893 -5.3027012328561876 29.91660401384015 124 127 126
2.977478763096167 -5.379652337146869 30.13280284092119 117 120 121
2.531069256808685 2.19981421758085 25.927848617211545 103 103 105
2.661840167777523 1.2489870452854208 26.365950768132002 40 48 49
2.67012148022108 1.254575022868074 26.383620259816436 40 48 49
3.382900775042722 -5.394272905773243 30.00775541755907 102 103 99
3.5053908318537155 -5.766036291851823 30.025819227412768 89 92 93
3.5444480240164564 -5.181400145727921 30.078491588552293 121 121 121
3.515873729458349 -5.135661516112127 29.96190681927015 121 121 121
3.1151044382537147 2.053009762361746 26.123290754351718 50 58 59
3.1151044382537147 2.053009762361746 26.123290754351718 50 58 59
2.346249235189604 9.285273038468263 22.108491741103364 114 116 122
2.7735831056843887 9.312333783595566 22.060165836590212 176 176 178
2.7735831056843887 9.312333783595566 22.060165836590212 176 176 178
4.157894478226076 0.5279735077918947 26.933255804190765 191 197 197
3.14663153257832 9.401748566477115 21.965423825076797 170 176 176
5.217507974330102 -0.11098473880361896 26.69224262172692 189 195 195
4.872106024671437 7.592418973430211 22.735198280847914 37 31 35
6.817500934381585 5.623425810190898 23.386393951481075 174 177 176
8.08579530517041 6.443886979956648 22.911289357605945 173 173 173
13.45227598509089 10.247688439114333 24.00254489283902 12 12 8
-100.05008491993654 -32.62633373244446 170.9910032836082 24 28 21
-9.051499027515813 -1.9640314293544678 24.386632799368662 94 98 93
-9.1134020538517 -2.431010526055418 25.932788551303883 104 104 104
-9.180566972689128 -2.449043561311143 26.23581612589942 104 104 104
-8.889736316374854 -2.373822271314207 25.755110121270196 78 78 72
-8.847045895629263 -2.039195145325765 25.964017280766605 108 109 105
-8.67260488549655 -1.6264275903437664 25.01052931039976 95 99 94
-8.67260488549655 -1.6264275903437664 25.01052931039976 95 99 94
-8.549755748263655 -1.6510134000391201 24.683359338879587 90 91 87
-8.313420597217005 -2.430714326738129 24.550327011040682 110 106 107
-8.313420597217005 -2.430714326738129 24.550327011040682 110 106 107
-8.254316895197663 -1.9786048075919025 24.813980020909394 103 99 102
-8.34338910237247 -2.0685962019585933 25.81856019012696 114 117 118
-8.34338910237247 -2.0685962019585933 25.81856019012696 114 117 118
-8.31330618685443 -3.1459858170627526 26.105305184132995 129 129 125
-8.095006399953933 -2.7149220445688513 24.95292570896021 132 129 124
-8.128658484434784 -1.901376838690875 25.79054769070365 119 123 116
-8.158913156110607 -2.8225609418304303 26.28483882865833 143 144 140
-8.13943449246544 -2.0678141583553398 26.00983520362372 131 131 131
-8.006911358489887 -3.134152412558238 25.79763094123344 137 137 137
-8.109104296025388 -2.257030083958264 26.09457944221502 134 131 128
-7.914802634352749 -1.83582022255566 24.900314460817132 105 100 96
-7.865146414845535 -2.4949601730960014 24.861191188665877 138 141 142
-7.940349352118377 -2.643734530383432 25.890191549272714 113 109 112
-7.921135672881666 -3.2088499562891095 26.250196232487767 127 122 120
-7.435877790802899 -3.7570929981680456 26.37139161292758 143 143 139
-7.302658020699994 -4.127675750513379 29.357864653242306 156 159 158
-6.66338919102756 -4.494152074906664 30.248259218527433 151 155 150
-5.282051676473291 1.7733703043120972 27.204524964107964 51 54 57
-4.674784269608347 -5.391584539416542 32.41580271718279 141 141 137
-3.984983279214115 2.8718354988063934 26.173037040638036 184 190 188
-3.4727306737220323 -0.3579344180177477 27.59779981658539 142 145 146
-3.2425286435652216 -0.7632635148989634 30.201671987387297 125 133 132
-3.542627903842232 7.4237968249540485 23.94612761010204 24 18 20
-3.5990459146186695 9.098641891705654 22.320851221852166 117 123 123
-3.267689907252363 3.7547380759578513 26.012627606701777 168 174 172
-2.5580931600011003 0.07659676140755846 27.532491102762357 198 204 204
-2.6985674522581844 4.0652225896626915 25.42435444142001 34 37 36
-2.192530842720486 2.5490772798751844 27.655743487221063 38 46 47
-2.2991616900220224 2.4935099261492617 26.12489196857786 38 46 47
-1.3655105501128186 2.0388091607647265 26.46646867922997 65 59 61
-1.3603365800661995 2.007520462742508 26.388018457600833 65 59 61
-1.0786369227854318 4.858609067938272 24.750762551525934 32 33 29
-2.198349260389793 6.8820134580956545 16.281344973154823 177 180 183
-0.8051904007672054 5.89510547645818 24.279677764535485 33 38 43
-0.10373881405258137 0.6351448332346298 26.96749810360873 56 64 65
-0.27046407542200696 4.345653845371892 25.30100447768763 147 153 155
0.36981286425762 3.03778233390644 25.595630493792694 45 45 45
0.7842243349825774 3.4323115616165922 25.396326122602208 171 177 177
0.3287755034029792 9.243901640573563 22.288574258680214 157 160 163
2.035517400171336 0.9881706882054423 26.798880762618825 191 199 198
1.6074019265361248 6.063777539630564 23.553413972220945 171 182 180
3.7442975942788483 2.005439266104473 25.786458354236398 184 190 188
4.748919137750936 -0.07716216767225564 26.80652917930474 35 41 43
5.713322253838072 -0.0775944731656927 26.581520915563146 39 44 49
5.827603080363247 0.9336522984648714 25.229250601634053 189 189 189
4.881253850412501 6.5371501449368665 22.2790778100273 24 28 23
4.881253850412501 6.5371501449368665 22.2790778100273 24 28 23
6.285000098731251 2.373526051870523 25.632348819173973 188 188 188
6.379345912983324 0.4790451953538586 25.716366692772503 28 34 34
5.340967899094953 3.8332185940657992 17.061539683720294 172 172 176
57.96671366228477 -10.959345972383312 100.81829570957711 20 24 19
51.69988060322791 -6.290499802385699 85.36416486097993 19 16 11
-7.368811711226672 9.017749871198394 22.387226183678447 173 171 178
-8.301889709939948 -5.500953734896488 31.339148934120875 121 124 123
-6.654150874702179 -4.6415371196777455 30.649188809307176 137 141 136
-6.2628810739196 -4.849805287026187 30.479798995988617 140 146 146
-6.2628810739196 -4.849805287026187 30.479798995988617 140 146 146
-6.059071225774435 -4.709936584822742 30.81281147758348 143 147 140
-5.601493391500507 -4.924458470233346 30.626020427301704 132 143 141
-5.618990875960506 -4.973841028218588 30.8505008227858 132 143 141
-5.201086043545102 -5.45285218834243 30.941187501945233 106 110 105
-4.629259275543405 -4.261435102892774 29.5000081799521 164 175 173
-4.027099663041603 -4.79867210814622 30.27505970250858 124 131 125
-3.93668792143858 -4.789161138640761 30.55327961229833 150 158 155
-3.9140415264492603 2.5596401471629266 26.6009754564948 39 47 48
-3.7187505327218373 -4.994418355626327 30.602627220176082 128 134 132
-3.879267096272492 9.16560680233145 22.441440901044494 189 189 191
-3.4772739645660433 -4.833762254957767 30.94661865400815 144 155 151
-3.2290255258542615 -4.774661755070948 30.37120643854258 157 168 166
-2.7520122570837526 -4.8340218354596125 30.416307296481694 146 157 155
-2.653492885945749 -4.68973094236947 30.368643567124813 99 102 103
-2.2394556945463324 -4.8502317756454625 30.40455834124536 152 160 159
0.21360560874077097 -5.49975796312147 30.448724132169403 112 118 116
0.26980944600386925 -5.072475229236014 29.6258800311546 115 119 114
0.44230322126380667 -5.49202494214495 30.35297222108074 93 101 102
0.42849717268594867 -5.482263863674258 30.276078538071722 93 101 102
0.7627548459128655 -6.221700762667207 30.835505292482537 122 124 115
1.1133814927162082 -5.442864526698066 30.365482867767852 107 111 106
0.5366769852147688 0.42936150913801585 27.15200784553354 127 132 137
0.7069282635624026 -4.018592543122938 26.63448139668779 124 127 126
0.2388188454971716 7.258665361157838 23.419117105740323 28 31 32
1.6790127692330035 -5.584741076834951 30.13527933992765 119 127 126
0.6755151110859638 9.303464731282787 22.23473254095897 154 150 153
1.7076752896669298 9.225695586689802 22.10697036383489 165 159 163
1.720369829259401 9.262374432043664 22.136842735915216 165 159 163
2.6663351423417203 5.072339442381128 25.067862857234577 27 30 29
2.1353975800406784 9.265645074928385 22.088780673824786 178 178 182
4.11792168431484 0.5655584696645696 26.551120824855673 190 196 194
3.7792515349538753 0.5986159547700383 25.512385026951133 190 196 194
2.825755489477525 9.313006663841838 21.92648488988533 176 176 178
5.6900615749765 3.900429234389949 24.44199989413876 163 167 162
4.88422008987381 7.386616217457038 22.14373760755942 172 175 178
7.406564983787592 1.1157755143827683 25.739918664628952 102 102 106
7.4062572233087955 7.374753928376393 22.733640701057233 19 25 25
-5.935485099268348 -4.526710444666404 30.598874409159404 108 108 110
-5.786165292664422 -4.757065056430352 30.708953371125933 102 105 108
-5.786165292664422 -4.757065056430352 30.708953371125933 102 105 108
-3.862861738768773 -4.873778303324834 30.48490992863167 110 113 112
-3.7720634064890275 -4.88241738118645 30.7403879435238 112 112 112
-3.5445231930081973 -5.614558185552425 30.77335913503681 90 98 97
-3.108634172073711 -4.934178242058576 30.50274729457375 108 108 112
-3.0375942321822227 3.7886917719857087 25.310752243756273 185 193 190
-1.7856243251238184 1.0823134493962765 27.311888656424088 190 198 195
-0.6614539020615104 -5.450587675886726 30.852385115120637 125 131 133
-0.5804055044419761 -5.055014830549907 30.374063629522656 130 130 130
-0.28477026725712795 -5.128006531147844 30.39656724806254 144 147 146
-0.20578413862512349 -5.887456556038599 30.860051575993587 122 128 126
-0.2423733627142293 -4.913892849119323 30.237893973620317 94 97 100
0.032769423827702766 -4.914255440722166 30.213843946379903 105 105 107
0.551074482516132 -5.2931676390098605 30.32793318863603 142 148 146
0.6608506405696568 -5.281353112913639 30.208143463283637 127 133 133
1.0154395685129511 -5.8761803328918285 30.47462350777714 122 125 124
1.4923257412246345 3.73160441541535 25.720786694100784 40 45 50
2.84147717937711 9.355650456528013 22.275519385764728 180 179 181
2.8318200469454697 9.327975780901566 22.212430028940148 180 179 181
3.92793685185349 4.224476914295764 24.72079211433953 170 174 169
3.398897622535841 9.308033341041286 22.001346055709043 150 149 151
4.815237133608426 3.3819974116611355 24.973455489672155 177 180 179
4.815237133608426 3.3819974116611355 24.973455489672155 177 180 179
5.670815778193326 6.968475633878031 23.455276087381673 26 26 28
6.832214083429434 5.158749590058141 23.60446207747065 31 31 35
-80.80756595521811 -42.724138456898814 127.9150214263394 112 103 96
-80.80756595521811 -42.724138456898814 127.9150214263394 112 103 96
-78.95659056484729 -42.64139899975414 125.56474890391 108 99 90
-79.01942185388492 -46.95906401499229 128.66391949415248 108 101 93
-79.01942185388492 -46.95906401499229 128.66391949415248 108 101 93
-6.820499552025286 -4.354547716527668 29.457531597381912 124 127 128
-3.832245114558317 1.147934194762862 27.092059035695375 51 61 64
-2.6845436924980066 -4.86295912062729 29.96824295229056 106 114 115
-2.40667200404451 4.630279869280435 24.69588616393007 32 35 34
-2.3274422825353 2.4452652435271087 26.063758621947244 41 49 50
-1.4455890602646082 -5.022909630775269 30.261799823791883 99 102 105
-1.3883490166317791 7.339971955276342 23.285923556897817 26 32 30
-0.5976424800069097 1.3971166821662004 26.595181693859516 199 207 208
-0.18625565398033422 -5.209381854319721 30.351207689930213 139 147 148
0.21589209693149247 2.476391806418922 26.346777970794943 39 47 48
0.7661200154965329 -6.2209810427837064 30.860687346945646 127 132 120
0.730614700666957 -4.792157685852033 29.885070096354383 136 140 135
0.9700427413626737 -6.04480803347513 30.577029773157495 103 102 106
1.2330312812629662 -6.289741058283189 30.99378250745113 130 132 121
1.202856827485616 -5.6084944642971575 30.51935693035335 134 142 143
0.9018682317759951 5.425628372959304 24.50390167267267 22 28 28
1.302424066453747 0.25153737457669856 27.135552872458444 70 73 74
2.2768461532546627 -4.712768758621652 28.78232345809243 132 138 138
2.996249887560488 -5.398791384554855 30.244715098676377 140 146 146
3.3059583175679808 -5.101330061825981 29.887227458904164 140 146 148
3.382922746959151 -5.397629511022834 30.034150438359397 132 140 141
3.4520329753969112 -4.572946571513955 29.567615013722932 149 155 155
3.773258449748408 6.678027676112863 23.721383167272645 32 35 34
4.362426158517559 4.67701731498098 24.722079998414422 26 26 26
5.923995744901023 6.029540420119624 23.361571128550494 190 191 187
6.929963908473766 5.206373711534515 23.782530820050873 36 38 44
7.961684739591648 5.827691958440153 24.131419880280973 38 38 40
-4.050531130558377 -4.877578465980608 30.179160042263067 153 159 157
-2.9213207531757885 6.788369472403099 23.8633940655443 30 33 36
-1.0931698696905263 1.5421305671643901 26.75645606422447 194 202 203
-0.5135586126681847 -5.338493430758562 30.110137258131612 152 160 159
-0.36501463823744174 4.22953088397097 24.769333371085477 36 42 44
-0.36501463823744174 4.22953088397097 24.769333371085477 36 42 44
-0.4143127728327335 -5.201409038342348 30.337422291054935 154 162 161
-0.3261015286951619 -4.854752554820074 29.674399989616404 166 177 177
0.2857257817179837 -5.2660389546614335 30.334344582866574 155 163 160
0.7884186692737655 7.57405864066163 23.005920073671184 193 196 199
1.6923223157076286 -5.001066613047148 29.731325569538168 164 177 174
1.7822926803930805 -5.474659714106748 30.271094204674483 131 134 133
2.144474758092364 -5.334432051933462 30.082698191897073 151 162 160
1.8959520253110405 2.4162431079603945 25.72594431140438 48 55 61
2.361774060148095 0.6716914420079206 27.483186629070993 57 65 64
3.4242673412168827 -4.596240865718508 29.09689077566591 126 132 134
3.5731251913685185 -5.79646913974966 30.249224836213465 128 136 135
3.2326166736849977 1.5870019840414815 25.881746636487936 86 93 99
4.22010405897051 -4.71388130621844 29.023493539648083 146 154 155
4.22010405897051 -4.71388130621844 29.023493539648083 146 154 155
4.524809633608423 -5.812659361486114 29.755806221114195 122 127 132
3.942111468415677 2.7654042328730384 25.33060176767942 145 150 155
4.892209511136807 -5.3799616014723455 29.507778873520266 126 132 132
5.158805037201366 -5.450430052989797 29.882149815514104 108 114 114
5.6251747375120695 -5.035523799176692 29.834212151233775 121 121 123
5.771744208060137 -4.729311417827974 29.352669245890468 83 83 85
5.889883930527699 -5.293524354544742 29.704264882569674 109 112 111
5.464634659808294 -0.54579745193814 26.814473059561703 196 204 205
6.162671430673031 -4.890254670155185 29.564643088361642 114 120 120
6.588053995747166 -4.900371325394442 29.54750947918181 89 95 97
6.586134562945615 -4.803809860197 28.95779166699047 84 90 90
6.825440140561199 5.15226847999433 23.66026470612969 37 36 45
69.77371785003612 -33.86841807981539 121.22791053256609 127 125 117
-3.0857663768687824 7.258964272212026 22.865232853267724 203 203 207
-2.810351198874036 -0.3616881039654482 27.34490493893696 202 205 206
-1.1595896219689363 5.322408536885135 24.754539102953444 42 48 50
-0.17918311202342754 -5.19788340829132 30.251899824942562 150 161 157
0.24743624369060954 0.9989266613890775 26.88951006420099 54 60 60
0.6232494398908549 -5.593929768470789 31.588467458210324 114 117 118
2.080019598686762 -4.854425779491472 29.706193985714865 124 127 130
3.096541553871791 3.5125491640116695 25.20374183093616 32 38 38
3.7370291719503363 -5.405714472607907 29.92420647241422 150 161 161
4.0633764732658975 -5.855563696232156 30.23899297310958 140 146 146
4.755326231707757 -5.931625782917115 30.204456182912413 123 131 132
4.912806774219898 -5.006521310953149 29.789593097554484 125 131 133
5.156671581697532 -5.441266760765992 29.853661128337833 128 134 136
5.314839482974608 -6.393933070687849 30.37315363672364 124 129 119
4.987739973119101 3.266714997795736 25.075163110734902 185 191 191
6.1532361255331525 -4.728614852228914 29.29101361960263 113 119 119
6.255360582761725 -5.188342997974838 29.42704704629602 121 127 129
6.422872888595293 -5.198268768259786 29.622756223225597 113 121 122
6.49785252083171 0.5153395902019765 26.11650964820589 43 54 54
10.998261906666345 -3.837101639002196 29.031158267066324 201 202 198
-3.6032888653222317 2.6921546137808536 24.457073728953382 204 203 203
-4.384200034421375 0.651541289701727 27.519391884848254 40 48 47
-1.9639084699229985 0.6817322500504361 27.853226463250305 67 69 77
-1.561879026518223 1.8791528713324888 27.018442990032522 204 207 210
-2.2368707716493015 -4.877091077580257 32.915939450287986 146 146 146
-0.27519921420908966 0.6338183066629424 28.113238824562988 53 64 62
2.1943931401349803 2.9487339871925315 26.897340179491657 39 44 49
3.556524831093435 1.9882460244863969 25.796903331346495 197 207 210
4.149905259386698 -4.710207475439426 29.67398959615294 100 103 102
4.018592738666165 2.788130415611361 26.04248775049105 40 48 49
4.076348769455564 3.035946783420765 28.158606950947593 40 48 49
4.8386502583501985 -0.7041437309742468 28.04134135204506 66 74 73
5.040873463721668 -4.690244420471275 29.35793116894637 147 153 153
5.77341249052432 -4.880513135171583 29.60223385223736 157 168 166
-5.634749881120229 5.599373003246099 24.14871628531383 40 41 37
-3.599975668288945 0.7204112468079563 24.96626658743355 39 47 46
-3.3757073430394606 3.5986689620936505 25.74859850357088 138 128 126
-2.925048827085012 13.079730097519015 20.396847547942187 57 61 56
-2.9637283054570047 13.188815702589075 20.5861994772973 57 61 56
-2.3440132760794863 1.0298663780546504 27.652141188016856 55 58 57
-1.5719109681001473 12.96033258240044 20.820709734493203 64 68 61
-0.6912254739616946 12.857828859511372 20.178010153830446 64 66 55
-0.6912254739616946 12.857828859511372 20.178010153830446 64 66 55
-0.231492106626382 13.2862466650694 20.076900060666045 65 71 69
-0.2802629032243831 13.501463204886937 20.514358552484655 65 71 69
0.034381792044254636 12.903809802297676 20.197380060219203 61 69 58
0.052641779524799856 13.199217409983019 20.105233541536347 76 77 71
0.10532518007231294 13.485487051549905 21.26033377569713 60 63 62
0.10532518007231294 13.485487051549905 21.26033377569713 60 63 62
0.7941700426913563 13.34008739548229 20.279714054033253 63 66 69
1.1911157173311584 12.814133854830695 20.17945727652837 60 67 59
1.1973140631305084 13.177646141763287 20.078489540377543 69 80 76
1.356132144884551 13.243011653138717 20.20041522875566 68 74 72
1.3726002358579563 13.010983439268534 20.502004930314705 60 66 66
1.6601240969441087 6.3423783360406585 23.183831477806738 188 196 195
2.1043063566892557 8.906490867420183 21.503817799739807 183 188 193
2.5155513191231975 12.905599111791826 20.045389735765415 69 73 68
2.5155513191231975 12.905599111791826 20.045389735765415 69 73 68
3.268245463993512 1.9606505740523703 26.784233813376183 42 48 50
3.0290811712901116 13.362978102904075 19.957734155536112 60 63 66
3.0290811712901116 13.362978102904075 19.957734155536112 60 63 66
4.057775867224546 2.9329202315131697 27.844303419257155 46 51 56
3.6120953768343744 13.16230424960668 19.608233872988745 49 52 51
3.6120953768343744 13.16230424960668 19.608233872988745 49 52 51
4.362846704911321 2.7551808004612477 25.6052478951285 185 191 191
6.120705927429942 2.3302168670867487 25.744406136637856 42 48 50
-8.745329320149066 11.650187686020747 25.728173432199096 221 213 210
-3.2181457621809244 13.306809480798552 20.1188380578747 41 41 37
-3.2181457621809244 13.306809480798552 20.1188380578747 41 41 37
-3.0358722278278183 1.7661092326792758 26.492427387221067 42 48 48
-2.6334010007725164 13.207799699346735 20.665005378727432 60 64 59
-2.6334010007725164 13.207799699346735 20.665005378727432 60 64 59
-1.1251810136985099 9.285603182650199 22.287574036849595 200 206 208
0.26719143448805904 1.039019540748733 26.78744225261256 68 73 78
0.636828525440633 13.020217856317412 20.441585847641516 57 64 58
1.31338254830726 7.44449906052661 22.216755706289877 39 42 43
1.593760223709749 -0.05666824481714823 27.051460109057057 202 205 206
3.248840127044341 1.598104009573272 25.917907052407877 65 70 77
2.935784391827544 9.115021975337605 21.853986499981094 165 168 169
5.261675386661743 1.6555568672556316 25.64827411797559 49 57 58
5.1846108644036875 1.624015145956345 23.9529202555812 49 57 58
5.3072781036552055 7.020174855908986 21.83697612165433 29 35 35
6.2142020706370795 0.8914272345050857 26.26968971241519 61 66 71
6.894885757523845 5.427114963030907 23.55136479548155 39 39 41
-7.62262022883668 9.15581410616301 22.60944901961409 197 193 194
-7.488271472076142 9.205898057598104 22.449119789382912 172 168 171
-4.282741217938042 4.234482829087647 24.694143116401108 25 31 31
-3.6750446732346727 9.074146767627727 22.32900991179877 176 171 169
-1.0744432437695408 9.243541329285138 22.408843184670882 162 162 166
1.7628253350138596 4.693700513205346 24.80266531362349 31 32 28
3.2829147491771344 9.347225353711261 22.078967770469113 140 140 142
5.631267824062287 3.5402775721949036 24.779300633893047 37 40 41
6.2088476166554 0.9445608585706685 26.223013801855412 61 69 70
-6.5380303476553605 8.97960101764436 22.05243470042552 149 144 142
-6.753941458949969 9.639649217176514 23.513207345042343 189 189 185
-5.385730856525386 9.307229595619635 22.908870871725718 173 168 166
-5.355113164261529 9.46834125224215 22.887622602048644 177 173 174
-4.010252295798536 8.82368221497138 21.710163965683545 176 176 176
-3.6896347356978305 9.010906720534065 22.221812543423464 169 169 171
-3.5922191749231316 3.231916381763489 25.682755102759334 26 32 30
-2.465003529808243 9.329818060189828 22.608212870933727 144 144 144
-2.5516331211082743 0.09062142865705512 27.60702655501971 167 170 169
-1.8247728016208542 2.9816853903207106 26.067111075336644 20 28 27
-0.6640528866103318 1.6424211147224588 35.17707193997546 30 41 39
0.31046252204200314 9.168321755252396 22.101245293559728 115 121 121
0.45378154070110216 9.334408149343744 22.1379543723103 163 166 167
0.8082506185329503 9.305884298923566 22.258202226729452 148 154 154
1.313702197223341 0.27242707334944544 27.15851244722073 158 169 169
0.9457912643396386 9.254185266808403 22.091030945197847 119 119 123
1.6234552131372073 9.325745877657901 22.14091109698552 100 99 106
1.726641087001341 9.413616913159103 22.172116338384463 121 126 131
1.7755046864580837 9.32207990396221 22.119960634406393 149 155 157
2.31254365797477 4.316019181149735 25.202260511938036 14 20 18
2.963851005972389 10.614089963762487 24.66614018683761 150 153 154
2.536995272902465 9.056154623151023 21.684438965757725 150 153 154
2.8077723586190277 9.541990934461818 22.5475333089967 123 126 129
2.8077723586190277 9.541990934461818 22.5475333089967 123 126 129
2.9151813715345516 9.231110779876715 21.715939784644284 156 164 163
2.941061473743958 9.254372814300869 21.78586134335673 156 164 163
3.2495115102837553 9.353585320002837 21.996573400369943 151 154 153
3.3450333479205665 9.368900821363134 22.273834198995534 126 129 132
3.276278543519694 9.368070851540669 21.886578274640712 122 128 128
3.436480106614072 9.244262281247556 22.000164842551694 153 154 150
3.4339505364874507 9.399859698355888 21.96516644129622 151 151 153
3.5348594274362193 9.24559789057731 21.986042719509204 79 75 76
3.5439236436527413 9.278482958955177 22.051925528202922 79 75 76
-6.195108959501923 8.803207807254864 22.255838222819982 133 132 134
-6.155505559381243 8.830683778232764 22.194825238902084 146 143 140
-3.7050475644303997 4.083345171747492 25.221738720289682 31 34 33
-3.466989805142678 0.0350399668170824 27.141359047486294 63 75 77
-3.694560721291017 9.040832210763625 22.28594786823462 120 123 126
-2.5925728684070792 9.208225318714494 22.38097376463369 138 137 137
-2.135194239564376 6.089888727679259 23.882600982408633 173 181 180
-1.7627484966525953 9.161843285274845 22.146882501647664 176 182 180
-1.0724243711205586 9.173117439971783 22.274157402572225 133 136 137
-0.36001185950506 4.268028011006094 24.99217810167908 30 36 36
0.8694703776405314 6.5900485928300565 23.3215956372948 26 26 20
0.8045168540184543 9.277204273119882 22.07546122381185 110 109 109
0.8472382358716511 9.28512325392286 22.14821184493737 123 122 122
1.0532105289095697 9.34357039173633 22.108148210412374 176 179 180
1.2407340642597684 9.268073616631224 22.14845309643137 164 167 166
1.2385886583415304 9.269230616626587 22.12983868869239 164 167 166
1.7624186365553671 6.232916101666518 24.242826204777884 23 29 31
2.3465310949817586 2.899580593997833 25.656321895903464 23 29 29
2.6072721685286995 2.9521762742266016 26.54056413953783 23 29 29
2.1276019660649266 6.558048127936656 23.726869826172734 17 20 19
2.8912444475844725 1.5949206299960237 26.387760255963094 32 31 40
1.8786374618693544 9.328193936801986 22.08630274492709 163 166 165
1.8770102843917158 9.325811463076425 22.092214657035292 163 166 165
2.1167989289661473 9.365469530135247 22.036740646440904 136 136 132
4.022759545346694 2.8301139109141755 25.508986390580635 89 93 88
2.8961620736837084 9.068003569689978 21.66942686488639 166 165 165
3.4424623772334835 9.394440770716168 21.97914754144605 139 138 140
4.216924887795851 4.588501754862405 24.15618174976188 19 20 16
3.6137017342608946 9.35266655504463 21.961521082426533 169 172 173
6.222045858763794 2.365758202077175 25.35718604338807 179 179 181
7.574724248633802 1.5086737404429842 25.610936450999354 31 34 35
-8.065389771445172 9.387172365952397 23.310358894875552 191 185 189
-7.503081955976128 8.74851467905172 21.923348900028827 140 134 136
-9.134648014029256 -2.7093923748899797 30.703502914104458 84 88 83
-8.941006407160996 -1.9070622269040203 30.304716406140255 82 86 81
-8.826605364797937 -2.085953951046978 29.999499618253914 75 78 77
-8.852124165524103 -3.55328220001976 31.29627180569878 104 104 100
-8.779625961442042 -4.06931546481616 31.436745225668798 97 98 94
-6.496286654567036 8.90080880346779 22.0103335119461 150 150 150
-5.779625544187523 9.149877011711066 22.359178235614696 200 200 202
-5.81223114193476 5.823282372626623 24.345123192014267 30 36 36
-5.563650372727162 8.921155663989168 21.98024732376877 146 146 148
-5.564511936083514 8.977644955308369 22.13308700958523 183 179 182
-5.77297746124255 9.620594934995363 23.820462506527114 195 194 196
-5.736768852707581 9.639859302208684 23.77239409019238 185 188 189
-5.520438439210455 9.006520625024592 22.13729146386398 140 135 131
-5.938672689805878 -4.749982551588974 31.106603610763084 112 115 114
-4.461482676391198 9.047438037390185 22.111743704702807 166 166 168
-4.171913329557887 8.984999660485231 22.142836114867645 140 140 142
-2.0683754004663206 -4.514116930040695 30.274721835130418 109 109 113
-2.5558439571306306 9.127061711091127 22.092298587236833 136 135 137
-2.143102956648842 9.572388846530547 23.121665087969415 151 151 153
-2.0379831667558554 9.330230479982188 22.65058278839741 133 132 132
-1.7525918720765463 9.225014302450871 22.33215322367865 116 116 118
-0.42697731692228724 9.627277031076746 23.100233359493203 136 136 138
1.5073451959846316 -0.0853118558250255 26.913092903781934 53 53 57
0.5503525753609597 9.298577808834127 22.26302919648929 127 126 128
0.6256020358318024 9.191121683822823 22.118489705065418 105 101 106
1.0451275249851857 7.523052733615629 23.546500848584603 165 168 167
0.8886146065624657 9.301826525521145 22.23444942498238 98 97 99
0.8888654467448607 9.281855404665531 22.22854280516806 98 97 99
1.84236773292228 2.3595248747413735 25.780921810404685 43 45 51
1.1353428094392228 9.385211706306798 22.205270103256165 97 93 96
1.2148055171070726 9.325808822034979 22.054363582353552 168 168 168
1.2595201795948636 9.424706578450603 22.103615048281725 168 168 170
1.6878043655999015 9.357488943628825 22.189970309306236 158 154 157
1.684215860998669 9.343754171197087 22.16817787301045 158 154 157
1.8503116135235287 9.310052224313885 22.174745643384625 146 145 147
3.074779969312238 1.7908335865797682 25.84961016902774 32 35 38
3.6812335410669115 2.0374157259226524 26.112481432787224 34 39 46
2.481480499122764 9.411658108477791 22.117461359154316 137 136 136
3.0623334890493554 5.615518422511626 23.561202334488062 159 160 156
4.4132930961356704 4.66001185704777 24.636739110829428 21 24 23
2.040066783759725 7.577773973518913 18.6644127324625 172 171 175
6.403976351303542 0.9065815898925534 26.381629217016464 186 189 188
6.576193287169383 0.45801713423111645 26.05614774169638 22 28 28
-7.6315800741386575 8.874458457782914 22.113845485539688 185 181 182
-7.258528154005275 8.951288490140675 22.16921256553311 183 182 182
-8.655342353093893 -2.3813357440590077 29.642207886919685 46 50 45
-6.870260683697307 8.973881030064419 22.110348957192606 153 149 150
-5.52974308061818 9.225692742802988 22.57921720855748 154 150 151
-5.357041845723108 9.008922584809985 22.365712894418397 122 117 115
-5.393773241931387 9.34185092058537 22.98628948924577 126 122 123
-4.578581891800959 9.142847732267471 22.290023476708768 186 186 188
-2.446902689607068 9.391933203378601 22.763878376069623 154 150 151
-1.9109801534538375 -4.445623161307556 30.152615232397775 102 102 102
-1.1224107236461647 9.254382146750167 22.443533846939346 179 179 181
-0.7337990101598147 9.229969523781493 22.076790713657545 148 151 152
-0.42217827967163407 9.272911501011494 22.20835047774937 173 176 179
2.3545518788273925 9.453983279360376 22.279390043999435 110 110 112
4.305249129000733 6.127421101483402 23.73724987111839 17 20 19
-6.630863634903387 9.46579030401998 22.971962988380835 201 200 200
-4.986016284861256 -4.245371824724193 30.240422606441662 109 109 111
-3.817667790069855 9.329964517991513 22.81214886049909 145 141 142
-3.621707191635437 -4.4195083375986375 30.54618728377714 110 110 110
-2.563197198282024 9.260015674416179 22.223332635984818 180 180 180
-2.4595662138403496 -4.5049827891618595 30.289395412582206 88 91 90
-1.907818409331103 2.8682624327700235 25.975067120878627 37 37 39
0.03393187545573958 4.625704220158301 24.746834227261 20 24 19
0.6933484258307094 9.296388234887814 22.257803783301615 178 178 178
0.908808026735916 -4.439304635696187 29.99268693799077 144 144 144
2.453457626214171 5.909342522856355 24.147174796561252 17 20 21
2.4976066270500805 9.32571081659086 22.299262948107934 121 117 120
3.928253205535389 -4.513115781064919 29.6421259399182 126 132 132
3.4809865092735977 9.428070353892608 21.990220030200117 167 167 167
5.141787799435862 5.3384859900921215 23.83321006953952 17 20 19
8.512809319076654 4.273942734283864 24.791177046477067 155 162 154
-7.96696807665058 9.290426703052155 22.6469875705594 185 185 187
-6.171979629219465 9.026389809612374 22.068906061586528 188 188 190
-4.212593319539076 4.787040344929646 25.368147427090037 25 28 29
-0.42035512647228934 4.321018095284754 25.349711096269136 22 28 26
0.6050103904191118 9.440411106691991 22.28688472800422 157 157 159
1.2631357134979218 9.405562228127422 22.03338288511849 133 129 130
2.0962858159017475 9.311727135183943 21.99451353949205 139 138 138
2.0652163038538953 6.241096176587221 24.131552256008003 177 185 184
3.148264780185778 9.422326185067316 21.9972989395836 160 159 161
6.470026975611855 6.6156716533841164 23.639856292105158 19 25 23
8.546368105093928 1.053683487284692 25.460203347355986 184 187 186
-3.8520604325931167 9.128358069487097 22.441052400902244 183 182 182
-3.495125685881347 9.389721448277532 22.664675316664752 122 121 123
0.6790727804958118 9.247883581155447 22.21201726685828 152 152 154
0.7954677209790506 7.197517569247029 23.64535362527459 171 179 178
0.8384838455467921 9.302793363693064 22.20917743095018 125 125 125
0.9483962861946501 9.486000587699987 22.382174859390418 159 166 172
1.118078627676897 1.772663521739595 26.283038699130397 29 35 33
1.6168037214066249 9.380620574433792 22.28498990470892 107 113 111
2.1844300572668645 9.460558429710618 22.3297381410736 114 117 120
2.3490993948306578 -0.13428706228490372 27.556505089453523 64 72 71
3.278775445623046 -0.05411608054387599 26.8186502388622 56 64 63
3.550922400118882 9.328324820602008 22.10180345553796 105 108 107
5.00784231029637 -0.39109337866730015 26.86260296056672 58 69 69
5.92192051311199 6.014995744080682 23.34060598231664 23 29 27
-7.684103940237904 9.274275341335727 22.94644037240387 186 189 192
-5.961912188305064 9.157968769550166 22.25136945947171 192 192 196
-8.686692532835954 -2.491047734152235 29.811546801344615 189 189 185
-8.683601329691637 -3.004590298184347 30.261092449345735 189 188 188
-8.50595639304013 -3.4294802673620075 29.89725720435178 200 199 199
-1.5186201853070178 9.557461516543176 23.017048315812104 172 168 169
-1.442478138392133 9.496030248513954 22.966705684004555 189 189 193
-1.1473419797869466 8.791295742565511 21.242103872720556 195 195 197
-1.3290788352626832 5.980863986414909 25.02139341949749 192 198 198
-0.3157931561969062 6.37324918156553 24.724881493208102 186 185 187
-1.8097848198657818 -0.4321583847732076 27.367123056882264 84 90 92
0.5252629921955745 6.735986184777644 23.250144136629697 34 38 33
2.452965074267655 2.90703053100811 26.36025517293895 43 44 40
0.8533111470988491 -4.462160881983302 29.699524617030534 123 122 124
-5.724131377271226 -4.610700709623679 30.992017208700016 93 93 97
-5.080560846170991 -5.546199555423499 31.791866649956486 102 105 104
-3.2053027277847645 0.08831340117377688 25.844426282216254 131 127 128
0.12920569490645994 6.328380006634944 24.782184614488866 27 30 29
-0.13533435192636972 -4.539520575635033 30.17332797584598 131 131 135
0.5976701765514171 -1.2647453374609952 28.551304483960134 204 207 208
1.5511888036272945 -2.3959742936173143 27.506061118476094 204 204 204
4.789431207176289 6.99274662870808 24.183192589706632 33 28 26
4.789431207176289 6.99274662870808 24.183192589706632 33 28 26
5.512171932627839 3.630201650304332 25.729298425215283 169 172 173
-3.888777710342621 -4.843704067831624 30.99894701753993 121 125 120
1.8336599080212705 2.3540004692333403 25.716222554156968 36 43 47
8.577169003869477 7.089028852428659 22.049880547923554 171 171 173
-8.36162413426457 -3.7605723690553803 29.898844076749505 78 82 77
-4.123658151658239 6.102915232301635 24.455585600642895 31 34 35
0.37391443997273893 6.927994385516731 23.798991078059938 29 33 28
-16.72845154180688 -5.232540210676566 32.7327842031479 36 31 29
-4.1631756813379015 9.68899475124021 23.301492306796256 180 180 182
-4.161459992640297 6.880781521550188 24.466898922076275 43 44 40
-1.9869884039011174 5.78148553241994 25.833019365377584 29 35 35
0.08502864307677978 -0.3972715469172708 28.687042277764544 163 162 162
2.148138281043795 0.898025861967157 28.092550922588273 58 61 62
4.2299044805395685 4.41156204507965 26.356913286991876 30 36 34
6.147866721341788 4.667613781552066 24.426608589530712 135 138 137
-3.5075372943509886 12.531810450626558 19.39944919090714 45 48 47
-3.306142904691503 9.095846505466659 22.003277447942917 145 144 144
0.08434767548307828 -0.8230806627857891 27.528627349178933 174 178 173
0.08434767548307828 -0.8230806627857891 27.528627349178933 174 178 173
1.8166739388950466 4.2650146674382485 24.932841834615335 191 197 197
4.525337406226694 0.9053066177557942 26.509211172354085 34 40 40
6.1847272710504955 2.3331072282247143 25.465366548901333 181 188 182
