ply
format ascii 1.0
element vertex 678
property float x
property float y
property float z
property uchar red
property uchar green
property uchar blue
end_header
0.9742391433190917 0.1158125944374619 -0.38464816649905825 64 64 68
2.078600689067498 0.5687495828178356 -1.24492871334338 83 72 65
0.9329930987407603 0.10800563456110614 -0.38474816283156493 32 38 38
1.093058643424878 0.13240996691528342 -0.3931379819317747 149 150 146
0.96915607088067 0.11136140492995773 -0.3836675259088202 193 196 195
0.9658676956197685 0.10808660698592785 -0.38344405435086504 51 57 59
1.0955305713782553 0.12888815263285938 -0.39441225876848435 147 148 144
1.0955305713782553 0.12888815263285938 -0.39441225876848435 147 148 144
1.0960437039880682 0.12786349719098627 -0.3921726751983328 89 86 83
0.9598656505288714 0.10657600496117364 -0.38386414754748494 193 196 195
0.9598656505288714 0.10657600496117364 -0.38386414754748494 193 196 195
1.0585605186274487 0.10937081762509696 -0.3549111425765399 140 141 137
1.1081681250769126 0.12893003801576963 -0.4064772666193208 98 93 89
0.9677859839842303 0.1043615732983151 -0.3776490941235906 44 50 50
0.9736163605164754 0.10654831673858157 -0.3866532399726189 44 50 50
0.9620551863061887 0.10433116466580586 -0.38378682617829024 61 62 58
0.9620551863061887 0.10433116466580586 -0.38378682617829024 61 62 58
0.9591113898148801 0.1039624568653673 -0.3845475569942659 188 199 195
0.9646610068759064 0.1036726591983307 -0.38487870748307684 49 55 55
1.063352855934073 0.10895246313974451 -0.36271099672462737 94 90 91
0.9096848225106027 0.09499609848652245 -0.38243296758924433 46 46 46
1.1003901417184891 0.12369784300699288 -0.3937722933303715 99 98 98
1.0995570895210163 0.12314209524177383 -0.40136611491723717 153 154 150
1.0965835414439014 0.12156529474067192 -0.4007594013833349 105 105 101
1.1063074680127374 0.1226522677698543 -0.4048520947219151 102 103 97
0.9679250730741628 0.09997330409515394 -0.38335190182890794 188 196 193
0.9153427265568769 0.09281446638849451 -0.38774517562545796 190 196 196
1.1098431380328528 0.11836154543575947 -0.4006322922946658 88 91 90
1.0979753427390118 0.11307287290387426 -0.3835281206731396 142 149 143
1.0898929924805103 0.11315835277918934 -0.39137134576583243 111 110 110
1.0898929924805103 0.11315835277918934 -0.39137134576583243 111 110 110
0.9522045476762964 0.09279651774353877 -0.3843489340577611 189 197 194
0.9550044589556889 0.09371478637612518 -0.38839879208680533 189 197 194
0.9784599437218905 0.09331444515261589 -0.38586299647715394 190 197 191
1.111589884450197 0.1096799287087978 -0.40174018348197676 100 100 102
0.9426818341848995 0.08382341486186771 -0.38459649252803474 44 47 50
0.9837450287754024 0.08783490415201527 -0.3834358502709143 191 197 195
0.9259450105695937 0.08146463918956967 -0.3838443955105745 34 40 40
1.111083689800144 0.10277465120549828 -0.400875635918303 97 96 96
0.9316313665987027 0.08061825491922556 -0.3848999697683237 189 195 195
0.8683024655762916 0.07191255677852718 -0.3863377047005396 194 197 200
0.8683024655762916 0.07191255677852718 -0.3863377047005396 194 197 200
0.9363327956409858 0.08019956663249009 -0.38530373025763703 48 45 40
0.9375170906662561 0.08036902468111438 -0.3880145309256834 48 45 40
1.1131501635662366 0.0981059772895243 -0.40077826921667375 141 148 142
1.006406738902986 0.08540401461820361 -0.38451347480554426 72 78 80
1.0939110427088001 0.09555781501167271 -0.40343518574256304 105 102 97
0.9321819245115244 0.07608986189412924 -0.38228248037293233 192 200 199
1.116455488835396 0.0974196886145424 -0.4029328518294511 75 75 75
0.8671581573904455 0.06956520804454366 -0.39310338144222234 193 196 197
0.8663129072912514 0.06856512881812024 -0.3902887877361946 193 196 197
1.115532630952179 0.095962123948614 -0.4015678250602406 144 145 139
0.9914481344317847 0.08107377658365618 -0.3834061151141846 59 67 66
1.079680881822778 0.08229311101426354 -0.3585611992882999 138 145 139
0.9268975800155982 0.07220438161826964 -0.38395866575116633 189 197 196
0.9288481785722892 0.0729941795394838 -0.38873900003660555 189 197 196
0.9335573277468445 0.07355298216620439 -0.3897982215433815 191 199 198
1.1130975704413004 0.09234775434151146 -0.4018370159002776 113 113 109
0.935900568702043 0.07222439590585661 -0.38437062460944077 53 58 63
0.935900568702043 0.07222439590585661 -0.38437062460944077 53 58 63
0.8367497380316024 0.061926223724585915 -0.3869000201280054 126 124 131
0.8359192195883628 0.06286652152983292 -0.39095946361657 126 124 131
1.1164241956093295 0.09269238670894135 -0.3948877452062134 132 138 138
0.8774307469216676 0.06569262789363578 -0.38589676440478893 31 31 33
1.096910705879687 0.08951102341563343 -0.3947158056742192 153 156 155
1.0000566655423606 0.07796063939204344 -0.386621004624232 190 196 194
1.0003693059056855 0.07818635903517765 -0.38702996023998865 190 196 194
1.0023558615808161 0.07751179780908686 -0.3830396669653211 74 77 80
1.0020801348403026 0.07728223184063986 -0.38301716645754186 74 77 80
1.0023258469308618 0.07741064794684117 -0.38320869572364297 74 77 80
2.242076361675931 0.4445345841531514 -1.3734523846375823 86 82 73
1.0977134055633413 0.08830409762424957 -0.40085643187934633 103 102 102
1.0786982008163273 0.08281931900032521 -0.3773932942764545 103 102 102
1.0941941482654385 0.08741531432914387 -0.38918712556652924 86 82 85
0.928074322539554 0.0690849721978024 -0.384322868110977 53 44 47
0.928074322539554 0.0690849721978024 -0.384322868110977 53 44 47
0.8368623112737619 0.05966700376966849 -0.3869404133657332 124 123 125
1.1173814582348989 0.08732501800674872 -0.3983115987973592 149 156 150
1.1130086381452065 0.08787021272857543 -0.40139089914994913 109 109 105
0.9316539242722166 0.06825715946554031 -0.38445714913412965 189 197 198
0.9341281442586004 0.06947519357571429 -0.3905051299313249 189 197 198
0.9403322710331513 0.06929520385993901 -0.3863439292394663 35 41 39
2.274296268467358 0.4423495683391152 -1.4035240859413158 102 98 89
0.9906575765074555 0.07356392901447564 -0.3833749913227861 189 195 193
1.1030295729656123 0.08520927216826983 -0.40411231388669594 160 164 159
1.0873795991421076 0.08232919508225979 -0.3821131377195689 107 107 111
0.9985399278454405 0.07340149169636602 -0.38341441100698226 74 74 78
1.0914709951506103 0.08409939322434345 -0.39560184114908975 165 171 169
1.0913485235614813 0.08271743439935315 -0.40098701267654574 133 133 133
1.0963275655557998 0.08255131384898955 -0.40263953314406814 165 171 171
0.9913395723976888 0.07046009022522905 -0.3833074383772478 67 67 71
0.9913395723976888 0.07046009022522905 -0.3833074383772478 67 67 71
1.0895493536359362 0.08136935797256362 -0.39548734767430477 114 114 114
1.0895493536359362 0.08136935797256362 -0.39548734767430477 114 114 114
0.8356076983120014 0.055228914040442646 -0.3871391018126047 207 206 208
1.0011357840595065 0.07004247515597696 -0.38227949806207495 193 199 197
0.9892885301801192 0.06748368807197119 -0.3841918116198478 58 63 68
1.0871564743940525 0.0751947527202767 -0.3955536373651832 132 139 143
1.0909127402874894 0.07735261209870195 -0.39090284458860597 100 100 100
1.0981137919692274 0.07771138937703845 -0.40137068167641693 100 100 100
0.9484988006968069 0.06249690231384485 -0.3886929429916817 191 197 197
1.101839349558 0.07000032008795219 -0.39292063396250737 105 104 104
0.9780307599884677 0.0574678506741588 -0.3844041486195684 190 196 196
0.9842019224996943 0.05743446484926862 -0.3842312246196695 56 64 65
0.9029499012029416 0.04968168017794868 -0.3901058846154095 190 196 196
1.0911361951276815 0.06535466250678118 -0.3954460147014949 167 173 173
0.9575446552363109 0.05346315709321984 -0.38611288981838554 43 49 51
0.971755736281241 0.05219467267850819 -0.3851761168933197 47 53 55
0.9643895414344908 0.05057644050737631 -0.3859534217833511 189 197 196
1.1017258451939196 0.0591955315797238 -0.39229861652043296 105 106 102
1.1023404257083576 0.057923820908747634 -0.3966063259605812 105 106 102
1.100985102852861 0.05714627545333719 -0.4004548009853878 154 160 158
0.9707012823317066 0.04642807491506552 -0.3859718350945489 190 196 196
0.9604653740432062 0.042611989544262804 -0.38647824557634813 187 198 196
0.9604653740432062 0.042611989544262804 -0.38647824557634813 187 198 196
0.9752198222346204 0.04276152338786849 -0.3855598565768919 48 54 56
1.1011862681078894 0.05018041467607938 -0.39444234907321474 98 106 107
1.100339689745215 0.05093623314348706 -0.39208981624972905 146 157 155
1.0904006958584973 0.04996854736936621 -0.3816525856988207 141 149 146
0.9689546553749205 0.042584263776608615 -0.3877941840250029 43 49 47
0.9074268343876952 0.03822967653526909 -0.3897827728245064 188 196 197
0.8354757668834593 0.03279428689060319 -0.38934762018880603 193 196 199
0.9622385522669145 0.03913907398651501 -0.389479377487552 53 49 52
0.9604351436864883 0.03937547001129874 -0.38794935759554405 53 49 52
1.0872115032330385 0.04700038012791642 -0.38292330931763785 155 163 162
0.9010027540788383 0.03533286506455447 -0.3923924641841178 34 34 38
0.963725283754147 0.0385842583592346 -0.3875007921425159 189 197 196
1.0991228477316606 0.04729083634828246 -0.3929311773588343 100 103 102
1.1044975994902853 0.04719432989362979 -0.40113663427124663 100 103 102
1.1085658748465017 0.04718848378302752 -0.40314539098677804 147 158 158
1.1085658748465017 0.04718848378302752 -0.40314539098677804 147 158 158
0.9670751816763187 0.038685173015135105 -0.3864632267854429 53 53 47
0.9670751816763187 0.038685173015135105 -0.3864632267854429 53 53 47
1.100074959251913 0.04457175688546683 -0.39346118522954265 94 100 102
0.9122243017273933 0.03562522496060132 -0.3921238705481171 36 39 40
1.112286310043421 0.04470121209958196 -0.3978656465069543 96 99 102
0.9577477591047983 0.03668967052648315 -0.3879353666503952 39 45 45
1.101441422796028 0.04440412993218781 -0.40093407849265733 154 162 159
1.101441422796028 0.04440412993218781 -0.40093407849265733 154 162 159
1.09138874995547 0.044143425894891467 -0.3972007437422977 109 112 111
0.9674380196633271 0.035392163740868045 -0.3874329624590813 42 49 43
1.1024060316363267 0.043433674405062205 -0.39385694921382136 146 154 151
1.1140849300060476 0.04325779529889734 -0.39556219674547 89 92 93
0.9153974510375893 0.03178769953427676 -0.3906289703520587 189 197 198
1.0999212046991986 0.03986722900698467 -0.39719804049310115 119 122 125
1.0851074631706046 0.04029503259481984 -0.39044087237432673 98 106 105
1.0886603245585167 0.03922623404380825 -0.397816178805294 112 115 118
1.0961893924030284 0.04051057532563242 -0.3942490870212125 96 97 93
1.0961893924030284 0.04051057532563242 -0.3942490870212125 96 97 93
0.9530603928455093 0.03153879783882155 -0.38833046005187083 188 199 197
0.9537460426566402 0.032570614192910644 -0.39016595695366424 188 199 197
1.0924034256820627 0.03834982672642012 -0.39441043306082635 155 161 159
2.0203978615592892 0.21114056283327728 -1.2996753456765484 105 100 98
0.8858806821822305 0.02196756243779197 -0.37252070703674767 31 34 37
1.1062420495229233 0.03418625746301238 -0.4022812373097561 106 113 107
1.093196515440382 0.03390255912827585 -0.3861007295032385 106 113 107
1.0843076704618506 0.033411320390313366 -0.38902321008507845 116 116 120
1.0889144077192305 0.032703153588808064 -0.39775592627140266 115 121 121
1.1109379897744476 0.03301314991397136 -0.39528031262131325 100 103 104
0.946885400769436 0.026399198759475547 -0.3886024133630223 190 198 197
0.947063220958471 0.026368231091826264 -0.3888399175657981 190 198 197
0.8608212398253252 0.021359855628664735 -0.3907616637096972 45 45 49
1.106324229961369 0.030427112002340828 -0.398559239357828 103 103 105
1.098046988474225 0.03130827700966676 -0.3864791026834111 107 107 109
1.0508270903518373 0.017825693814931633 -0.3523036776191975 112 115 116
0.9435874177129514 0.022703997260506377 -0.3894880040026623 45 45 47
0.8775432754932436 0.019174573572835623 -0.3916347211328267 25 28 29
0.864284615265338 0.017858113871812194 -0.3900872539012712 186 192 194
1.0854165465711412 0.027045014960506198 -0.38959268090123716 106 109 110
1.0819870785719363 0.02676720282427176 -0.38615889291805183 106 109 110
1.1076133005747382 0.025821333393239713 -0.4053654264672727 153 161 158
1.0887390395478045 0.02580525440156163 -0.39055997122182684 174 182 181
1.0076367666519412 0.02154519781148486 -0.3882844489957771 70 80 85
1.107857521098714 0.025069845560627805 -0.3924432197439488 142 150 149
1.0931092633252633 0.023915629940730314 -0.39052674447671576 107 110 111
0.992584555140551 0.019868837836160017 -0.38736836620939963 191 197 195
0.9918932724426432 0.0197099928160769 -0.38623452199540226 191 197 195
1.120408179935164 0.024828132697268496 -0.39490304056481584 74 74 70
0.8725658125748366 0.015505712794256067 -0.3916533301672299 184 192 193
1.0003609191973721 0.01964888727578359 -0.38738296897734414 190 198 195
1.1090438773790159 0.024783207125837935 -0.3994769704243559 94 94 94
0.8681381787230151 0.014097758001215545 -0.3894811257835784 46 45 49
0.9382751831255283 0.017009025289599588 -0.39169648178176225 190 196 196
0.9376881046254087 0.01665556054651409 -0.3925114064703445 190 196 196
0.8754857514771128 0.013468028587045905 -0.3891055450899475 43 43 47
0.9285347893215457 0.015192820024381158 -0.3894313009819482 45 40 38
0.9257416980032285 0.015177792604333492 -0.39010307680095563 37 40 43
1.0965506345381937 0.01892294331355295 -0.39192968464719535 94 97 98
0.8482977902017302 0.01371836376303244 -0.39639764337948885 191 194 195
0.9909934034960509 0.01599206520273305 -0.39038568436505383 55 63 62
1.118915969826216 0.020328203386438603 -0.39315388575039845 98 98 92
0.9953631418301374 0.015595989801726263 -0.3871007483936378 70 75 82
0.8646101820576824 0.011044819638121407 -0.38982521870423126 186 192 194
0.9655980569139014 0.013411507519290692 -0.3886696421081728 33 39 37
0.8764268240265576 0.010288455264126695 -0.38960448349756377 185 191 191
1.069257283747528 0.013900335342459208 -0.3678421234511875 172 175 176
1.11070131099345 0.01875727827654151 -0.4141183200912013 110 113 114
1.0889285498609125 0.01605283480420212 -0.39396918719609747 106 109 112
1.0914267704552114 0.01263313056025517 -0.39298938206416106 104 110 112
0.8649730703778339 0.007042153334988571 -0.38999573333209697 43 28 29
0.8649324067025533 0.006989536351826271 -0.39007353335884637 43 28 29
0.8716528219002743 0.006922250125255403 -0.388654104905611 46 45 54
0.8716528219002743 0.006922250125255403 -0.388654104905611 46 45 54
0.9363452023880341 0.007849803472484911 -0.3888370101644417 48 42 44
0.9326464594399777 0.007283695220268252 -0.39012819557049633 182 193 191
0.9407481402879316 0.00740522581666424 -0.389839538435762 183 194 192
0.9406651670200338 0.007233784172384974 -0.38968670323536364 183 194 192
0.8619580562332101 0.004649581229860844 -0.38916961936641464 34 40 40
0.835127540449355 0.003344686681888695 -0.39120203907533474 194 197 200
1.0964894413057384 0.008686497746997077 -0.39083477120242605 158 164 164
0.9896753502286487 0.0056390759701278334 -0.386211883388899 55 66 66
0.9925935102373219 0.0061537963352697005 -0.3882683929443357 55 66 66
0.9439042162231348 0.004149427595598036 -0.38976564158000093 44 44 40
1.0969503387235708 0.0019241289514978926 -0.3946758624918752 160 168 167
1.0968084346777052 0.0019785902098778483 -0.39762543180870835 113 113 109
0.9474599896723945 0.0006049133137702213 -0.38913183204420304 189 197 194
1.1064720220347417 0.0012096049910628815 -0.3953950260744168 106 109 112
0.8370643695079928 -0.0016559559320300835 -0.39209827407008685 129 129 131
0.9925462987686193 0.0017204407438583637 -0.4070056608158189 52 60 61
0.8340970149830611 -0.0022426466869301903 -0.39074758815075694 192 195 198
0.8341442273228933 -0.002179906223880433 -0.38932265299518276 192 195 198
1.076476373632531 -0.0013828961652602267 -0.3786930043355012 166 174 175
1.0715909268840238 -0.0018029729346543198 -0.36537452482573896 152 163 161
1.097036689126902 -0.001253661878188405 -0.39760249150103155 103 105 111
1.097036689126902 -0.001253661878188405 -0.39760249150103155 103 105 111
1.091622615285654 -0.0014451435896892652 -0.38324397183165115 101 107 107
0.981095720552363 -0.004320033923853011 -0.38893285377432263 191 197 195
0.9537724890293364 -0.004586011817380138 -0.38902696032967254 190 198 195
0.9533586447103359 -0.004700530863263087 -0.38830945319603527 190 198 195
0.9159379864377044 -0.004938677073436865 -0.3910240169476103 185 191 191
1.09081352467912 -0.006131976392999493 -0.3950648810908937 157 165 166
0.8388834662899823 -0.007028151567984526 -0.39293632508011933 147 146 150
1.0941127361963774 -0.007141089903637261 -0.3937759843162408 106 109 108
0.8353127349834377 -0.009450515583357803 -0.38696637813165385 183 189 191
0.9597072008019276 -0.008499390114880385 -0.38912385977102953 42 48 50
0.9574199974333323 -0.008365081158195354 -0.3888283313961713 42 48 50
0.9749343507303627 -0.009704187372788336 -0.3896923621163757 41 49 48
0.975549582795033 -0.009753961500838038 -0.38922633867415546 41 49 48
1.0768312399445275 -0.010532929035310121 -0.36819876730088946 118 118 120
0.9101951866624358 -0.01055283673999381 -0.3898033114440565 29 35 35
0.8944798384643826 -0.010727483943729946 -0.3894454365891615 30 33 34
0.9608665644996036 -0.011442274639348446 -0.3867146661444531 184 197 196
0.9679427117812776 -0.01151179460701902 -0.38737487782701985 188 196 193
1.0978521566121757 -0.01288437180396806 -0.39564986778686934 146 154 155
0.9033375556608181 -0.013069525139961865 -0.38866706744859164 183 189 191
1.1100107184874644 -0.013147096162103947 -0.4065358495948339 115 118 119
0.962438926244007 -0.013821880647050819 -0.3878211785183361 192 198 196
0.9684343105577251 -0.01559543491853 -0.38826649651806505 48 44 49
0.9685010628510295 -0.015878099367973447 -0.38527797386716467 48 44 49
0.9721468181850766 -0.0157884771942371 -0.38710417800159763 188 196 195
0.9721005148259637 -0.01579600501207559 -0.3870849382542919 188 196 195
0.8959146098987332 -0.016379566549846673 -0.3888256661300834 176 187 187
0.9622964184482555 -0.016315787338722 -0.38846622315207485 188 196 193
0.9649235907940961 -0.016760794601601167 -0.3877469006263668 189 197 196
0.9649235907940961 -0.016760794601601167 -0.3877469006263668 189 197 196
0.9000899720489243 -0.0166443123375844 -0.38850613018611374 50 44 50
0.8999029876368302 -0.01665922440595264 -0.3883787715338476 50 44 50
0.8999667759442799 -0.01659913344765948 -0.38819646586085976 50 44 50
0.900017370237609 -0.016577867749474045 -0.38806858279574435 50 44 50
0.9362770002071577 -0.01783837709491078 -0.38794076267066413 26 32 30
0.9697024816847329 -0.018247750420004358 -0.38765281481254854 42 48 48
0.9574155257816963 -0.019531117645981283 -0.38880289324372624 39 47 48
0.9706566330463262 -0.020298292628035383 -0.386538087609228 55 58 61
1.0804273170535446 -0.021392575756926838 -0.3865431509780926 121 124 123
1.0899215326635787 -0.024109945665230344 -0.394760523571984 153 161 162
0.9046222139573213 -0.02106112368856443 -0.3846996792401603 186 199 196
0.9046222139573213 -0.02106112368856443 -0.3846996792401603 186 199 196
1.08918284583653 -0.025533282042907526 -0.3960585098977602 83 83 85
0.897994901257476 -0.02207061967764975 -0.38389927457448747 183 189 189
0.8378386477456713 -0.02205317392321103 -0.3871268607538435 143 142 144
0.9709414107863839 -0.02330804148020005 -0.3883721180966083 189 195 193
0.9727007942113683 -0.021870159393466884 -0.3948747981200526 189 195 193
0.9651004575805538 -0.02365523030472847 -0.38600309935418586 47 47 49
0.9651004575805538 -0.02365523030472847 -0.38600309935418586 47 47 49
0.9015847001944942 -0.023230034454004227 -0.38008994459990936 38 37 41
0.9071880624137166 -0.025069805149573205 -0.3831076620627456 26 32 30
0.9756305022844406 -0.02728185695051638 -0.38642827846580285 50 58 59
0.96376989641823 -0.026919285566385436 -0.38640631157759114 39 49 52
0.8379535035681972 -0.026540346176062324 -0.3880138398926527 108 108 110
0.8376433196100869 -0.02669443709247746 -0.3874000672568898 108 108 110
0.8363246868156821 -0.02675578956160328 -0.38800984944701794 118 124 126
0.9801904168523229 -0.03052894325375593 -0.38613629441607644 187 198 194
0.836809160839566 -0.02784142295650036 -0.38722472417419274 180 183 184
0.9897448914982725 -0.03922951446309835 -0.3848185323175121 50 58 59
0.8854167469673885 -0.038965538848394196 -0.39483704442709816 181 184 185
0.8829680914080398 -0.03693211685145555 -0.3850544742796676 181 184 185
1.081337012188759 -0.04363204363383675 -0.38755874733607815 100 100 102
0.993330315865411 -0.04262846968517927 -0.385307087905735 185 196 194
1.085327284262951 -0.048249466817485535 -0.38929352978225773 132 140 137
0.8775952925616773 -0.04188147232339836 -0.3851387143782318 27 30 31
0.9336074252152693 -0.04402126440670655 -0.38935186557616197 43 46 45
0.933348782110057 -0.04409274194429267 -0.38803780984125347 43 46 45
0.9919021868785762 -0.04633451005675183 -0.38499255515158953 187 195 194
0.9945946223201725 -0.04646947843985642 -0.38756120188692206 187 195 194
0.9974430398619357 -0.04621758639224075 -0.38460265587034165 63 71 72
0.8631131187533329 -0.04223729104282358 -0.3862680610463303 29 32 33
0.9392427287750308 -0.04532544348763348 -0.38849160225850454 178 184 182
1.0068743120418728 -0.04931654624988479 -0.38631391736200454 188 199 197
0.926888143520308 -0.0465495649420918 -0.3805543055817811 176 182 180
0.93903506202962 -0.047156555712114585 -0.3805432405440174 176 182 182
0.996415325335284 -0.050195789461168865 -0.3831691348185082 189 197 194
0.9326754914285849 -0.04741850418859221 -0.38268702911845937 174 182 179
0.996977731946475 -0.05010384709398467 -0.39392500513211 63 66 69
0.996977731946475 -0.05010384709398467 -0.39392500513211 63 66 69
0.996977731946475 -0.05010384709398467 -0.39392500513211 63 66 69
0.9903591449966548 -0.0503432501639955 -0.38490459879291866 51 56 61
1.0429279641681584 -0.05516604590022246 -0.38634542883816275 198 201 200
1.0034543940769305 -0.052074404750051394 -0.38740043196353524 192 198 198
1.0873912332803513 -0.05584178696537303 -0.3915901012463251 110 121 119
0.9422655534330918 -0.050041781356560844 -0.3886876287918028 40 36 41
0.876381949965108 -0.04741614390704887 -0.38587825666699094 175 183 184
0.8645869568338257 -0.047568621192903573 -0.3859789940245516 175 181 181
0.9301046019329571 -0.04992981114705787 -0.3801073671217411 54 50 55
0.9316215803920748 -0.05021145008115397 -0.382700478819031 54 50 55
0.9301046019329571 -0.04992981114705787 -0.3801073671217411 54 50 55
0.9968311915918363 -0.053661023263359524 -0.38430347775706625 65 60 68
0.9925825263084196 -0.05420277430350065 -0.38421638209240705 188 196 197
0.9935814130588071 -0.054334821806026515 -0.3857901279762429 188 196 197
1.008323310475988 -0.05669201656722811 -0.39084206202099636 192 200 199
0.8469295682771819 -0.049584260264525205 -0.39380603876731207 183 186 187
1.0086988716735052 -0.057590650379172825 -0.3867564869384972 64 71 75
0.997802679504068 -0.05706813623089852 -0.3848637693640178 47 53 55
0.9367045603986885 -0.05422456765500846 -0.38651896632987826 174 182 179
0.9314935096474671 -0.054905002670443105 -0.38320315986855363 171 177 175
0.9902966876192123 -0.05744427503211685 -0.3853668232310659 56 62 62
0.989018922560662 -0.05704613814763869 -0.38338433711051145 56 62 62
0.9336309234026182 -0.054172164903739925 -0.37054392947051834 30 36 36
0.8739007058256145 -0.05225513997121939 -0.38710939456068233 175 181 181
0.8648070847969094 -0.05169389612406095 -0.3746301097028029 172 178 178
0.9241171851458023 -0.055825121413825514 -0.37998292180809534 30 33 34
0.8395309439908843 -0.03589665269894649 -0.2973871294737198 36 36 38
0.9798756825326548 -0.06616343983627729 -0.38457116461359964 191 194 195
0.9800850265430119 -0.06639558666225402 -0.3852927212916288 191 194 195
0.9765616923991132 -0.06989032351034073 -0.3858142314049594 50 49 58
0.9761354203951484 -0.06935478557853646 -0.3844986050115667 50 49 58
0.9649061717695493 -0.07022834171118099 -0.38501775441621017 43 48 55
0.9579965307216207 -0.06979356473481285 -0.38545930926154265 44 46 52
0.9688777607622019 -0.0746900929564431 -0.3839849943255351 189 195 195
0.9610928757874603 -0.07315485202276635 -0.38473719867702344 188 196 195
0.9610928757874603 -0.07315485202276635 -0.38473719867702344 188 196 195
0.911136984998727 -0.07133501923737548 -0.38528496280766894 30 33 32
0.9724730957009073 -0.07662254199537714 -0.383911377053769 52 46 52
0.9650487438926174 -0.07712039257071035 -0.3846898815645963 63 62 64
0.9650487438926174 -0.07712039257071035 -0.3846898815645963 63 62 64
0.9740592952475888 -0.07861550889340115 -0.3824826279354462 37 43 45
0.9740592952475888 -0.07861550889340115 -0.3824826279354462 37 43 45
0.9705829318492366 -0.08098784401127991 -0.38711103067588876 189 195 193
0.9699083205485514 -0.08100531338919464 -0.3877290970176665 189 195 193
0.9625875984415531 -0.08088159479886117 -0.3861427888940721 189 197 196
0.9794874102449144 -0.08668643989492074 -0.3919058967242615 40 46 48
0.970033365121878 -0.08477984718510495 -0.3864969364011505 51 49 56
0.9464540001246212 -0.08599293326497312 -0.40778624987817075 21 28 22
0.9075847141088265 -0.0816946663432476 -0.3851619145777469 177 183 183
0.9769122033334271 -0.08867391189674217 -0.38545212928303774 57 57 61
0.9123281674149237 -0.08865201084552024 -0.39075259948066304 32 32 32
2.104227943299284 1.4436225763727757 -1.2195967339960196 107 100 90
1.1277797198576924 0.33400873524630775 -0.41112107478092413 27 27 21
1.1025404008374962 0.19749510824932348 -0.4068470821491553 56 55 55
1.1085873252129326 0.19345391666943343 -0.4178596115538049 77 72 70
1.0675118857913142 0.17104643191406793 -0.3777353023469418 111 112 108
1.0749300633034327 0.17671701173341764 -0.3999113608369627 84 79 77
1.0997511806126625 0.18054682647161466 -0.41159707096623255 122 123 119
1.0688291332546724 0.16703565717905897 -0.3765427769924838 82 79 76
0.8347580094484315 0.13054321406566347 -0.38698767295255826 159 159 155
1.07956856784945 0.1586369524059281 -0.3775204528426285 84 83 85
1.0844386251826492 0.15593586652156885 -0.38447386970159103 85 79 81
2.0835687776462617 0.5708749050611476 -1.2497468473557578 85 74 67
1.077217292659115 0.14821530794216994 -0.3775244854539708 98 97 97
1.0985559163780105 0.15210232969628154 -0.3857005927518314 133 133 129
1.1170138797980995 0.1473343813003754 -0.41567808216822316 125 125 129
1.0782438020389946 0.13569727253304353 -0.37657465920987715 159 163 158
1.0094960380690443 0.1193979238633268 -0.38145603366912456 77 80 83
1.0094960380690443 0.1193979238633268 -0.38145603366912456 77 80 83
1.0985989801248304 0.12215789290157023 -0.4023913346495019 112 115 114
1.0880741214693732 0.11628623083211932 -0.3864360537193501 158 161 160
0.9735699495158994 0.0966655196978395 -0.3834459467501184 56 59 58
0.9460623402635014 0.09269916705004501 -0.3841988939902009 36 42 40
0.9825230617248178 0.09119764411937739 -0.3942505367607217 54 62 61
0.9423618710461146 0.08356039560090796 -0.38443119203813464 45 44 44
0.9358332823217981 0.08325638799413015 -0.3852900741889791 41 44 43
0.927770055514743 0.08198542075012652 -0.3879088599386827 32 38 40
1.138744543170891 0.10703040702242017 -0.42850684579282294 68 68 72
0.9395776506777946 0.08084127468424271 -0.38480832297135537 185 193 190
0.9395776506777946 0.08084127468424271 -0.38480832297135537 185 193 190
0.8704446945302965 0.07643701808775762 -0.3899041408630254 43 35 34
1.1013069639141835 0.09355700323892782 -0.38430682065219934 127 133 133
1.13888046875143 0.10488140079503573 -0.4287182157642995 127 133 133
1.084517410116393 0.09190479173699788 -0.3839879429494631 121 121 123
1.1091723772772564 0.09458097388998177 -0.3947995884140888 105 108 109
1.095101345717537 0.09221830147414374 -0.4009230459861034 108 108 108
0.9288145132862838 0.07596454440794298 -0.3858007689775296 42 31 24
1.1303663757434992 0.0918603799833718 -0.4084500080291385 85 81 74
1.0944546503615915 0.08429325349685758 -0.39199883717356865 161 169 168
1.0979990558227626 0.08315235473322154 -0.4006280857487378 102 105 108
1.0004468361868675 0.07389639736635778 -0.3871098093150459 78 77 79
1.0004468361868675 0.07389639736635778 -0.3871098093150459 78 77 79
0.8392389893499985 0.06257138931029824 -0.39299755792266566 195 195 197
0.993893790137478 0.0685382442689227 -0.3826192266438662 194 202 199
0.993893790137478 0.0685382442689227 -0.3826192266438662 194 202 199
1.0884857798419174 0.07200561272838821 -0.38764258763762716 110 116 114
1.0846784475581586 0.06983243623434918 -0.3895035573870203 109 108 110
0.9054348068701972 0.05263790354414601 -0.3977779592258963 179 190 190
1.1082689974093949 0.05721972140599652 -0.40114385762130095 93 93 93
1.1000021704205043 0.05278496276423069 -0.39371077348278083 93 93 95
1.098874919063391 0.045081135220709445 -0.39016915653179207 151 157 155
1.098874919063391 0.045081135220709445 -0.39016915653179207 151 157 155
1.0945360319712867 0.04266628900672331 -0.390086089070247 157 170 167
0.9638113030431288 0.038606074214190475 -0.3875411646833399 187 195 194
0.836561812275446 0.035470843958082456 -0.3905173357073001 181 184 187
0.8361534667121381 0.03421627515210704 -0.3911063539393717 107 107 109
0.9585227636575554 0.03750253796140169 -0.3896113368085408 36 42 42
1.1055370604719192 0.03410787627040761 -0.3975534226730829 100 106 108
0.9853300893724835 0.03245667864628892 -0.38749802995718036 50 63 62
1.1040982130925598 0.03373553399255979 -0.39262052371913614 105 108 109
1.0871914984912852 0.03357140085130875 -0.3768000496624563 137 145 146
1.0915447336719806 0.033344990030570065 -0.3930508630420179 156 162 162
1.1121918794805137 0.02810832173848507 -0.39597716978722425 98 98 100
0.9856252895476634 0.026976221489299117 -0.3882677830508743 189 195 195
0.9853904669314837 0.02699034372813249 -0.3879139168838406 189 195 195
1.1166454833442114 0.026300143830946327 -0.3949940716856006 94 95 86
1.1071355032692594 0.023319383484456276 -0.4023208673805909 141 147 147
1.0930743544566803 0.020795784245186123 -0.3977074453384215 170 176 176
1.0895820190677963 0.020340553584587456 -0.3810978539583696 95 98 97
1.097049745111491 0.020527754797085823 -0.383854082755415 102 101 105
0.83618023896494 0.018518769860812672 -0.3810697961616825 175 174 181
0.8362832170337398 0.014192494398561396 -0.3898664242090701 105 105 109
0.8365532652175354 0.01399155102694222 -0.3849588246843056 105 105 109
0.8680718126177538 0.014092776612908238 -0.3890778519726151 43 46 49
0.991983607461635 0.012169174329211102 -0.3871118933504618 183 194 190
1.0894435957500541 0.011513769881478673 -0.3833996998121821 149 155 157
0.8350144828705097 0.010872796551160113 -0.3908012239567468 187 187 191
0.998265654356959 0.008477587266223285 -0.3859076846377323 187 195 192
0.9290920732186628 0.008144112552098109 -0.3895592324919643 37 33 36
0.9288783765985149 0.008139847548577635 -0.3893468668232698 37 33 36
1.086315202749749 0.004262870447235856 -0.3898749584077931 107 107 111
0.9262500289089763 0.005160328809762314 -0.3894953661947276 31 39 36
0.9262361225348121 0.0053401467980394605 -0.38927108782919345 31 39 36
0.926340775463733 0.005215777574677598 -0.38964185011346886 31 39 36
0.8681114796816866 0.005860528695117275 -0.3889076288680214 174 180 180
0.9366860010281259 0.004455374888667753 -0.3900332809918462 37 43 43
1.0099522266478191 0.00397554521630275 -0.38618429888271427 80 86 88
0.9529665470746884 0.0020502573371880754 -0.3826960980619657 39 47 48
1.0848537810477545 -0.01511481243061563 -0.3912005744550129 112 115 116
0.9101951866624358 -0.01055283673999381 -0.3898033114440565 27 33 33
0.836174117464504 -0.00928223209147151 -0.38740328423855386 176 179 182
0.9632412667572842 -0.015955032059267227 -0.3901902098362268 185 191 191
0.8381525330828938 -0.015093693282490986 -0.3914887674432731 187 190 193
0.9024254744823336 -0.01960671231365545 -0.38088746810718577 171 177 177
0.9737314873028602 -0.02266564776711953 -0.3896556814122381 185 191 191
0.8362992678089022 -0.019518218215839604 -0.3923491985904222 170 176 178
0.9893284149013707 -0.029165594584753058 -0.3930619573801051 46 54 55
0.9212239661858999 -0.030997017448637115 -0.3881492088863648 30 36 34
0.9876250421910058 -0.03545661626720601 -0.38713833498111216 190 193 194
0.9429571192808984 -0.048335816469504536 -0.3909931613180332 168 179 177
1.008323310475988 -0.05669201656722811 -0.39084206202099636 185 191 189
0.9995657013925546 -0.05493609799333926 -0.3839287896800012 193 196 197
0.9435062779536637 -0.05787362625759532 -0.3911146736039883 30 36 34
0.8740165101210513 -0.052221894829263586 -0.387879403231637 164 170 168
0.9575919232777339 -0.062321106597028074 -0.39104487126194964 36 42 44
0.9625317429093336 -0.07233350810332069 -0.38699218293068616 188 196 195
0.911136984998727 -0.07133501923737548 -0.38528496280766894 27 30 31
0.9695782843016575 -0.08450558607722802 -0.3842077105519596 52 45 56
0.972864437420258 -0.08506023090568925 -0.38344851224434573 186 192 190
0.9609031497879263 -0.08741143654621265 -0.38353658409785935 36 42 44
1.1160858597317886 0.26791101036577164 -0.3941241987886727 40 31 26
1.1097057495629215 0.17385938626051095 -0.4120494140093483 116 116 112
0.8390777222053798 0.13176031280583575 -0.39903763809368736 129 125 128
0.7781160174949053 0.10724141474500631 -0.4007994943744679 71 73 64
0.9874286355181385 0.11913314744150741 -0.4059457509014234 62 64 70
0.838261254080392 0.10576662708163044 -0.391685873458874 128 131 134
0.9672744630819684 0.11001025989229334 -0.386185887376641 55 54 56
1.0086070237099627 0.09657797813928096 -0.3850336268237209 62 72 75
0.947327850522554 0.09321420584009125 -0.385312758173526 37 43 43
0.9459025561367181 0.08748644588312667 -0.3841392621224035 184 190 188
0.8700988806500761 0.08002192757267196 -0.38927305785830446 175 186 186
0.9957550838494745 0.08395060191977803 -0.38054257173107725 60 67 71
0.9326105709966084 0.08246355276896526 -0.38862157343421666 181 189 186
0.9404573354885054 0.07781609311359106 -0.3881886807281299 181 189 186
0.7814348594903678 0.070524322184046 -0.40228391585723156 63 54 57
0.7813167821861139 0.06845032802842312 -0.3998714847485892 81 71 71
0.9299745892568745 0.0690663453563207 -0.3936096156497667 31 34 35
1.0795301037870986 0.06663769951761378 -0.3824044521237207 99 102 103
0.9663645717918766 0.05183998917996407 -0.3934619047703765 184 192 191
0.9663722844017332 0.05199746805605091 -0.3933746566419037 184 192 191
0.9712832643088323 0.044279257312403245 -0.3977708649608147 42 45 46
1.066353542627296 0.046286078562428924 -0.5341349082947395 56 64 63
0.9509616382792213 0.03479474872268632 -0.3970028371626862 37 43 43
0.9748807528606069 0.02792497405760245 -0.37838377493890835 46 53 57
0.9252053657712709 0.022467191988461158 -0.3897985547909675 30 36 38
0.8646245025601368 0.020026775009682616 -0.38178524038861794 165 176 176
0.9918383876379261 0.013011560326972389 -0.38606431379332906 181 189 188
0.8725658125748366 0.015505712794256067 -0.3916533301672299 164 175 173
0.9324246618030819 0.011364771571630464 -0.38931892084033853 47 43 48
0.9324246618030819 0.011364771571630464 -0.38931892084033853 47 43 48
0.9896753502286487 0.0056390759701278334 -0.386211883388899 49 56 60
0.9319602132050949 0.007263491209180197 -0.3885496752001794 164 170 170
0.8342475634635534 0.010192347031828666 -0.38211162033548096 107 110 111
0.9013531262180624 -0.0009413219463241383 -0.41952416946184934 27 33 31
0.8346046767923639 0.0023025952265417274 -0.3910967495486458 95 95 97
0.8343056977138493 0.0021816457173654586 -0.39046736196509135 95 95 97
1.014312355857208 -0.006028093557570321 -0.3915305470799175 49 55 57
0.9476356029801616 -0.004849424164960332 -0.39057761357402054 32 38 40
0.959700874910739 -0.010294810212584824 -0.3858168177846669 166 173 177
0.8956790867934047 -0.010636332643053723 -0.3930801171115963 25 28 29
0.9566452695870798 -0.013820793907297676 -0.3778194361574707 189 195 195
0.9566452695870798 -0.013820793907297676 -0.3778194361574707 189 195 195
0.8910196965215365 -0.033013578483058276 -0.3927789330456978 163 169 167
0.9952923059264789 -0.03781348033285988 -0.3812495126403523 35 40 45
0.9276997252987338 -0.04039072153333358 -0.41511295843439555 21 24 25
1.0040616570460323 -0.04379443596968578 -0.3874258912912268 55 62 66
0.9971011831627524 -0.04563102330343022 -0.38384593506607867 40 48 49
0.9938875185166575 -0.05431018924075128 -0.3868935501359305 184 191 185
0.9993038294472885 -0.05497951082446723 -0.38367889167339575 185 188 191
1.0045902800385755 -0.081349483654381 -0.39278715992702945 26 32 34
1.0904433660386332 0.2831191533065877 -0.38235589831302297 65 66 53
1.0989829186886282 -0.00879984970757477 -0.3947927196255034 117 123 121
1.1290358706339005 0.17793091145323417 -0.4140856913880005 89 88 88
1.0791361599728932 0.14496044886842152 -0.37974607886892897 106 106 102
0.8351188379297134 0.11467425719121078 -0.3864839076207091 184 183 185
1.0810147005084354 0.14045417478637218 -0.3770103463500267 163 169 169
1.1020266542398987 0.14645883185868305 -0.4078547400767795 114 115 111
0.8368099414355724 0.11055990203305971 -0.3861434750555342 143 139 144
1.1264246807153138 0.1403243514789638 -0.41367348931339143 100 100 100
1.1039898095992546 0.13451181565255452 -0.41036978066240926 163 169 167
0.8917656728009137 0.10132691374707148 -0.3820939259764746 36 42 42
0.9712585892344953 0.10269563078165592 -0.3990094942108806 59 52 44
0.9809107127214055 0.09303862913094818 -0.3781160747608703 51 62 60
1.1184824671669522 0.10592323536104688 -0.41456728430627915 110 116 114
1.0151926277180368 0.09510208461438106 -0.39888370652469085 54 60 62
0.9484516149676262 0.08801381132458341 -0.38790927479465726 191 199 198
1.1024998755703885 0.09947824514238744 -0.4031753181188397 157 165 162
0.8761488092340827 0.08052500185655238 -0.379318535588656 26 32 30
1.1038102648020092 0.09092087106343123 -0.3858898189331543 92 100 99
1.0979990558227626 0.08315235473322154 -0.4006280857487378 100 106 104
1.1075381419188555 0.07315560902054008 -0.40320630170730476 135 141 139
1.12070001082165 0.069711931975957 -0.40178390130713937 95 98 97
1.1306033706881058 0.05901943957943026 -0.413100783039832 136 142 140
1.0873589417158125 0.053464791547126723 -0.3833370927570482 152 160 159
1.107611794533382 0.053369085908644545 -0.40223114485898864 145 151 149
0.9637856641951014 0.05037517824051956 -0.3857656862218765 188 199 197
0.9659053236010974 0.04393580045922586 -0.3867494069820395 42 48 50
0.9739177774627207 0.04229810305731273 -0.40452552667862113 55 55 57
1.0795925199235914 0.04181171789795111 -0.3772640570457446 160 163 162
1.1151263507441351 0.03525210537882155 -0.40585221707133745 100 103 104
0.978279159963071 0.03214933620855858 -0.3868701608016372 189 197 196
1.1234114044457921 0.025629522588322223 -0.405491067309742 77 80 79
1.1066137614701619 0.025825870830197162 -0.40175562625908784 84 83 85
1.1142506856533059 0.022924526021830156 -0.3946908309798033 131 139 136
1.094455278998136 0.023524556778120664 -0.38705032285419055 77 77 79
1.0871804743738118 0.02161865974015816 -0.38454264901359075 91 95 90
0.8707301462307051 0.019858230308452778 -0.39227737968360055 29 32 33
0.8765440434977205 0.018367131893505285 -0.38578887200605444 23 29 29
0.8725639056424965 0.015803980493900627 -0.38232439351374053 176 184 185
1.0861206629196845 -0.003620034973515811 -0.3895936355657749 88 88 90
0.9884687490352003 -0.0031784945219461443 -0.3917981398765709 42 50 51
0.8371189215620753 0.0032721695481995362 -0.3897385392589809 178 184 184
0.9008511876328315 -0.012687150190826413 -0.3903992015951259 181 181 181
0.8322086562947647 -0.015504449515150572 -0.35998646139723894 179 175 178
0.9809462888243962 -0.03672741011647968 -0.3891284145344016 40 40 42
0.9523503754554626 -0.060031708403852795 -0.38044641932119366 29 35 35
1.1007569057142426 0.30238292465915373 -0.38186926798971665 87 80 70
1.1316283180404572 0.1641788940452785 -0.42044719665502805 89 89 89
1.079261206016216 0.13793473666285755 -0.37771318327798076 169 173 168
1.1146432840250993 0.02943026508306345 -0.39590645322785717 131 139 136
1.0742764757735037 0.09517985728858241 -0.37583437236193695 168 176 175
0.9467755201093099 0.08577358053568077 -0.3709484964388121 40 48 45
0.8306556353044554 0.07226001349636724 -0.35323076369135126 195 195 197
0.874264669991195 0.07487159292879292 -0.3780879801544772 33 32 32
1.1051341377452564 0.0820697480522022 -0.40489345581119773 153 161 160
1.082518126881833 0.07712355744061246 -0.3837873371247701 156 162 162
1.0806201191236566 0.047574268821256975 -0.3787758363867742 162 169 163
0.8306514610574264 0.043015725778675566 -0.35744261831960866 129 128 135
1.0949061070099748 0.04282655437735312 -0.39037657018258215 160 166 166
0.8363617666094376 0.014283443525850726 -0.39007274309650597 112 111 113
0.9625192079865686 -0.00020726460679556052 -0.4032585436007346 38 46 47
0.8354027827666898 0.0061374350938359825 -0.39172595569636665 120 119 121
0.8360609322776479 -0.0016875669489023928 -0.39326410789704325 164 161 158
0.836268116640871 -0.004151059577285257 -0.3900404830345213 123 117 119
0.9936808424998135 -0.05419543962732946 -0.3850455744842234 192 195 194
1.1058662082130353 0.2802681283712148 -0.3977961476779252 29 26 21
1.110138444089606 0.2649200084002554 -0.3890240477239715 132 129 115
0.9642220399434245 0.10777961749475838 -0.38750993851249677 202 214 218
0.9642220399434245 0.10777961749475838 -0.38750993851249677 202 214 218
0.9500839263559371 0.09225584647746587 -0.39263355759402163 47 44 41
1.0970565988207595 0.09566121475605832 -0.39914377147694424 161 172 172
1.0953730815742897 0.07131329510996491 -0.3984289032910872 128 131 130
0.9194518972280142 0.05262947068228925 -0.3805840996677148 35 40 45
0.7900789185854908 -0.0315737512206761 -0.09604482295904182 26 32 30
1.116285189643536 0.05354665097610862 -0.39780079595567364 100 106 104
1.0882510594818808 0.04242153374054199 -0.3986919674869523 121 124 125
1.0999212046991986 0.03986722900698467 -0.39719804049310115 119 122 125
1.1023989842175748 0.009559558823735315 -0.3953399001033196 145 153 152
1.0948529816357582 0.008798320906093364 -0.39558669892518133 122 125 128
1.0948529816357582 0.008798320906093364 -0.39558669892518133 122 125 128
1.0934441684017617 0.0012369765835337433 -0.3964810810626323 168 176 175
1.0955715343383507 -0.011147746908066266 -0.39651083458715547 106 110 105
1.1077218150730797 -0.011903643494411748 -0.39553821677463075 98 101 102
1.1073224498681944 -0.011974712693949943 -0.39486468259858293 98 101 102
1.0866505880010693 -0.014152773595378016 -0.3956224919895902 161 167 169
1.0980086857557037 -0.01504360982931891 -0.39268072236354246 96 99 98
1.0910284127050056 -0.015436531863622378 -0.39483226995677906 160 168 167
0.894912123089165 -0.00908605267673716 -0.3845345135145107 36 36 38
1.090926376930414 -0.022649937390766862 -0.3906693727337401 108 114 116
1.0005040821537565 -0.03970085903862589 -0.37614859703011727 56 62 64
1.016181668263553 -0.04006652943262579 -0.39926235478281435 56 62 64
1.1666291385318415 -0.06205027153374727 -0.48355256654636253 84 90 92
0.9964780143845102 -0.052930748003671146 -0.3877699280813947 197 205 206
0.959010781384847 -0.07132523933992277 -0.38157273413178133 177 185 184
1.1245838283279248 0.11341390053812304 -0.4286922382752622 124 127 128
1.1195469735398875 0.11102284268631298 -0.4254305322994183 159 167 166
1.005693443432385 0.08373562722410655 -0.38955382919126547 183 186 185
1.0075350842912114 0.07742837078143529 -0.39230582134732095 190 201 201
1.1044032050309984 0.03837392976705801 -0.39929998593031835 152 163 161
1.1181638402412741 0.017168690256906396 -0.419013116713443 165 176 174
1.0999656680371463 0.006901492840144037 -0.3959410778742335 96 99 102
0.9163092529809608 -0.008964078116696564 -0.37250097298030593 34 40 42
1.0885564513196972 -0.008608382662996619 -0.3976232995400407 181 189 188
0.898972315520444 -0.01772607077455261 -0.3943153184877359 187 195 196
1.110060730016631 -0.024584171963181915 -0.39705193371527725 107 110 109
1.0960753722072178 -0.034684356597327395 -0.3970671476859773 96 96 96
1.0960997749811194 -0.034680839842376514 -0.397079475276376 96 96 96
1.1012641601996507 -0.04177723000337694 -0.39625450542659796 108 108 108
1.0694159798259772 -0.05114749679528114 -0.3736134869614968 135 143 144
0.9964377597115087 -0.0472156196144929 -0.38481838570012067 57 62 67
1.0973114450485915 -0.0530448788040416 -0.3954554051834262 127 135 136
0.9664103778820371 -0.04789151040809525 -0.3857972046940864 35 43 42
1.09188216130812 -0.05581594099485417 -0.39172464440108634 91 91 95
0.9425966608876978 -0.09142694389678233 -0.38547239133983396 32 35 34
0.8761896185940473 0.08120109975871578 -0.38814680570271515 35 34 34
0.9154100892942659 0.08492848190895151 -0.39086776617571567 37 37 39
0.9647262646725827 0.07511771084130513 -0.3839029059598952 34 45 43
1.0923663404685093 0.08299157411228517 -0.39339432423146875 167 175 172
1.1160749623490949 0.08837032916879878 -0.4227225847785457 114 117 116
0.9775146055652908 0.026124869437187146 -0.3856592862959674 53 59 59
1.1168717844627114 0.028755347203151628 -0.39594462051018375 99 103 98
1.1044873738358074 0.0006296536793900943 -0.39403498090824995 110 113 114
1.1087095905916917 -0.004437841504556086 -0.3979663020802317 105 113 114
1.0989829186886282 -0.00879984970757477 -0.3947927196255034 117 123 121
1.1102873085401581 -0.008832206203620246 -0.3981739328471665 104 111 115
1.089402531922629 -0.013208372389560184 -0.39686549489892786 110 113 116
1.0971685420458586 -0.018589062412299805 -0.3987097134065497 105 108 109
1.0971685420458586 -0.018589062412299805 -0.3987097134065497 105 108 109
1.1094368420815117 -0.018715930791082615 -0.40529684348026035 118 124 124
1.091623959072205 -0.023983947915309823 -0.3960659708043763 165 178 175
1.1118343457875781 -0.03243255016196802 -0.3986398249933316 107 107 109
1.0998950502736438 -0.04187093066481125 -0.394912577598571 119 119 121
1.088852519350202 -0.05737912262818358 -0.3950953678652645 92 94 100
1.0929020619236696 -0.059783940133779245 -0.39584587097438506 132 138 138
1.094765698806156 -0.061156953459528686 -0.3949080966017405 94 94 98
1.1066980365328918 -0.06403538467361788 -0.3894290576667245 82 85 88
1.0611331525284065 -0.0633445076133291 -0.36457671143100157 131 139 140
0.9609500172437461 -0.07462659966399245 -0.3631180127540231 202 210 211
1.1577335765418408 0.36250888298455886 -0.4401499222953641 112 109 104
0.906410745698153 0.05087162790005951 -0.3664810478811851 37 37 37
0.973394912031022 0.02415813984004142 -0.3680773393246438 55 66 66
0.9714235140273205 0.01804706848546393 -0.3655151543488081 192 200 201
0.9054555348811317 -0.01005603520586023 -0.3496357463807269 192 202 205
0.8983231038366956 -0.038878183534320036 -0.3318247228148571 34 41 45
0.9272021973204349 -0.04140459073800551 -0.3849609709856105 36 41 46
0.9909358522905342 -0.06326988243604514 -0.3948246416455518 189 200 200
0.9909358522905342 -0.06326988243604514 -0.3948246416455518 189 200 200
0.7996490477070327 0.15350316254110033 -0.3999015243194978 213 205 202
0.9097685804245289 0.11351569107349928 -0.3906304332679415 195 195 197
0.7719799676153452 0.07959905779062215 -0.4004695155336648 53 54 50
0.7729129184472286 0.06717288530158658 -0.39853433917364894 61 61 61
0.8508728556241879 0.0758283468055541 -0.39973524923293463 200 200 200
0.7689975044681178 0.04863427488545512 -0.39701005317553817 69 69 71
0.7749172236669767 0.04579964037508073 -0.3928078235935876 75 76 70
0.9236499180620309 0.0561726456120408 -0.3887760138932694 34 40 40
0.7794206991073162 0.03356273123977199 -0.3986035952668439 71 76 66
0.9367081761994303 -0.016700340614374514 -0.3902185460748907 30 36 34
0.96049347381252 -0.023867412669212513 -0.3851384846715539 185 193 192
0.9637263867187221 -0.02316043485846413 -0.38969049677787104 185 193 192
0.8741606263827949 -0.041126201634345216 -0.3540312261816794 183 191 190
0.8685835204254815 -0.06727669208589941 -0.33457472005336286 28 31 32
0.8685835204254815 -0.06727669208589941 -0.33457472005336286 28 31 32
0.773817510755731 0.0617281463982591 -0.39893219861264256 74 75 71
0.7743049650728454 0.05620272402315353 -0.3976417608133563 69 75 73
