ply
format ascii 1.0
element vertex 175
property float x
property float y
property float z
property uchar red
property uchar green
property uchar blue
end_header
880.7567494463206 57.54016759262737 -377.7569994445319 167 178 178
773.1387158606954 55.26449071286475 -369.280928230331 136 138 148
773.1387158606954 55.26449071286475 -369.280928230331 136 138 148
809.7947989410673 27.396621513875903 -327.6448897003244 81 81 75
767.2574281120792 66.78803146846923 -330.0503254287518 130 129 136
893.7699651260504 -6.709219649676239 -389.2781685834529 41 40 42
778.0858678996009 -0.519736013598488 -400.8632329184929 103 108 113
894.7678245951471 -21.95542345578988 -362.22578463539446 160 171 169
754.3807313694641 -1.8632641923025994 -305.2797190915021 173 175 181
753.5322454515189 -11.236781067913807 -305.43895509562446 146 145 152
753.5322454515189 -11.236781067913807 -305.43895509562446 146 145 152
754.2612141937536 -13.694392414906847 -304.85755232416335 110 106 107
867.0281864047575 -48.50524590217407 -349.69791600696806 30 36 38
912.1252075953935 106.84693975584167 -406.2029900855718 32 33 29
944.2248948606968 -104.923322134996 -434.00563175637967 159 167 168
836.5331036647392 -70.22781293443512 -352.0455899047006 34 40 38
982.8522095205042 113.35113054973438 -484.97519306884817 58 61 60
865.3812612264671 106.04958701620612 -336.63710842096305 174 180 178
783.1456649363847 -20.782371995046855 -409.2589609009262 118 129 125
880.0106734896659 79.42833940716683 -472.9809054384566 32 32 32
753.1924041888493 99.13786846034809 -308.2621672669002 120 124 136
767.1480860488443 70.23087447531861 -330.51192792179603 126 126 126
978.3209064512325 6.063955478880839 -486.4016759442195 161 169 166
822.0259359303491 -8.401694447900883 -302.2824376888993 46 42 47
1160.075187265546 -212.23744567381289 -903.2060949768928 174 173 173
911.89534940159 -11.339460526945535 -383.86526202546173 176 176 172
958.189199631589 -133.49327290395897 -506.3853740162312 165 165 159
865.3553376552791 -20.89162673924802 -386.6269012405065 32 45 42
1274.1958388407727 -430.1037947662837 -974.7844898440292 164 166 157
937.1408826090017 -107.43379396264027 -416.99597640711556 37 41 34
804.8700404061631 -36.87774577958942 -303.1643835362912 186 174 187
847.3070064742984 -53.502169483256424 -264.8521351580904 200 193 202
778.9834473983962 114.55640062290901 -287.35218579884054 173 173 173
881.0217660156478 49.85693789184403 -358.91518989518664 39 35 38
822.6286951590508 48.64683450276926 -365.33944925913903 161 167 165
816.7990219967128 61.551953636045624 -265.1479983039575 182 178 179
760.4279803370856 26.0660150820001 -362.8139076511011 130 133 136
836.8660270620948 -84.15969308844726 -448.2791271729444 44 41 36
822.9485854573924 114.66533770654085 -259.2785188778841 60 57 54
838.3527294715593 106.81970132388669 -404.11397245265584 40 46 44
827.8031356103846 59.92877127179613 -364.2718079722124 31 34 33
832.8500586631611 42.13570517183792 -310.23191270164585 159 164 154
1181.0525374020226 -101.7044732478621 -686.5984471177096 47 45 52
876.4172723812736 -1.3238417905058217 -350.34104601700597 167 164 161
916.5182850915289 -35.4487233924098 -411.45145360866184 37 36 38
814.2156688485428 -2.006525743619528 -350.3104110960201 156 162 160
870.7313661968201 -53.9621364056811 -370.7835233033429 51 34 36
863.4230688371711 -109.6290029975306 -434.54575334242907 161 159 151
813.99106596923 50.03386999709851 -292.2529519010203 100 84 91
765.2230469296413 12.260037861953839 -149.6001750496518 40 40 40
782.7338567194122 12.904563832754135 -336.3484271782474 44 44 40
760.385189908455 -7.169625338298304 -359.9805345630676 154 154 158
785.5828007097432 46.19983974952491 -300.9918738599818 48 48 44
916.676933772774 2.847148452028138 -391.3233708609054 37 41 34
857.8688624925153 53.764936408086996 -716.8461345796037 181 181 183
850.4222360626139 29.696844389013407 -700.8060816463774 116 115 119
920.4734880613299 2.3852077629341784 -563.132698863507 166 166 162
891.4474705348772 -64.6728651606154 -338.89224247496713 167 168 162
761.4776668325156 89.390609203153 -317.8171756801983 39 47 46
781.3013631508339 82.96558456912558 -311.0958438696298 42 41 41
781.3013631508339 82.96558456912558 -311.0958438696298 42 41 41
904.3464125715385 4.3568770656052775 -365.5896270357245 36 39 40
818.5220992868751 -64.54173578066427 -351.25562772924616 48 51 50
807.3576480420934 59.161303375452206 -417.4235037633182 40 34 36
810.9507832613606 78.81304149973346 -292.7208348058148 161 167 167
816.8508604903617 46.89651322612833 -316.1838357942804 33 34 28
766.7700411471768 10.674929568608716 -391.73271878499406 134 130 133
837.2252169023714 -8.283293554692065 -452.8551764845095 145 150 140
828.9017751865799 16.529845986812735 -329.9948245333467 30 30 30
879.1419455144282 -10.435575347193009 -333.24475121591774 38 34 27
841.7445397969808 -51.86656097496782 -367.5308271873159 150 158 155
867.0223322741007 98.39737886185537 -367.1717382920903 174 185 183
971.7919628293163 19.270418276640164 -480.76174051838854 40 48 47
907.8472367365116 -62.43262875223929 -367.5582979309493 190 189 191
908.4935250628406 -62.40354961820832 -366.7732299769299 161 170 163
1930.835200957904 -471.65784725506893 -854.42542791537 37 53 32
2219.410744782938 -728.0024060840369 -1009.4623272989145 43 50 44
1488.3390176312032 -951.6201221644986 -622.96834830694 129 118 122
898.0661061343652 84.1239289638077 -345.45530197148054 193 193 195
905.8846727081192 -2.6967732333601693 -342.68641422493744 194 194 196
840.3684194189726 -2.07223110162418 -345.3774724522938 41 41 41
852.8573505370664 -16.107508034586314 -284.85112931819134 48 55 61
816.5103201454205 55.00704298241937 -267.937625766773 205 201 202
830.3560934079485 -37.82038706462686 -301.13340195072107 37 47 54
809.9973750169636 -37.68987935126542 -305.90301575031043 171 172 168
924.8892469672953 -53.64538647379301 -345.54170672190315 197 200 203
924.8892469672953 -53.64538647379301 -345.54170672190315 197 200 203
821.5399268229274 -50.04009398177137 -305.6529823074505 163 169 169
849.1193580719713 -75.28048388652634 -306.21001423392534 189 197 198
841.6635328294254 -79.60036217476026 -353.0242461308782 169 169 171
688.4179181936022 -319.79458368514236 -505.2117216763063 175 171 174
712.646376417864 -328.2962920691556 -450.3576077280072 34 12 28
709.668710101781 -332.07213734357003 -456.2926945417733 156 153 150
687.3345785861743 -291.181801875761 -398.9628307435748 29 22 42
710.6838678488208 -313.03619874895753 -391.79514153720703 7 13 13
716.7366783690558 -349.7622974148761 -453.22069326474906 48 37 41
699.8721055482696 -325.3935221940031 -413.2044008225731 98 98 78
715.79250789968 -366.55558646121017 -448.3577593088251 33 28 40
770.583315744597 -1.1781502768607803 -244.50300982996188 197 198 185
909.2672807112114 -21.830865732871676 -386.25553359627827 169 167 159
752.8856846772269 38.50851825596804 -200.66352650064474 54 66 68
780.5340643642479 49.0342244744816 -256.54499481058593 199 191 190
1317.9900873798176 -154.96547696350896 -790.2403005952639 175 183 184
785.4501261398949 74.33592656516143 -238.79198424069637 36 38 46
801.9565229199277 30.593863817947852 -462.8127304539003 129 125 126
956.2409549270938 97.52963284067414 -394.5091269467784 39 37 44
894.9327086945625 109.51584984157002 -384.9967983316975 168 176 175
870.7366303940015 86.16471150901853 -388.5672575685781 176 184 181
928.4651214545044 69.21016957467239 -393.2957429393924 177 180 179
899.1152721018342 52.55908587270659 -381.1870376000131 36 39 40
827.55579814254 72.09936061837605 -381.4006576265678 166 170 165
931.129464342687 38.38968014180103 -381.6856553663628 49 55 53
938.8599070351419 22.708379621961956 -381.11866436703804 159 174 171
963.197691606066 11.438246597704316 -394.4039793039295 56 64 63
951.163029954979 13.210836687099025 -376.79171693900054 52 63 61
858.9323903024856 43.280932926981485 -376.59256479256777 162 166 159
876.8000954879493 30.768813344122034 -380.663466419831 165 166 160
819.5012132706996 50.05332449406718 -374.9995399793108 29 33 28
891.9356231956219 18.355509666451503 -376.36487985512275 36 47 45
841.0652489207844 63.22422531917521 -297.4451795573701 170 178 179
908.6343054559571 -1.758527669639445 -401.60173073162093 158 170 160
869.2394009805392 15.252055851756598 -387.548155920472 41 47 47
913.8144061147364 -10.566180993657008 -392.1073993793105 34 30 35
912.2185951158725 -11.601753201847265 -393.7337280961457 31 31 35
935.2312258817234 -27.57115072667497 -403.5282866997038 56 51 47
925.0655995004652 -15.6683030578058 -378.1149126767904 50 50 54
859.1954923576017 -0.3662088835155229 -392.154366516755 42 35 29
859.1954923576017 -0.3662088835155229 -392.154366516755 42 35 29
824.2968395140746 14.054619762091821 -382.7773271484896 155 166 162
821.5016950599762 17.371267661879724 -376.1747275419108 155 166 162
938.3600645067165 -49.4604790211075 -388.02689469073556 40 53 50
938.3600645067165 -49.4604790211075 -388.02689469073556 40 53 50
889.2818422882912 -30.254488615035555 -387.0405932182658 43 43 47
976.1989315789785 -128.01300036407008 -521.0191059773841 43 43 47
823.4967228769838 7.866080722431279 -382.47223708359843 37 37 31
892.6626157388145 -43.74806194897926 -374.6180536870654 34 43 34
831.4920911968119 -24.813613412758368 -383.36726998824236 28 36 33
817.2048245568594 -24.831459074198943 -375.3457180692933 34 33 33
872.9728252077383 -63.906165189033366 -395.99403112596326 29 29 31
903.0328243357981 -78.36472586567274 -386.88121817037813 36 39 38
843.6972959045964 -64.59680378648288 -374.40356689036855 169 170 161
942.5564953499465 104.21238883293353 -404.8343833700353 36 47 45
910.7380068038763 107.24612673049195 -404.5536919050212 38 42 37
932.4155291049788 76.26259570483846 -389.3182867736587 185 185 187
919.2055031013028 53.50984212065345 -389.98781755167545 22 34 36
928.6728801355894 45.07474775667408 -384.6839610727565 43 53 56
836.0902940385274 71.38005000424383 -398.60937860030316 38 46 45
899.0930825774233 43.88239242831842 -388.6860386298157 161 169 166
936.5084343804785 17.89743928657727 -386.468745358012 36 42 40
937.2054832155758 3.7696290564603463 -404.67575753265515 34 34 36
929.1491301499384 8.59132156669071 -395.7911404133286 34 34 36
869.2566235087872 23.10322228820892 -379.9884268096759 40 36 37
869.2566235087872 23.10322228820892 -379.9884268096759 40 36 37
897.661612931314 6.433720015243466 -379.6544773697435 38 40 50
926.0264169613072 -17.0565397017483 -379.36999626765186 34 39 44
931.3601195054085 -25.691032089260275 -380.01824498754445 52 45 58
922.4196939141065 -22.05871807916961 -380.4429912254353 41 40 42
922.4196939141065 -22.05871807916961 -380.4429912254353 41 40 42
927.1303902487529 -27.804606801106505 -388.6177569853202 34 34 34
829.3310129477331 8.14564794976169 -382.2090309097007 159 163 156
823.4967228769838 7.866080722431279 -382.47223708359843 37 37 31
885.5003393705637 -31.913615485531967 -385.3495885759926 151 163 165
922.4415002486296 -54.381792015897304 -379.7978829497515 174 177 180
913.8571874825684 -73.26875905423027 -378.5267210505177 176 180 192
913.8571874825684 -73.26875905423027 -378.5267210505177 176 180 192
811.3398831376031 -46.42032153549072 -390.17463848145354 158 158 158
822.3470941709211 -33.215795752390925 -339.1432459456477 57 41 46
1049.7255719250827 -510.02537388399713 -859.0666634766353 174 185 185
889.0313778461663 109.31358726011196 -388.79622710317614 30 37 29
855.3640685013577 102.99494831754029 -385.739684598492 36 39 38
939.4392334183543 20.430175259607942 -387.2422881372582 52 47 43
861.8957973000546 46.077386545912404 -383.1518793304064 39 46 40
1254.1902410992607 -307.6426616087768 -931.9292264810357 38 42 37
895.8958100434891 -17.585388868944186 -382.53437164803046 164 168 163
864.2296945060781 -21.982610767650137 -387.01848447548963 36 37 33
