ply
format ascii 1.0
element vertex 159
property float x
property float y
property float z
property uchar red
property uchar green
property uchar blue
end_header
0.7649266258009534 0.03679348593650049 -0.3191982471423008 117 117 121
0.8952013253295048 0.0493346216875068 -0.36555647256833085 167 178 178
0.7702578448694731 0.05713801097146648 -0.303457199297108 130 129 136
0.7724485459285576 0.017034444091706603 -0.33470686967747865 118 111 122
0.9061852132520382 -0.014677602666424549 -0.3664216945515592 41 40 42
0.7594262060423577 -0.0019585022580133494 -0.2877344622237256 111 111 115
0.8412843392052151 0.027109783856244307 -0.3595978296712447 181 181 183
0.8897170997338071 -0.02831277665446491 -0.31382086523150743 48 54 56
0.8897170997338071 -0.02831277665446491 -0.31382086523150743 48 54 56
0.8898293345700059 -0.030648880227331695 -0.3157059219558463 152 167 162
0.7516731441158121 0.025632034199915096 -0.22328834216111818 171 183 185
0.7608476640612637 -0.009180964405775602 -0.2878411716716078 160 171 169
0.7608832666158531 -0.013443836466363065 -0.28769997580160983 173 175 181
0.7599920734148132 -0.023391923347997407 -0.28790728649661224 146 145 152
0.7599920734148132 -0.023391923347997407 -0.28790728649661224 146 145 152
0.7607648709484208 -0.02599830422850357 -0.28728609518029713 110 106 107
0.9451784668975574 -0.11443643393061821 -0.4011698887115442 159 167 168
0.7895033193839655 -0.011884763346409862 -0.2901506428509132 166 180 171
0.8856927491085876 0.06883802126710101 -0.44878849610684535 32 32 32
0.7701510763532448 0.06064774061920259 -0.3039534441280197 126 126 126
0.9858718529801381 -0.005870833718333406 -0.46236174889959253 161 169 166
0.8543302504553961 0.03979627401047493 -0.37310562526350305 166 169 172
0.8243612240442622 -0.015398084911772355 -0.270222303110465 46 42 47
1.1590553748154193 -0.2202356554546379 -0.8662019061444822 174 173 173
0.9139106058841288 -0.01778467187997536 -0.3512730886489752 176 176 172
0.8114294956552246 -0.006583411845475708 -0.3245412227885964 160 166 164
0.8452322891670255 -0.03365213621784222 -0.328122749294642 37 43 41
0.7647999617717127 -0.023636292198922913 -0.319904319076852 143 138 136
0.8694825379821775 -0.02891153536037749 -0.3571189672367288 32 45 42
1.292345296423574 -0.45477945378311624 -0.9677759808314659 164 166 157
0.8177372552768258 -0.06002644922738173 -0.2975329065700533 12 25 20
0.7921759364952485 0.02761158049645086 -0.1260039911216631 39 30 37
0.878058614036578 0.06997222268254856 -0.27932528048084243 186 192 192
0.8731359443660497 0.0445270036101238 -0.30772110827379656 39 35 38
0.8291895785938682 0.03825946819444652 -0.3355619998707097 161 167 165
0.8134944047143637 0.05539838461844938 -0.22070551232687355 182 178 179
0.8137265979302771 0.025451779707363283 -0.3374973626498632 30 34 29
0.8348839114970932 0.06777978555340172 -0.4187000033661195 31 35 30
0.8399174929250411 0.05249667735450705 -0.3517925839806313 31 34 33
1.17694728695334 -0.10826208816264977 -0.6453917464871173 47 45 52
0.8641707011542218 -0.0019843392675879764 -0.2944481900232768 167 164 161
0.7755915227804078 0.0171541196600751 -0.3565934976050067 169 175 175
0.79878767947177 0.012752740162750716 -0.37006985215948834 157 165 164
0.9032054290299708 -0.037169849089686964 -0.3273274458405708 175 175 175
0.8080580368605959 -0.0027940825586133806 -0.29502168738426027 156 162 160
0.8451863794342711 -0.014413346609519057 -0.3569223954858651 157 166 159
0.8449473554432569 -0.03785890138975008 -0.32738809771437555 155 158 159
0.9092331365575815 -0.10158043927952466 -0.42074282623754644 39 45 43
0.773858098445645 0.02465125727714129 -0.15298117604204137 183 186 187
0.8684146545335246 -0.12066877597579882 -0.40573464884694604 161 159 151
0.8144076163477102 0.03438726294910705 -0.1864337660177119 42 50 47
0.8538448503852252 0.06577578240637058 -0.3309627683859643 165 164 164
0.8006427684982929 0.06689328734058778 -0.3224018491108531 40 39 39
0.839963039240667 0.0553442446223937 -0.33213777634131814 35 35 29
0.7915729152474903 0.0025834586960978355 -0.32161763685610684 44 44 40
0.9297006575184413 -0.004824405407869724 -0.3684376877681133 37 41 34
0.8645240218928265 0.025043354145384777 -0.7060394807460518 116 115 119
0.9320387593084395 -0.004373076834776851 -0.540427638451862 166 166 162
0.8329260213943388 -0.015258651379872964 -0.3204909356111716 29 37 38
0.7756907674758243 0.0025916994907073127 -0.3487194920996455 129 129 123
0.8052128358500079 -0.05460915100512935 -0.3207151476405667 33 35 26
0.902728799097127 -0.07767560482391456 -0.3165887327204018 167 168 162
0.783792675633159 0.07404093685566043 -0.37569313420367434 144 139 135
0.9273232206626273 0.03930212874522971 -0.37291706965357835 47 48 39
0.7787089796287919 0.0098748607818228 -0.3079635413697824 165 167 173
0.8506849619932826 -0.08885448509077064 -0.3708705907721294 154 160 158
1.1815806391100472 0.5898425409810131 -1.3632645038543816 52 50 57
0.8565997846058591 0.11342197040265896 -0.36872788986296023 60 51 56
0.9283257961834418 0.09865475567265097 -0.3668101160208499 194 193 195
0.912549001377843 -0.000668152444895535 -0.33392301523791657 36 39 40
0.954026043769795 -0.055175149202889934 -0.3679801344691825 55 54 56
0.8910010270957045 0.07689154432894024 -0.39905815720394844 33 29 20
0.7748342955948265 0.005731086062286235 -0.3595540011964254 134 130 133
0.8429540638884816 -0.05655576919621114 -0.33299992095671394 150 158 155
0.8678161220508713 0.09271873154071067 -0.3323217880710952 174 185 183
1.0098679603853495 0.00570706125967206 -0.4996571444087712 40 48 47
0.8924833355720286 0.013564575118267941 -0.3712387238750538 41 40 42
0.841705698436279 0.013310240922206538 -0.2628233575869797 37 27 27
0.7569249260268827 0.01721893354066319 -0.14739713734322238 54 34 35
0.909220816783554 -0.0669731286444064 -0.3321813373477821 161 170 163
0.7737187652401628 -0.07552505901502064 -0.2543528892241076 51 47 48
1.9106174074847753 -0.47365011216839226 -0.8141189512744913 37 53 32
2.1932534473816836 -0.7259144207694315 -0.9656000863223443 43 50 44
1.4754203997534607 -0.9490372154062025 -0.5848055978607761 129 118 122
0.9660045888175218 0.12623858374648378 -0.37723948261743956 105 89 82
0.8946821744695402 0.07703310977460028 -0.3132263194846514 193 193 195
0.9023462355695586 -0.009788045222308046 -0.3102721667456872 194 194 196
0.8368280788373293 -0.009195288239269909 -0.3129224568988337 41 41 41
0.8210523225645744 0.04406802368285165 -0.23947304940003103 205 201 202
0.9476928451022102 -0.04208408021495888 -0.3796359379886148 37 47 54
0.9212054570561118 -0.060686102918821046 -0.3129806072416284 197 200 203
0.9212054570561118 -0.060686102918821046 -0.3129806072416284 197 200 203
0.8381478448795469 -0.08664784343645285 -0.3205365987940467 169 169 171
0.7554435349686924 -0.4872371919783271 -0.7030678300946671 133 136 135
0.7094165489344105 -0.3352605921104125 -0.41787325854536844 34 12 28
0.7064600415883229 -0.33907437154563796 -0.4238554322331217 156 153 150
0.6972866762551153 -0.32472350901395 -0.40105048324217546 29 22 42
0.7135320742560936 -0.35675861706588535 -0.42078657018363386 48 37 41
0.7126143678101772 -0.3735972366402198 -0.4159870156783435 33 28 40
0.7817031652518626 0.044852751772232365 -0.2409286678985038 58 58 62
0.7892511450110027 0.008965836302335497 -0.2067920931646377 63 69 71
0.8138850375678954 -0.015863658227091116 -0.22485117357260914 71 79 78
0.8244459672114646 -0.06760002229213573 -0.2486787939218255 60 60 64
1.0224286401345517 -0.10773428804891508 -0.38800008377131756 197 212 211
0.9132618049338573 -0.02878210824116004 -0.3559205395748725 169 167 159
0.7859961649409811 0.03880364078137175 -0.2297595449823028 199 191 190
1.3237575727076738 -0.16742713880201018 -0.7624153156150677 175 183 184
0.7997437750684208 0.14733491383069933 -0.39957101304546355 122 125 124
0.9611761890664726 0.0907268128838828 -0.36503048674570227 39 37 44
0.8968575359133377 0.10293123050157674 -0.3524921819494919 168 176 175
0.86936500641723 0.08037583510384569 -0.35136947651293754 176 184 181
0.9253584405426499 0.06416437343422929 -0.3550499766977194 177 180 179
0.898419392142412 0.04893309742566546 -0.3438606117168609 36 39 40
0.8294039259225083 0.06549003270675785 -0.34900729437929984 166 170 165
0.9689968473510865 0.003335920954602018 -0.36570279190899874 56 64 63
0.851139737033875 0.050980717186426217 -0.2765283791289843 170 178 179
0.8732892016577516 0.007677532318861668 -0.357905490989127 41 47 47
0.9187256399271154 -0.018717687999261868 -0.3630244021542781 34 30 35
0.9170986127416655 -0.019753774440476126 -0.36465066020277853 31 31 35
0.9414514858486849 -0.0407784243524253 -0.3769994049625122 45 46 35
0.8631044148650387 -0.00803800763603135 -0.3624677521086344 42 35 29
0.8631044148650387 -0.00803800763603135 -0.3624677521086344 42 35 29
0.8351052655489922 -0.03265242145063695 -0.3535142655002072 28 36 33
0.9080084646877629 -0.08744815192173289 -0.35793076032094606 36 39 38
0.9505425796948167 0.0927772838772325 -0.38009696658467496 36 47 45
0.9174313897237889 0.09608429823452627 -0.3790009394920348 38 42 37
0.9309748019233864 0.07042700647495223 -0.3529668986287606 185 185 187
0.8898768925502937 0.05341729075678106 -0.3177697625614347 179 182 183
0.9178461846286341 0.048017626496513865 -0.3535071762776922 22 34 36
0.9344184454355068 0.035083716327507036 -0.3576938611999053 43 53 56
0.8981076562095296 0.038446091105444904 -0.35236066312571734 161 169 166
0.93834503977241 0.011453762196802305 -0.35391858547204347 44 47 48
0.946172456910183 -0.010510741777596021 -0.38117575163701334 34 34 36
0.9363243314577414 -0.004081331523903411 -0.3707005968068102 38 42 37
0.8735894658676591 0.013170895418697207 -0.3521359938721222 40 36 37
0.8735894658676591 0.013170895418697207 -0.3521359938721222 40 36 37
0.9028297627252827 -0.004156995946839658 -0.3524745077737065 38 40 50
0.9321479187910444 -0.02849697519823043 -0.3528430882876527 34 39 44
0.937688873266595 -0.03739620417197051 -0.3536433277707274 52 45 58
0.9284378885089204 -0.033555496728382386 -0.35388131957435676 41 40 42
0.9284378885089204 -0.033555496728382386 -0.35388131957435676 41 40 42
0.9288604990255801 -0.03431284829080622 -0.35611187538380457 34 34 34
0.9359063840157739 -0.043315260288012226 -0.36685146598956864 39 42 41
0.9489766102787324 -0.05563501803725323 -0.36642053392894125 203 202 204
0.9285724698547403 -0.06659836397566661 -0.3533613464277927 174 177 180
0.9406053629140446 -0.09919282983089865 -0.3615544669387711 49 53 46
0.9197627297897227 -0.08575708598556732 -0.35196158686505835 176 180 192
0.9197627297897227 -0.08575708598556732 -0.35196158686505835 176 180 192
0.8161969755508447 -0.06039509897663339 -0.36426553539889434 158 158 158
0.8223255866506289 -0.037611060843711526 -0.30338946806214623 57 41 46
0.8910365288416416 0.10279361468062632 -0.35627235593010614 30 37 29
0.8573879846710598 0.09646158861027364 -0.3532366967541654 36 39 38
0.9414320632458035 0.013979656542656453 -0.3546483406070945 52 47 43
0.8639321941152046 0.03956973221644328 -0.35062379146019396 39 46 40
1.2563579933692186 -0.313965280370023 -0.898953107239115 38 42 37
0.8979260820036532 -0.02403947352326929 -0.34995477712117007 164 168 163
0.8694750148224507 -0.0346740216760652 -0.36081185666009635 36 37 33
0.6711800847275357 0.14712811654854616 -0.08412646829204391 198 193 201
0.7410569379590114 0.015088462721788846 -0.11090613870509938 181 181 177
