ply
format ascii 1.0
element vertex 677
property float x
property float y
property float z
property uchar red
property uchar green
property uchar blue
end_header
0.9774234186579367 0.05035553496724409 -0.3994552899043542 190 196 196
0.9037288002033095 0.04395675408683394 -0.39849697456968786 194 197 198
0.9671560860498012 0.04632904124865975 -0.3998600862976495 187 198 196
0.9674888226074239 0.046394168495274876 -0.40035835835316386 187 198 196
0.9820354670539179 0.046888222319036096 -0.3994401333825525 48 54 56
1.1088755053068515 0.057128700616902166 -0.40902422650676956 98 106 107
1.1145179418533486 0.05940325484675321 -0.4149414113658891 98 106 107
1.1043860666716936 0.05635603791723991 -0.40445386386131277 146 157 155
1.0916237384406156 0.055187736349935866 -0.3896249067622749 146 157 155
0.9756054496168365 0.046689266936734204 -0.4015474922316452 43 49 47
0.9124415409210049 0.03984820618073289 -0.3970725145501815 188 196 197
0.8409388360777387 0.033456476037224424 -0.3935796929065741 193 196 199
0.9685620061998447 0.04273507014252347 -0.4009987958531573 53 49 52
0.9654636102466266 0.04156454345816839 -0.39670142267025993 53 49 52
1.0896085389927455 0.05226127177640691 -0.39249709241540315 154 163 156
0.9058200990361784 0.0363702529849699 -0.3976384606850874 34 34 38
0.8983220175871256 0.03628192591648684 -0.39699868200102245 38 38 40
0.8985368725189615 0.03654838073750793 -0.39749927995129547 38 38 40
0.9683303253577477 0.04075391224707677 -0.39545596882901957 189 197 196
1.1032867775123079 0.05272076278024677 -0.405404129059449 100 103 102
1.1064417796283368 0.05257003727271621 -0.4104176258095887 100 103 102
1.1127886317660478 0.05307338528691852 -0.4147311591210004 147 158 158
1.1127886317660478 0.05307338528691852 -0.4147311591210004 147 158 158
0.9720800582840028 0.04086737551382358 -0.39537837699527734 53 53 47
0.9715051350670847 0.040735142025319276 -0.39443798417136355 53 53 47
1.109982666473919 0.052441466902825445 -0.4099038823759056 94 100 102
0.9157603145402836 0.03692222851837761 -0.39799654174881255 36 39 40
1.1181189195233747 0.05105996606498839 -0.41103660949174486 96 99 102
0.9624231589060296 0.03875634009593258 -0.39610853095665227 39 45 45
1.1055088110747695 0.050259347192299075 -0.4118854298897731 154 162 159
1.1055088110747695 0.050259347192299075 -0.4118854298897731 154 162 159
1.095666655082009 0.04960709815393048 -0.4100607761253589 109 112 111
0.9726659189123044 0.037712594662909875 -0.3964760077796456 42 49 43
1.1065948256858007 0.048912010091207644 -0.40646762734891145 146 154 151
1.114805091120798 0.049529244411563464 -0.4147713083482644 117 120 121
1.1181428425724935 0.048902383675386456 -0.4084187540562721 89 92 93
0.9194675333533703 0.03348557288093222 -0.39794002552422436 189 197 198
1.1022744518694145 0.04500604691104779 -0.4065369789071799 119 122 125
1.0899806244276544 0.04567432357036995 -0.40338797369932594 98 106 105
1.0910415659463901 0.04422337752869681 -0.4068749091261269 112 115 118
0.9158742451195725 0.02474298438993834 -0.3760561493375383 29 35 35
1.1002890087837638 0.04590895876473602 -0.40682516030744037 96 97 93
1.1002890087837638 0.04590895876473602 -0.40682516030744037 96 97 93
1.1085486847497132 0.04589220444990492 -0.40926136798851437 145 151 151
0.9574637386022435 0.03348501831314558 -0.3954217635445166 188 199 197
0.9581925751299372 0.03449778365068065 -0.3994179849737415 188 199 197
1.1173611455415444 0.04576187556237251 -0.41688361898668785 108 111 112
1.1172069862082832 0.04599632115649242 -0.4164688168796479 108 111 112
1.0966864761182917 0.043701830018994796 -0.4068874268646614 155 161 159
1.1123523028457611 0.040539551628219914 -0.40437237126250486 100 100 102
1.9955692493722577 0.24011472041770415 -1.3273563645891169 105 100 98
0.8902105733440403 0.02386708013742256 -0.3781903488505117 31 34 37
1.1072825258138643 0.04075827619766454 -0.41575763162057294 102 102 104
1.1072825258138643 0.04075827619766454 -0.41575763162057294 102 102 104
1.1105278152077205 0.03998436039181548 -0.41380501788001717 108 111 110
1.0931009025326301 0.03931175309398232 -0.3925643340777841 106 113 107
1.0894006177242364 0.03865291714781679 -0.40215232773867154 116 116 120
1.0947230485831139 0.03860941457791141 -0.4102814043284427 115 121 121
1.1191639351883116 0.0399032037451227 -0.4103656087844236 91 91 93
0.9516319683603948 0.028578840888091397 -0.39623090277680884 190 198 197
0.9521835913975872 0.028199538150956962 -0.3967689276265159 190 198 197
0.8663131081725878 0.022655487965451512 -0.398472730915794 45 45 49
1.1088753170139516 0.03575629584210893 -0.4082965500238443 103 103 105
1.0983254683752546 0.03681428798167968 -0.39352885868559484 96 100 95
1.0571907155181186 0.02197915975909746 -0.3653675852394221 112 115 116
1.1323938392243598 0.038316616405313156 -0.4185558207428661 104 100 101
0.9482510439875704 0.024764256679907694 -0.3967302385665346 45 45 47
0.8825689675402763 0.020381946599864736 -0.398371642193106 25 28 29
0.8698157341505431 0.019057087821174656 -0.3979148159946657 186 192 194
1.090590118961623 0.032304273024617906 -0.4029529789031769 106 109 110
1.0828711868877425 0.03210786280888242 -0.39351631317832714 106 109 110
1.1069479578041435 0.03448927936441288 -0.420116146661644 164 172 169
1.1056464328705475 0.031357171807700576 -0.41044791223383076 153 161 158
1.0939406533750757 0.031121096031583462 -0.4040496637997641 174 182 181
1.0118519838634479 0.024131442753352907 -0.39777378255393725 70 80 85
1.1124609109423895 0.03059528018791842 -0.4056412003155594 142 150 149
1.0983157581780587 0.029262331359228035 -0.4040798876132718 107 110 111
0.9969258718154372 0.02221312460746473 -0.39554057215747807 191 197 195
0.9962924463640471 0.021983562506214718 -0.39443385740538955 191 197 195
1.125552988883081 0.030671599497182043 -0.40925304965943854 74 74 70
0.8775910656338146 0.016889128777270123 -0.3995756892225823 184 192 193
1.0005035537278872 0.0226952310861062 -0.39541257823759557 190 198 195
1.0036148490736219 0.02203598029158993 -0.3960904833639237 190 198 195
1.1089486554684642 0.027811482407288826 -0.40672153865413113 109 113 108
0.8738212476278878 0.015368075780329084 -0.3982997846990032 46 45 49
0.9422685341260709 0.01840788254102636 -0.39744804663072536 190 196 196
0.942182987800916 0.01890931180524539 -0.40155647460518495 190 196 196
0.8811656034169623 0.014632815602724471 -0.3971642369426189 43 43 47
1.1138732575483468 0.026862532593523072 -0.41441269592546415 143 149 149
0.9328720471284514 0.017024961503838365 -0.39595822052447255 45 40 38
0.9298723277032338 0.016645723196873657 -0.3958436274765072 37 40 43
1.107135492319857 0.025480076994429876 -0.4098529725663936 94 97 98
0.8532832325274874 0.014879343517657092 -0.4024247222909588 191 194 195
0.933485632370407 0.013668903784127594 -0.38837513135932955 186 197 195
0.9961417430673306 0.018286738195177905 -0.39949758753726117 55 63 62
1.1236763068098936 0.0260143564923469 -0.4067905489201572 98 98 92
1.0009751627827674 0.018191396280774142 -0.3972782723181574 70 75 82
0.8701330043628601 0.012031385638717076 -0.3975541242920254 186 192 194
0.9706925750698114 0.015684634430191816 -0.3973704210157855 33 39 37
0.8819968176776954 0.011535486320438255 -0.39740569998198644 185 191 191
1.0767094499358003 0.018847154279558003 -0.3819910150211566 172 175 176
1.1094615325098538 0.024122178651321997 -0.4210010742495015 110 113 114
0.93480322302014 0.01380633276972276 -0.399351788614346 183 194 194
0.9328612043419248 0.013724013603696947 -0.3954820417650541 183 194 194
1.0936541270051372 0.021330018051075553 -0.40690352488844406 106 109 112
1.0931712684985084 0.017596254873902026 -0.4003073649969993 115 118 117
1.1081856762830797 0.02058975115697613 -0.41695074304450946 104 110 112
0.8706448192938849 0.00828660184382691 -0.39812221308691437 43 28 29
0.870571419902524 0.008244144852202595 -0.3980683976357845 43 28 29
0.8762158521246322 0.007301181141161534 -0.39190661182597464 46 45 54
0.8769504928168812 0.007916490937250486 -0.3955279610918724 46 45 54
0.9415313471368401 0.009681662205045455 -0.39656614460441314 48 42 44
1.1120608496072182 0.016613447075601227 -0.40980223248259895 100 103 106
0.9369127299776056 0.00895152914667753 -0.3957631841220913 182 193 191
0.9457300351075189 0.009696741864781812 -0.4000688606159963 183 194 192
0.9448817867077036 0.008999477030886986 -0.3955936587474098 183 194 192
0.8675642290141047 0.005610555162670468 -0.3959161977765849 34 40 40
0.8706690202938021 0.009220101098759034 -0.4068170510356299 34 40 40
0.8408395415125544 0.004147972476379619 -0.39674611013378536 194 197 200
1.1015947693867087 0.014010463684933453 -0.40401647307916116 158 164 164
0.9948363573344108 0.007886003514890121 -0.39570219315597044 55 66 66
1.0009300255608156 0.00980294963686619 -0.40409262245116767 55 66 66
0.9471675444654738 0.005703155601267132 -0.39417962618610797 44 44 40
0.8912304562893802 0.0036703731042552895 -0.40290872634290775 184 190 188
1.1003764493068642 0.00719099298482997 -0.40491908396418225 160 168 167
1.1005175563937881 0.007313900310999033 -0.4082200197333002 113 113 109
0.9515940791037901 0.0020688327955664613 -0.39445249237038027 189 197 194
1.1103698951926255 0.006674209593035457 -0.4063591102011284 106 109 112
0.8422674384566087 -0.0007758917538477209 -0.3988895334953684 129 129 131
0.9950794097729188 0.005433160944412104 -0.4141799310197988 52 60 61
0.840165344287216 -0.0016637609626647953 -0.3970038675909587 192 195 198
0.8398235438917949 -0.0014567489089916065 -0.3962911072841465 192 195 198
1.0807605850789226 0.0034362588075092736 -0.3888844464939697 160 168 167
1.079321382059514 0.0029920924205338105 -0.3797320739300137 152 163 161
1.1004754985292027 0.004060680050390913 -0.40792485692847674 103 105 111
1.1004754985292027 0.004060680050390913 -0.40792485692847674 103 105 111
1.1050542406166861 0.0036159652515743803 -0.40677920588772787 101 107 107
1.095519569867376 0.004550680783421289 -0.3944315494487753 101 107 107
1.1116909174864908 0.002897345828895288 -0.4164521069650569 150 158 157
0.9827222569402655 -0.0017768121843915264 -0.39456056475732404 191 197 195
0.9574957558823805 -0.002843510759962769 -0.39471022691925767 190 198 195
0.9584487485193067 -0.0028071429870658833 -0.39690121934334016 190 198 195
0.9207357443782113 -0.00300771610114157 -0.4001597420182197 185 191 191
1.0944512722469055 -0.0009236282782248365 -0.40535840903703446 157 165 166
0.8425512712373668 -0.005475256488471804 -0.3975495864484068 147 146 150
1.1122378851355081 0.0010196229585281399 -0.41760524751534595 152 163 163
1.1083562847487516 3.061247964480987e-05 -0.4131794940124461 152 163 163
1.1109463352444775 0.0008993252902917408 -0.4194303610913441 109 112 111
1.1109463352444775 0.0008993252902917408 -0.4194303610913441 109 112 111
1.0982882381459305 -0.0018620659079035715 -0.4046499866978987 106 109 108
1.12285507813131 0.0007737302853918138 -0.41841028506751776 105 105 105
1.12285507813131 0.0007737302853918138 -0.41841028506751776 105 105 105
0.8413460779411456 -0.00866155296590594 -0.3957245330807631 183 189 191
0.9610500038790273 -0.00649933433398787 -0.3943525878371424 42 48 50
0.9806841021014726 -0.007408170604926023 -0.39853056398229236 41 49 48
0.9781616868858921 -0.00681074200233854 -0.39512509735304613 41 49 48
1.0846340691555734 -0.005712238754683278 -0.3827945536004488 118 118 120
0.9156282508342278 -0.008943423489441297 -0.3977301358721258 29 35 35
0.8999335287350054 -0.009282793461426657 -0.3970127128331774 30 33 34
0.8407885420659544 -0.010271394607850069 -0.3915638765291205 196 195 202
0.9737228808365282 -0.00948626203037308 -0.39671552378117103 188 196 193
1.101644439743998 -0.007543357385593635 -0.4062934237971513 146 154 155
1.1110044147671176 -0.005709635386240498 -0.41659029751452115 154 160 158
1.1019210908054469 -0.006251369670511607 -0.4168579469967539 117 120 119
1.1065603585017165 -0.00711127471517548 -0.41411543167162934 116 117 113
0.9088074729540734 -0.01152849084665731 -0.3963843174070778 183 189 191
1.1214905115236729 -0.005029933787326576 -0.42758981549964414 100 103 104
0.9677649730593301 -0.011760626462262325 -0.39610734323926194 192 198 196
0.9745778347927613 -0.013564840683067986 -0.39806886956037135 48 44 49
1.100403528020806 -0.010176984524642113 -0.4169091079508805 171 176 181
0.9753384890226872 -0.013837432621609698 -0.3921471410134073 188 196 195
0.9762098426900815 -0.013815888291368098 -0.3936169294177907 188 196 195
0.9033553174860335 -0.01229271705633979 -0.40293961613560275 176 187 187
0.9672258966618306 -0.012995016632909001 -0.3985241853006328 188 196 193
0.9706955509198406 -0.014656730914264952 -0.3967557959014846 189 197 196
0.9698547846004916 -0.014602522322301704 -0.39555492738241266 189 197 196
0.9056220816755652 -0.015143304499789616 -0.3961887129591794 50 44 50
0.9057191267194297 -0.015147476302349928 -0.3961372187869731 50 44 50
0.9054988063456578 -0.015137313710209842 -0.3962364404347466 50 44 50
0.9054988063456578 -0.015137313710209842 -0.3962364404347466 50 44 50
0.9700609441223047 -0.015494691582008863 -0.3930485964533469 42 48 48
0.9626563408360475 -0.017151880771976026 -0.39882551457145676 39 47 48
0.9770853402461325 -0.0166170759817716 -0.40036182833028744 55 58 61
1.0867951567322824 -0.01637773910614026 -0.4013102485406056 121 124 123
1.0940251988686627 -0.018866476188188156 -0.4054670818552545 153 161 162
0.913312558642987 -0.01697503239487661 -0.4044269398765906 186 199 196
0.913312558642987 -0.01697503239487661 -0.4044269398765906 186 199 196
1.1015708651594367 -0.01745932307363533 -0.41848171219462676 166 169 168
1.0933085416955084 -0.02028793836492227 -0.4068104304847294 83 83 85
0.906852958955222 -0.018051896778350365 -0.40476046451087205 183 189 189
0.8425102116485352 -0.020684201101428858 -0.3979507828099031 143 142 144
0.8430644683136475 -0.021042357847229635 -0.3920259858826828 143 142 144
0.974307992997921 -0.020395293387832837 -0.3961984879034704 189 195 193
0.9785597043905031 -0.0187881271839787 -0.4083012812655276 189 195 193
0.9666012542793433 -0.021200910653051838 -0.3910927089254258 47 47 49
0.9666012542793433 -0.021200910653051838 -0.3910927089254258 47 47 49
0.9111874609230739 -0.019507429091712422 -0.4030286338184896 38 37 41
1.0994505343768881 -0.022806088788871012 -0.4159069829303569 158 164 164
0.9795966310804576 -0.02456199604160756 -0.39408786031562265 50 58 59
0.9714676626093156 -0.024896675068229058 -0.3986903324570764 39 49 52
0.8420009043402418 -0.024639917487702938 -0.39391922587356887 108 108 110
0.8420009043402418 -0.024639917487702938 -0.39391922587356887 108 108 110
0.9794089398961011 -0.027778525401745652 -0.38893763929874947 187 198 194
0.8419935652894996 -0.026884553278473784 -0.3922138200886128 180 183 184
0.8414818165354364 -0.026355070359828602 -0.3910238805163301 180 183 184
1.1033460776795323 -0.027963569286780614 -0.41426647048276466 148 156 155
0.8415340692360992 -0.028487833921560343 -0.39122774326625315 196 196 198
0.8431817626013693 -0.02989311842344328 -0.39838950991939254 112 111 115
0.9916183258524603 -0.03556053077071325 -0.3955758516527636 50 58 59
0.9916739846922027 -0.03603389914530458 -0.39212442048334856 50 58 59
1.0987855506571294 -0.038131610803151667 -0.4116788419801668 93 94 90
0.8900189811884743 -0.0367180913576859 -0.3985352303880038 181 184 185
0.8901666447915328 -0.03355579528928915 -0.40022584549452683 181 184 185
1.088396674584121 -0.038718294772590416 -0.40315347709544774 100 100 102
0.9948076832974427 -0.03936756122859037 -0.39201148879025505 185 196 194
1.1050360856357473 -0.04225372263461084 -0.4157393371177256 133 139 137
1.0924780149552042 -0.04329845870915466 -0.4051153630413298 132 140 137
0.8846033022469162 -0.03870984992902661 -0.3999645561097195 27 30 31
0.9366960416730366 -0.04149067776807295 -0.392111683939117 43 46 45
0.9366960416730366 -0.04149067776807295 -0.392111683939117 43 46 45
0.996469577165738 -0.043567381104299044 -0.393792817612341 187 195 194
0.9946800138667092 -0.04231740063196844 -0.389914438915685 187 195 194
0.9986445025572974 -0.042542404364211216 -0.3909210952091242 63 71 72
0.868823117277291 -0.03945122841164425 -0.3976317755087539 29 32 33
0.9431356059487284 -0.04237835325582783 -0.39588495851267846 178 184 182
0.9431356059487284 -0.04237835325582783 -0.39588495851267846 178 184 182
1.1047001699025434 -0.0475361830369819 -0.4121581393577231 88 88 92
1.0129709474422528 -0.045469680386194596 -0.39918898582778345 188 199 197
1.1032512288392844 -0.04899472073920126 -0.4124963022139648 120 124 119
1.0239072183370885 -0.04313188960994987 -0.430929887849773 189 197 194
0.9976273837488024 -0.046335195517309136 -0.39505090939768545 63 66 69
0.9983177144228063 -0.04651970467821074 -0.3963199780190787 63 66 69
0.9983177144228063 -0.04651970467821074 -0.3963199780190787 63 66 69
1.0164669961463266 -0.04345158249228809 -0.43194200437931846 51 56 61
1.0498237831953796 -0.05061982271618332 -0.39917985325645583 197 200 199
1.0060755498440626 -0.048163158081816974 -0.3953068558717653 192 198 198
1.0946208293097544 -0.05089994317003037 -0.4076160847584044 110 121 119
0.943319519588893 -0.04701353605989531 -0.39422319595284566 40 36 41
0.9448092049951524 -0.04733868604239443 -0.3951928953522608 40 36 41
0.8828926416792774 -0.044476772852509394 -0.39844197855558683 175 183 184
0.9068159524164146 -0.04706569095328558 -0.3913719830694098 21 27 25
0.8692275816620174 -0.04548098365181829 -0.39116812984052185 175 181 181
0.9344296952679559 -0.04810936949351811 -0.38814430049032805 54 50 55
0.9344296952679559 -0.04810936949351811 -0.38814430049032805 54 50 55
0.9344296952679559 -0.04810936949351811 -0.38814430049032805 54 50 55
0.9357372361593443 -0.04755025955268843 -0.39386504797850136 54 50 55
0.998644212685932 -0.0503766593888423 -0.39167826735055017 65 60 68
0.9958703316904025 -0.05116610941570863 -0.3932716566336791 188 196 197
0.9957675925953131 -0.05045790503227448 -0.394826839310841 188 196 197
1.0137819785925901 -0.05261867054154395 -0.40082745423938015 189 195 195
0.8803656308903923 -0.04804379039078199 -0.39397637056711954 44 40 43
0.8528257524158008 -0.04827791687051847 -0.40650280736587274 183 186 187
1.0096968709128555 -0.054108546215669386 -0.391121905702621 64 71 75
0.998248772637075 -0.053816857950935 -0.3907609861630491 47 53 55
0.9371157935754774 -0.051581449872468946 -0.3876966899717896 174 182 179
0.9915369715657243 -0.05440614929863975 -0.39163240226933016 56 62 62
0.9922616868481281 -0.05391391397471076 -0.3945588422350817 56 62 62
0.945328204526481 -0.05264788286919267 -0.39322565864149905 30 36 36
0.8780060238061201 -0.05003177919637917 -0.3917327590588848 175 181 181
0.8721688393323267 -0.05058560114155966 -0.38657934699751273 172 178 178
0.8713728701230646 -0.05253957998304012 -0.39064516863866316 35 34 38
0.8661141099070883 -0.056195339333197994 -0.3942824460981246 36 36 38
0.9829564880348917 -0.06258055660682618 -0.3949148217690617 191 194 195
0.9814207423827411 -0.06306692887462438 -0.3908307908884986 191 194 195
0.9793311220683426 -0.06620690459075627 -0.39510043094464264 50 49 58
0.9817584291960325 -0.06492107815285572 -0.39643757840135463 50 49 58
0.9666435836341216 -0.0671379473012398 -0.39061116028547443 43 48 55
0.9605344416420041 -0.06706472667958162 -0.39175379238692737 44 46 52
0.9913280609632186 -0.06918580679648872 -0.4440600485706234 188 196 195
0.9913280609632186 -0.06918580679648872 -0.4440600485706234 188 196 195
0.9045932851831009 -0.06767632473165992 -0.3944622753909243 30 33 34
0.974933253493033 -0.0733904430374949 -0.3915346419526854 52 46 52
0.9684575119078804 -0.07369087205521 -0.39484593267708384 63 62 64
0.9684575119078804 -0.07369087205521 -0.39484593267708384 63 62 64
0.9782427368103267 -0.0752167322159267 -0.3948106007595422 37 43 45
0.9782427368103267 -0.0752167322159267 -0.3948106007595422 37 43 45
0.90887986520439 -0.07088517455240911 -0.39444073255611883 170 178 177
0.912606442063421 -0.07390241430362604 -0.4021388774632853 170 178 177
0.9011296331142006 -0.07113539803654022 -0.39473332089548924 174 180 180
0.9011296331142006 -0.07113539803654022 -0.39473332089548924 174 180 180
0.9750747883926966 -0.07791603450615198 -0.39693449429363975 189 195 193
0.9715809588717835 -0.07709194374692366 -0.3953676909430645 189 195 193
0.9657064027455603 -0.07742975382451477 -0.3953600290702068 189 197 196
0.9099942944948896 -0.07477365456036231 -0.39453958454726445 35 37 43
0.9059064635616044 -0.07482690153483613 -0.39491887044506047 28 31 32
0.9732412396881034 -0.08090675405972395 -0.3959844375137541 51 49 56
0.9484735080031063 -0.08181920858903063 -0.4127212248595552 21 28 22
0.9801926693278703 -0.08478699805008039 -0.39571868183867537 57 57 61
0.913670469209542 -0.08421913618361693 -0.39429500465018424 32 32 32
1.1236189534230117 0.3364015176409549 -0.41695076991874613 27 27 21
1.0993032011563113 0.20028464706456894 -0.41255770354675664 56 55 55
1.106060617099842 0.19698949455009895 -0.4233614328666137 77 72 70
1.0703088252897348 0.17583941788731608 -0.3876827562149805 111 112 108
1.061919822182987 0.17142713361671413 -0.39144770687114766 84 79 77
1.0984360293395001 0.18444311411752892 -0.4177576839621247 122 123 119
1.072833865314722 0.17257257849269517 -0.3892743734951626 82 79 76
0.8380427603889226 0.1323844517736298 -0.39312604389727207 159 159 155
1.0816529003813153 0.16282399655141322 -0.3880770442832157 84 83 85
1.0873820262815581 0.16110251921929583 -0.3951668608045032 85 79 81
1.065493257807298 0.1485953976402095 -0.3746338991688947 114 109 105
1.0810954802101604 0.15353050849110025 -0.3888750902879602 98 97 97
1.1004039225851658 0.15700572103668556 -0.39579836789405115 133 133 129
1.0929248898192716 0.1537197908724506 -0.4083544104690092 158 161 160
0.8387058639987981 0.1148337982574462 -0.3937481131418389 206 206 208
1.1175971793273374 0.15260361673089215 -0.4241054430873173 125 125 129
1.077138541608042 0.13833971726120395 -0.3824232289067985 159 163 158
1.1217131029122238 0.15657916574783157 -0.4367243725337219 104 103 107
0.9039448862142008 0.11322641604330311 -0.3936344196142997 188 196 193
1.012934764720619 0.12346148683461992 -0.3906909557741501 77 80 83
1.012934764720619 0.12346148683461992 -0.3906909557741501 77 80 83
1.0992023808005427 0.12684553531135478 -0.4103962171604013 112 115 114
1.091608206726003 0.12154408650347505 -0.39786221673626887 158 161 160
0.9790399673524544 0.10064956239892385 -0.39519985259646445 56 59 58
0.95146669267541 0.09659739141622259 -0.3956118588821251 36 42 40
0.8397939898464878 0.07973077534669905 -0.3956375969961363 140 139 148
0.9866954715637808 0.09341430745807038 -0.4012658515817305 55 61 63
0.8761577869571676 0.0819311781969232 -0.39603646831161093 36 36 38
0.9481242370266846 0.08756123430240216 -0.3963979830906638 45 44 44
0.9411982570884304 0.08677665599326805 -0.3961776527413154 41 44 43
0.9314360487873289 0.0851801421549427 -0.3968867475036544 32 38 40
1.1315732603652882 0.10988070483944451 -0.4297164503566883 68 68 72
0.945074129192149 0.08436944280069172 -0.39595184966868624 185 193 190
0.9448758122728845 0.08433165699630657 -0.39580916552992357 185 193 190
0.8770367800921653 0.07817536659807406 -0.3950009831481763 184 192 191
0.8770367800921653 0.07817536659807406 -0.3950009831481763 184 192 191
0.8749269381862752 0.07916497542195258 -0.39978294503279116 43 35 34
1.1002633839954372 0.09736058618077995 -0.3914270249037982 127 133 133
1.1317580691046276 0.10780676716538216 -0.4299909105756096 127 133 133
1.0837419652783735 0.09551194313958687 -0.3907289324455827 121 121 123
1.111915449621032 0.1000148305789227 -0.40633195829539165 105 108 109
1.0969916432068616 0.09738928324990676 -0.4121237269074978 108 108 108
0.8738295416661822 0.07674087305610663 -0.4004503472115466 184 190 192
0.9340775014331615 0.07962713683332508 -0.39737736824788145 42 31 24
1.1351014646750308 0.0985060513716947 -0.4214315950093173 85 81 74
0.8814238345477691 0.07523240116696002 -0.3973791903132506 183 191 192
0.8813046559231096 0.07517492082006733 -0.3970443251323474 183 191 192
1.1010382971096582 0.09057533962448358 -0.40740173694453674 161 169 168
1.1007893118350993 0.08869500935795659 -0.41046740945966986 100 106 104
1.1119379315433084 0.09314602445122297 -0.4255349971500531 166 169 170
1.0066534041214352 0.07805056122009457 -0.3987130003006826 78 77 79
1.006288672660617 0.07777459010487238 -0.398109590856986 78 77 79
0.8423249389922962 0.0652072614692529 -0.4002719639896959 195 195 197
0.8417567859963467 0.06444191835912591 -0.3985521910917743 195 195 197
0.9977490107248501 0.07230540204011511 -0.39175095888169825 194 202 199
0.9977490107248501 0.07230540204011511 -0.39175095888169825 194 202 199
0.8415492050009303 0.06138401105718923 -0.3961401541026889 125 124 124
1.0926426028455183 0.07725849650680817 -0.39972868733074496 110 116 114
0.9284327055109926 0.06690293859173271 -0.4023623401679107 185 193 192
1.0880600424550548 0.0749822912714258 -0.4012020443431879 109 108 110
0.983182462954404 0.061241072847132726 -0.394699566103373 189 197 194
0.8995949976163063 0.05338782978277639 -0.3974316266602614 29 32 33
0.8997072385767022 0.053454066074452924 -0.3978525560251053 29 32 33
0.9074603602013626 0.05423085920980859 -0.4025010611441931 179 190 190
1.1107462394290077 0.06267284654371603 -0.41133094892738853 93 93 93
0.9129157287859331 0.04973008621920155 -0.39693332359971006 25 31 31
1.1121861339132257 0.060739296616535786 -0.4131796182997533 103 106 109
1.1035559358952454 0.05817733755546668 -0.40582060208104365 93 93 95
1.10366597281442 0.052978567008827 -0.41065095646242716 152 160 161
1.1026603442676384 0.050423575175058806 -0.4024038213250155 151 157 155
1.1026603442676384 0.050423575175058806 -0.4024038213250155 151 157 155
1.097189452556196 0.049867271820649844 -0.4131822773688774 115 115 117
1.105405332738386 0.04923149334085248 -0.4140364337282653 94 97 98
1.1060419757196316 0.049575029997689826 -0.4142836585336596 94 97 98
1.0992765956545973 0.048064657880466655 -0.40340238114046645 157 170 167
0.9681660972942657 0.0406808743518909 -0.3955170712069035 187 195 194
0.8424274978379953 0.03757650458043227 -0.39766407476775956 181 184 187
0.8414415761355822 0.03486105291739923 -0.39594651228541294 107 107 109
0.9624362410466022 0.03935128346001746 -0.39742368948429374 36 42 42
1.1102381513129556 0.042646621490288895 -0.41075399649010774 146 154 153
1.111488976017539 0.04032821420107288 -0.4106601147185365 100 106 108
0.9247922982526349 0.03413059183804078 -0.3958274258969402 27 35 34
0.99006600590576 0.034796753762415 -0.3960602601890848 50 63 62
1.1087532215847606 0.03923754017899484 -0.4057061586213515 105 108 109
1.085132077009166 0.038054716350468074 -0.38146714486390776 142 148 146
1.095457684364465 0.03863790921757406 -0.4053013159837737 156 162 162
1.1123681098520601 0.03737003032607011 -0.41389822985953495 139 147 146
1.115016897057398 0.03353401597688206 -0.40626941927448207 98 98 100
1.1204475032648014 0.036447566940957826 -0.423395656802545 147 155 154
0.9899422805403636 0.029257947953094318 -0.3962940484328369 189 195 195
0.9902865913925265 0.02933906200341285 -0.3968629851369653 189 195 195
1.1268831550473066 0.03306174485635904 -0.4122622759322132 94 95 86
1.110693062308406 0.028837873565244528 -0.4122100622571523 141 147 147
1.100697040144882 0.027163293901922972 -0.41205704765075296 160 166 166
1.1089822284782234 0.028637562033348163 -0.420162242404092 167 173 173
1.113326042530337 0.02730438593015719 -0.41402014498338613 140 143 142
1.114400704678213 0.02760088712320859 -0.41576058447362263 161 172 172
1.0938829467008697 0.026148679155357332 -0.3928125445723398 95 98 97
1.10006641583282 0.02613589454634762 -0.39442138397226617 102 101 105
0.840562628592195 0.020095054687817804 -0.38448806302787886 175 174 181
1.1133211413719608 0.02143006617004035 -0.41299813300007193 140 148 147
0.8415279866516715 0.014928679983356462 -0.3959179330375333 105 105 109
0.8411420135658234 0.01495825234955809 -0.392786575558314 105 105 109
0.8404382766989035 0.015615819382616122 -0.3794952652932754 105 105 109
0.8734658842768949 0.015026142161572803 -0.3962945890567676 43 46 49
0.996431852214298 0.014455338829000172 -0.3956870361869975 183 194 190
1.0926870865377758 0.017050092333174532 -0.3939938787495131 149 155 157
0.8406452945847535 0.0117796892369928 -0.39675402906051455 187 187 191
1.0028393053244993 0.011058237553058056 -0.3949460387082142 187 195 192
0.9339219513050021 0.009981756305038983 -0.39663026584333105 37 33 36
0.9337710506210244 0.010078393721561945 -0.39627646877942385 37 33 36
1.1151166016966612 0.01149681854661397 -0.4178945006400984 103 103 105
1.091869583397593 0.009506327576695965 -0.4040978543201394 107 107 111
0.9321066059006726 0.007294328668334793 -0.39869725528692773 31 39 36
0.9328777064396285 0.007237052127798681 -0.4004700508118467 31 39 36
0.9319418258756291 0.007109512514356342 -0.3979326221742123 31 39 36
0.8738051704985461 0.006889611691199254 -0.3962534613105969 174 180 180
0.9401415296370588 0.005842015202791868 -0.39411458958130896 37 43 43
1.0183385404811633 0.008103957586770162 -0.4029051148235372 80 86 88
1.1116909174864908 0.002897345828895288 -0.4164521069650569 138 141 140
1.107465823525011 -0.004091397051682164 -0.4162253505933097 102 102 102
1.0907673277611163 -0.009957472639632339 -0.4058453669617412 112 115 116
0.9156282508342278 -0.008943423489441297 -0.3977301358721258 27 33 33
0.842019047829366 -0.008358233789707258 -0.3959259198409802 176 179 182
0.9671358517081837 -0.012853246003765669 -0.39869686113115027 185 191 191
0.8425133708654159 -0.013246918622363716 -0.3987450654705528 187 190 193
0.968863204688154 -0.020979215188755066 -0.3860965722523705 185 191 191
0.8411810691545105 -0.01585707874215829 -0.3926153916910721 109 112 115
0.8422931666711049 -0.018437063589103585 -0.40040595471040147 170 176 178
0.9275837412439787 -0.029459033978251573 -0.3964479382875039 35 38 39
0.9887641120964853 -0.032031554590517465 -0.39465988919457806 190 193 194
0.9522588346128396 -0.03173776493972453 -0.3928706110726314 183 189 189
0.9463681454333744 -0.04496236384190524 -0.3957060739990968 168 179 177
1.0137819785925901 -0.05261867054154395 -0.40082745423938015 189 195 195
1.0017974071665767 -0.05153341660233147 -0.3912912823694649 193 196 197
0.8780060238061201 -0.05003177919637917 -0.3917327590588848 164 170 168
0.9656359783612104 -0.05991457045192594 -0.4079353912928671 36 42 44
0.9675180897445785 -0.06934721877228234 -0.3967074049756144 188 196 195
0.9661977245557958 -0.08425325957627894 -0.3933390998475848 36 42 44
1.1114413198475213 0.1797041236336683 -0.4215664410951223 118 114 117
1.119681404336681 0.1797999464606887 -0.4363331245478149 148 151 152
0.8419178969949411 0.13394805823611158 -0.405184803528559 129 125 128
1.1129911096545648 0.15814887850267276 -0.4292909955345854 160 160 162
0.7811587807041954 0.111504251149804 -0.41741759406385887 71 73 64
0.9980760988749671 0.12627016101617825 -0.4276130517814275 62 64 70
0.8414582248777417 0.10874200508284693 -0.40069951055799646 128 131 134
0.842239720988595 0.10795003928514378 -0.40024070856922384 128 131 134
0.9721369244223982 0.11418640432627011 -0.3975479874149206 55 54 56
0.782543317420673 0.025875261688918207 -0.39182282544273184 67 67 63
1.0121883717545745 0.10065456291786612 -0.3945971186014969 62 72 75
0.9508297917458518 0.09654696531842528 -0.39445321249762444 37 43 43
0.9514059572218806 0.09112157208795772 -0.39581100688934207 184 190 188
0.8717924243432231 0.08097669677835082 -0.39274224546468733 175 186 186
0.8716806933632127 0.08105487156030809 -0.3930714107361532 175 186 186
0.9375424122253303 0.08605752147824677 -0.39995681853652115 181 189 186
0.8409254295825604 0.08165024184867939 -0.3989100579259473 188 191 194
0.9447962713032664 0.08097941794830885 -0.3973162113428961 181 189 186
0.7849689329164125 0.07383889519238196 -0.42135233859544197 63 54 57
0.7849619227386018 0.07026303730071118 -0.40792912782070717 81 71 71
0.9331190079423597 0.07229954978694905 -0.40245532787596433 31 34 35
0.9330171835487635 0.07219224823378269 -0.4017579532858801 31 34 35
0.9330988704153754 0.07230608722907715 -0.4023145812110673 31 34 35
1.0939722435949801 0.07304779200221846 -0.40818974074113756 99 102 103
0.9692609109476463 0.055115786052102815 -0.40292730161037943 184 192 191
0.9691605907098133 0.05509198896179296 -0.4028474925724869 184 192 191
0.9732298600014738 0.04761145851332711 -0.40229776043589127 42 45 46
0.9012552067004214 0.04106356705299501 -0.40219321323433277 67 59 56
0.9794735951881491 0.03149143373991359 -0.3906067957787977 46 53 57
0.9297993739251023 0.02411089033884979 -0.3963951382532235 30 36 38
0.8685771165452715 0.02218601194001948 -0.3887362732816482 165 176 176
0.8775910656338146 0.016889128777270123 -0.3995756892225823 164 175 173
0.9378653900574268 0.01321890421311816 -0.3973701791530632 47 43 48
0.9378653900574268 0.01321890421311816 -0.3973701791530632 47 43 48
0.9956169679304893 0.007934693647040173 -0.39692261403469 49 56 60
0.9373143771442919 0.009067711072136097 -0.397286070796145 164 170 170
0.840130052398825 0.010698775941544102 -0.3874230604744349 107 110 111
0.9077893731505372 0.002029330819271379 -0.43594193883009574 27 33 31
0.8400283734163426 0.0029346318868649925 -0.39615083303856763 95 95 97
0.8399304509858652 0.0029155827751984748 -0.395688914902178 95 95 97
1.0226618705189199 -0.0005804693093300322 -0.40832315658644575 50 55 60
1.0180724520343045 -0.0015536673231209758 -0.40344500412605644 49 55 57
0.952843526431747 -0.0024743122394887754 -0.400940144166311 32 38 40
0.9689675017727309 -0.005522458492070801 -0.4055203696877934 166 173 177
0.9013445355757674 -0.008950436945248915 -0.40210354286078503 25 28 29
0.9640098168472511 -0.011427657759906814 -0.3946647305488024 189 195 195
0.9640098168472511 -0.011427657759906814 -0.3946647305488024 189 195 195
0.9694661294339109 -0.015383689414146088 -0.3924020043474908 41 44 47
0.8960008217430232 -0.030825151935101346 -0.39799268026699114 184 187 188
0.9606802763130187 -0.035179064572819926 -0.3992793685365503 29 35 37
1.0010490904692588 -0.03342743911598062 -0.39380852400725264 35 40 45
0.9362862484165154 -0.0382564154900324 -0.43503091595892196 21 24 25
1.0092104724076267 -0.04060389627108606 -0.3966199865185474 34 42 43
1.0000657638775503 -0.04211437484853664 -0.39400541455789767 40 48 49
0.9957675925953131 -0.05045790503227448 -0.394826839310841 184 191 185
1.0017974071665767 -0.05153341660233147 -0.3912912823694649 185 188 191
1.0091149829273942 -0.07758153797921677 -0.40302162490200827 26 32 34
1.0922016124040628 0.2966938347843881 -0.38171321467879854 85 78 68
1.0845137623260224 0.28228516492796607 -0.38178316763362863 65 66 53
1.102186357650043 -0.0035487078537706686 -0.40487598977787986 117 123 121
1.0921223130008362 0.17760944156972658 -0.411057039974338 191 191 187
1.129697946711171 0.1835384057658178 -0.4229427504490992 89 88 88
1.0786432975552047 0.14819166646297813 -0.3861475647356345 106 106 102
0.8386535145769533 0.11608086296531306 -0.39148951513946684 184 183 185
1.0796222683281231 0.14316731530350674 -0.38227199252000016 163 169 169
1.1018299093175474 0.1509267374402733 -0.41514471589036195 114 115 111
0.8402208071265609 0.11220953539225295 -0.3926058093135372 143 139 144
1.1291601083409386 0.14669555507850182 -0.42467892102811217 100 100 100
1.104313706414157 0.13932018646518518 -0.418384857208598 163 169 167
0.8976262312146004 0.10492840673441269 -0.3940792784286696 36 42 42
0.9728779998270564 0.10558061214368561 -0.4040306162241611 59 52 44
0.9795681884865567 0.09403934776390495 -0.3776230652454487 51 62 60
1.0052372753101788 0.10376027602467844 -0.4225000610219272 51 62 60
1.1196926853363627 0.11139474051423062 -0.42403688204581713 110 116 114
1.0226244765074288 0.10006161873288491 -0.4135078386445706 54 60 62
0.9518651977369601 0.09103247493809308 -0.39562140909698135 191 199 198
1.1036389759517213 0.10448272864552277 -0.411876818507159 157 165 162
0.8809490106227621 0.08188363647505889 -0.3929186881005656 30 33 34
0.8787644264735675 0.08160631299515757 -0.3807661659400997 30 33 34
1.1035677482426094 0.09572872105441366 -0.3921165624140473 92 100 99
0.8385904885200737 0.07754702529125254 -0.3926299568803061 141 140 144
1.1012750953398818 0.08888824492080388 -0.41128102899028807 100 106 104
0.8773880039374552 0.0697509944602249 -0.37689713779599776 29 29 33
1.1110451794214347 0.079068342085422 -0.41412654091371104 133 141 140
1.115367564544871 0.07650322974743853 -0.40987501431923506 104 110 110
1.1229034000574585 0.07528572744892277 -0.41205570192597385 95 98 97
1.1034205833538027 0.06608451755198184 -0.40969001165133834 161 168 162
1.1335656895876585 0.06504734427589665 -0.42466289861221684 136 142 140
1.0880884298494844 0.05848488949047481 -0.3900088238790901 152 160 159
1.1115369894571725 0.05925072746849493 -0.41352324359053216 145 151 149
0.9702351110277174 0.053995223908563164 -0.39782256563703483 188 199 197
0.9779490225591331 0.04603822730806479 -0.4131748753199809 55 55 57
1.076284542505349 0.04574731335277604 -0.3799059299540405 160 163 162
1.1114560845360872 0.0425939101953956 -0.41044398294305456 101 101 103
1.1191634699421296 0.04105333717215843 -0.41793374737123595 100 103 104
0.9825916046129285 0.034182891560054815 -0.3946982136760536 189 197 196
1.1219815418105425 0.031218005604312638 -0.41250909082966086 77 80 79
1.110300263303582 0.03143916464420049 -0.4131384528943213 84 83 85
1.118708344016524 0.02859717420750657 -0.406815842550161 131 139 136
1.0961016980597975 0.02903949686402861 -0.39555569369288374 77 77 79
1.0884663114555186 0.027051859357322627 -0.3918156015821225 91 95 90
1.1098381019141927 0.021217804492380688 -0.4122533107851713 94 94 98
0.8762009276925875 0.021127195603622504 -0.39911385179710474 29 32 33
0.8826638668626158 0.01977766966928059 -0.3952323891316569 23 29 29
0.8766788579135688 0.018070543519926683 -0.3864215340169995 176 184 185
0.8702428535254229 0.01188501096072124 -0.39381676187198417 180 183 184
0.8415520683397242 0.005151678091050188 -0.39583870174519703 178 184 184
0.9066960029407387 -0.01113862538896781 -0.39805107747394924 181 181 181
0.8380590809209845 -0.014627208102576858 -0.36815039240892466 179 175 178
0.9934851354264898 -0.03631645242102954 -0.40860108151826 29 34 39
1.0944764511647624 0.3011409730093347 -0.3814482214548438 87 80 70
1.1301550479987488 0.16889713358297573 -0.4279502268580536 89 89 89
1.079444333190109 0.1414223868917251 -0.38515851631541065 169 173 168
1.1176149602334384 0.03490575108639753 -0.40621973610743445 131 139 136
1.1128220043363912 0.12816143218897041 -0.410614538911929 107 107 109
1.1187077819607125 0.11204317600892937 -0.4161975857967062 96 102 100
1.074287988200004 0.09876155537707819 -0.38278232722406336 168 176 175
0.9494176756327416 0.08788729528911929 -0.377202857764771 40 48 45
0.8364806906757523 0.07461803071752805 -0.36402011776324267 195 195 197
0.8769917998481105 0.07598352208468956 -0.3794903322303129 33 32 32
1.1068535562734103 0.08736530196083332 -0.41461946839977487 153 161 160
1.083519292547931 0.08202594670505199 -0.39109445806661497 156 162 162
1.110949569307984 0.07909135403896726 -0.41303988693173727 104 104 106
1.110949569307984 0.07909135403896726 -0.41303988693173727 104 104 106
1.110474389714738 0.06720104049263924 -0.4155458776273927 96 95 97
1.1190891785911545 0.06434391751940674 -0.4130626015778307 99 102 105
1.0800740659208532 0.05178284032883838 -0.3852837355140824 162 169 163
0.837726396848833 0.04453596415262258 -0.3761102355454543 129 128 135
1.099620542410693 0.04820115552241948 -0.40363219287622293 160 166 166
1.1133931843099218 0.04322147214689508 -0.4125773465574563 98 98 98
1.1046315803908455 0.04067962051131787 -0.4098321549245902 146 152 152
1.1091909450302904 0.03735657900872961 -0.4033706478743216 154 162 159
0.9505231284091427 0.026396257969527416 -0.4000981218676918 43 42 49
0.8408981786123896 0.019046370194909117 -0.3931674839646282 115 115 117
0.8415813045474304 0.014982656846503625 -0.3961573009820984 83 83 79
0.9675369975969164 0.0034038244536859813 -0.41324496084116774 38 46 47
0.8405121576695376 0.007109404070644941 -0.39792265483199074 120 119 121
0.8411837124400439 -0.0013849810032582138 -0.39651119364258736 147 146 150
0.8414958304272858 -0.0028991702808630394 -0.3987255209412472 123 117 119
1.1018109609878453 0.28172939493168253 -0.4011499181639538 29 26 21
1.1071112814303572 0.2670785480783577 -0.3934062168315997 132 129 115
0.9679726124794341 0.1096279271140346 -0.39399403094540364 202 214 218
0.9679726124794341 0.1096279271140346 -0.39399403094540364 202 214 218
0.9522692568121603 0.09473651234909668 -0.39717684808164744 47 44 41
1.0983826555988003 0.1004596046902432 -0.4074381077476568 161 172 172
1.0972198292452475 0.07625217121955867 -0.4071688315138363 128 131 130
0.9237403189807706 0.05570165761658757 -0.38933708306561127 35 40 45
1.118703154267597 0.05895703596179495 -0.40767325060300463 100 106 104
1.090548104594904 0.04726423320925778 -0.40611029033165114 121 124 125
1.1022744518694145 0.04500604691104779 -0.4065369789071799 119 122 125
0.936188015124256 0.01287842555977259 -0.3962181985184192 53 48 56
1.1056082397959905 0.014893037959481353 -0.40554587743275494 145 153 152
1.0980917394939311 0.014025156736960675 -0.4056228545717134 122 125 128
1.0980917394939311 0.014025156736960675 -0.4056228545717134 122 125 128
1.096830398418015 0.0064775244577697485 -0.40661756215549216 168 176 175
1.0997856187835924 -0.005808248563085056 -0.40752336893273994 106 110 105
1.1114776631277186 -0.006419139568067554 -0.4064040687053207 98 101 102
1.1114392836745242 -0.006480282719939621 -0.4060489046720972 98 101 102
1.0904756272699765 -0.008971894839564655 -0.405989001331845 161 167 169
1.1022686713260423 -0.00970842691805632 -0.40371209032104627 96 99 98
1.0949313311101265 -0.010191949741083964 -0.40539816170358267 160 168 167
1.0955900733354962 -0.017435525280373333 -0.4018639856653579 108 114 116
1.011193210568838 -0.03660445405133494 -0.3939996051161899 56 62 64
1.0175543937659943 -0.036799779816345336 -0.4046724193688814 56 62 64
1.1698138720096884 -0.05462877552615901 -0.4974167716886463 84 90 92
1.0018949011412253 -0.04917257809841155 -0.39739329855111216 197 205 206
0.97942494564448 0.10703246686356464 -0.39797918220197087 53 53 55
0.9488441306157053 0.08943559653180748 -0.3925524493177114 197 203 205
1.1131153475450242 0.11354717648186284 -0.4264475509770563 159 167 166
1.1063872502751697 0.043516515998157354 -0.40845173550837 152 163 161
1.114918193026912 0.02251851352993223 -0.4238797481767606 165 176 174
1.1028735264185645 0.01213863628841847 -0.4057906844536413 96 99 102
1.091842414888428 -0.003456924814666549 -0.407550599891238 181 189 188
0.9029873470493677 -0.0153928406501451 -0.39988786225169864 187 195 196
1.1137447239471636 -0.019060752553951583 -0.4079296128107715 107 110 109
1.1000635099227436 -0.029338666782520194 -0.4078855306911765 96 96 96
1.100071635086625 -0.02933982716884202 -0.4078675811413049 96 96 96
1.1054384949743428 -0.03635501481097457 -0.4073545280770226 108 108 108
1.0790045986086159 -0.04654975739680565 -0.39092273409160505 135 143 144
0.9932931710056734 -0.04421673755579829 -0.3851403965068612 57 62 67
1.101807581265158 -0.04767714482728984 -0.40674667295800015 127 135 136
1.0965473842522082 -0.05057079620539922 -0.40295472254644316 91 91 95
0.8696693024395931 -0.04677762875824191 -0.3873780871657527 189 189 191
0.9483495887891059 -0.08853203298471524 -0.39416293274939457 32 35 34
0.8807506503819731 0.08198580795694656 -0.3935724360582598 35 34 34
0.9171998461775528 0.08647598627099534 -0.393662982969246 37 37 39
0.971060836954575 0.08034673473538571 -0.3995216845270008 34 45 43
1.09319584159053 0.08738498211256691 -0.400952600955413 167 175 172
0.9652745496342531 0.07021312783576582 -0.4119264872852385 40 48 49
1.1117218076704365 0.09192360201264202 -0.4261174144097225 114 117 116
0.9848643076617668 0.030264555104531094 -0.39977697563092435 53 59 59
1.11900583873212 0.034070479400075036 -0.405528729636826 99 103 98
1.1074471046717038 0.005908820144929488 -0.40401821100953467 110 113 114
1.111705856951319 0.0009774050417392104 -0.40818385928846174 105 113 114
1.102186357650043 -0.0035487078537706686 -0.40487598977787986 117 123 121
1.1133898790542904 -0.003371086297576847 -0.40854003318971943 104 111 115
1.092692209943663 -0.008057196539106038 -0.4068184270602667 110 113 116
1.100541029583394 -0.013278435561172808 -0.4089938394716844 105 108 109
1.100541029583394 -0.013278435561172808 -0.4089938394716844 105 108 109
1.0952110398686348 -0.01876823001513535 -0.40635231275769207 165 178 175
1.115554592358897 -0.026858575689213435 -0.4096468287542152 107 107 109
1.1039759086725864 -0.03649654967282377 -0.4058708705597265 119 119 121
1.0933444630930567 -0.052145835190075256 -0.406174001929113 92 94 100
1.0974383127740952 -0.05447957946768119 -0.4070885827024773 132 138 138
1.0993620139727438 -0.055834837827115874 -0.40623447403374996 94 94 98
1.1115006124167264 -0.05859762208130408 -0.4011254516541547 82 85 88
1.0749786482393915 -0.05896395395194583 -0.38607323166219903 131 139 140
0.9703345916229471 -0.07207175144016123 -0.3799064656114746 202 210 211
1.1296075493434226 0.3390220742127912 -0.41988171002550917 112 109 104
0.9170801160259342 0.06005959455803408 -0.3893896153037896 37 37 37
0.9855545865296225 0.0310567412276923 -0.3883602903940277 55 66 66
0.9910659225953988 0.03191059278873782 -0.40853330488222683 60 63 64
0.9836233235378445 0.024601144927370613 -0.3856713575838256 192 200 201
0.9073482598418541 0.01358129875274697 -0.39843717911326554 27 33 33
0.9230269919033469 -0.0013614277480662443 -0.38676568404201006 192 202 205
0.9976838000918942 -0.059565611564487066 -0.4081691818253218 189 200 200
0.9976838000918942 -0.059565611564487066 -0.4081691818253218 189 200 200
0.911605366423451 0.11568190371618521 -0.3976706986334121 195 195 197
0.7750412337174843 0.0780033427144742 -0.39736418144699404 53 54 50
0.7704935427675857 0.0626139732741614 -0.3901335265088429 58 59 55
0.7704935427675857 0.0626139732741614 -0.3901335265088429 58 59 55
0.7756527625290253 0.06617928644090348 -0.39704598881629116 61 61 61
0.851812468367943 0.07477094267037887 -0.3974426583457377 200 200 200
0.7758379856545206 0.060698995635890284 -0.3908843627430379 59 60 54
0.7724920260737017 0.04799956472302628 -0.3955559287866872 69 69 71
0.7785243939266474 0.04377436393740802 -0.3873362199927976 75 76 70
0.7813644931033124 0.03895962612472003 -0.39408054338270254 70 77 71
0.7785870445782931 0.03415631712225224 -0.3878391668534831 75 79 74
0.7813374607694042 0.06859849514754182 -0.48456275784596686 69 72 71
0.7787513324519426 0.03146468748305802 -0.38945801240232547 72 78 76
0.782851084890627 0.0320739913528283 -0.39338501445340834 71 76 66
0.7746302440593835 0.018078378447170338 -0.38736633853532 65 71 69
0.8338314602043856 -0.009439193135719986 -0.3054861036562529 139 146 150
0.7810570972081003 0.002247769444421954 -0.38819304253906867 60 67 59
0.8412699924760596 -0.010494535242981034 -0.3922724756709315 191 196 201
0.9419769175043764 -0.012780961946355137 -0.4059174034857109 30 36 34
0.965052076420732 -0.020658351594477993 -0.3950321348165199 185 193 192
0.924610633425606 -0.03777190967993584 -0.38248189912729613 34 37 38
0.8805752819008702 -0.06576966485124743 -0.36408218803363096 28 31 32
0.8805752819008702 -0.06576966485124743 -0.36408218803363096 28 31 32
0.7767796659923758 0.060984428235255864 -0.39809513464040097 74 75 71
0.7773396657071407 0.05557928165497026 -0.397011068499052 69 75 73
0.7771804627311006 0.0530443721926103 -0.39094712202093224 69 75 73
0.7685705856983878 0.04725895895145939 -0.3966052355649179 74 78 73
0.9786558166151408 0.05858630366678713 -0.40210626761706547 57 60 63
0.9655955867951834 0.05297415656504379 -0.3972101492239518 203 204 200
0.839314463527784 0.037819282545143176 -0.3945735676098129 158 161 164
0.8374721878236976 0.13810310210995524 -0.39322691947748994 122 121 123
0.7810624050442345 0.006802992954158512 -0.3900139766789685 62 70 67
