ply
format ascii 1.0
element vertex 680
property float x
property float y
property float z
property uchar red
property uchar green
property uchar blue
end_header
0.9595752153463024 0.0951583423797572 -0.3931410775704675 42 48 48
0.9595752153463024 0.0951583423797572 -0.3931410775704675 42 48 48
0.8327323617175127 0.10360254253947149 -0.3806534163420649 190 186 187
0.8639735634861724 0.06321600767845015 -0.3838062695613071 186 192 193
0.8961567076838095 0.031515235706944575 -0.3826217815597459 43 39 40
0.8455092290432471 -0.004601587169863918 -0.3750583884568035 182 185 186
0.8335642951509261 -0.025885374624937944 -0.3832166524701285 176 177 178
0.8337165967671282 -0.030541433404047393 -0.38231530323333607 180 180 182
0.8335166906762972 -0.036454600342153094 -0.38240137197701324 177 180 183
0.9755759686140293 -0.04476425659244079 -0.36806895979883625 52 57 60
0.9862997090810883 0.07438828998382747 -0.3798464229063622 63 66 69
0.985072265755517 0.012258793593214213 -0.3778444829285076 201 203 204
0.9941970021970024 0.012714499744190096 -0.3920433088438431 177 183 183
0.8538209854797791 0.08645231863177383 -0.3801589678030868 29 35 33
0.9109267605544888 0.08697937714728134 -0.38325345491032387 184 187 186
0.9169091320216612 0.08126975998343536 -0.3832054209097852 186 186 186
0.9243226542709613 0.07010634234152195 -0.38314046759982706 43 34 27
0.9243226542709613 0.07010634234152195 -0.38314046759982706 43 34 27
0.9193921724002384 0.06494231155387434 -0.3741382934141346 193 199 199
0.9193921724002384 0.06494231155387434 -0.3741382934141346 193 199 199
0.9244425820400222 0.06344536352698517 -0.38347414008814185 49 45 46
0.8646058546081469 0.03683425279162952 -0.38466883252723955 23 28 26
0.9296126548129794 0.03662163625239774 -0.38247991171143064 25 31 29
0.8583342916784318 0.014952588825972217 -0.3842378378446689 38 41 44
0.9357396851172834 0.012636053119371339 -0.38125688468771746 178 184 182
0.8458289967451976 0.006237018230246282 -0.3866530081467431 188 191 192
0.9861213812032669 0.0012843893656647241 -0.37971412181004355 66 68 74
0.9216493779848592 -0.0017211659207532776 -0.38148130720059814 29 35 35
0.9216493779848592 -0.0017211659207532776 -0.38148130720059814 29 35 35
0.951834795072933 -0.015588774728714309 -0.38063930890863695 41 43 49
0.9624196325296057 -0.022652091240231716 -0.37991259619208134 48 48 55
0.9624196325296057 -0.022652091240231716 -0.37991259619208134 48 48 55
0.9589648068787219 -0.02379980403216607 -0.3795261193350988 179 187 184
0.9645837405121681 -0.030167423855523404 -0.3796722375770858 180 188 187
0.8951275435009144 -0.029065213151651524 -0.3824412690245429 180 188 187
0.8896008807083401 -0.03430369596635359 -0.3819894145504697 32 32 28
0.8674518709246288 -0.06415760990082048 -0.3814754240707412 22 28 28
0.8674518709246288 -0.06415760990082048 -0.3814754240707412 22 28 28
0.9548586840375137 -0.0809434004861757 -0.3795768484675459 175 185 185
0.9969469295476963 -0.15879571541181414 -0.380454101272089 30 30 30
0.9290110017862315 0.06536032864965013 -0.3935928483227167 48 47 50
0.9164553665980721 0.057389492571766246 -0.39561569978407435 30 36 34
0.9483066016689854 0.01993637893724366 -0.39385224615116843 176 182 182
0.9370344898548458 0.009071497211657387 -0.3932707517481613 179 185 185
0.9300192464927586 0.001036296246851709 -0.394441607739782 46 46 50
0.9300192464927586 0.001036296246851709 -0.394441607739782 46 46 50
0.950519013082188 -0.006967990358556553 -0.39748419713485955 178 184 183
0.9585852311798223 -0.016231814964205987 -0.3932370487911327 48 54 59
0.9020948056549425 -0.019991459002455615 -0.3967921232202236 162 171 170
0.9377093200069896 -0.026141873683630232 -0.3986043063988963 29 35 33
0.8718964273666789 -0.05894254370933891 -0.398320948420459 162 168 168
0.880198166518426 -0.066837080708118 -0.4033116133765269 21 25 24
0.866025740863804 -0.06575260560932476 -0.399674959041525 155 161 161
0.9006385272938809 0.10281652974168203 -0.3763173098315787 190 196 196
0.8322982853191839 0.07127108476479864 -0.3785841663072503 130 128 125
0.8320688851304495 0.0699404029607958 -0.3777746740628919 193 193 189
0.8457135801654443 0.05732024448601368 -0.37836898830155885 187 187 187
0.9427450766502037 0.048715373267533134 -0.3713512467770747 182 186 181
0.8897429955086875 0.0410442210621129 -0.3738996711844543 43 38 34
0.8897429955086875 0.0410442210621129 -0.3738996711844543 43 38 34
0.88914393472191 0.029992012319047686 -0.3737140170140823 173 181 180
0.9669489847717365 0.018822047057466103 -0.37007576172783474 66 72 76
0.9669489847717365 0.018822047057466103 -0.37007576172783474 66 72 76
0.9522800203138724 -0.022395125559901106 -0.36772687592243797 175 181 179
0.9636818964871764 -0.033023993530313885 -0.37024461254143426 51 58 62
0.9665409399194851 -0.041961738202193455 -0.369855850684475 46 52 54
0.9889136387103101 -0.04843226905351061 -0.3676288350315779 46 57 59
0.9334674223795829 -0.045338376613425435 -0.37068910328512134 37 40 43
0.862696419896773 -0.0600913754640116 -0.371744554980445 26 27 29
0.9545260337646043 -0.0883517804362419 -0.3653783292508395 41 40 48
0.885306666816982 -0.09287033091507256 -0.36857217098177714 30 30 30
0.9601733116798229 0.13880678590632595 -0.3856415812833287 197 200 199
0.9237879563859608 0.07297966377203664 -0.37498712352588426 191 199 200
1.0778936706694624 0.01667253746401469 -0.37124214861317756 146 152 151
0.9738475467336796 -0.006174142584991877 -0.3709197055094482 189 195 195
0.99918885681624 0.07217002216992544 -0.3827513436836796 79 75 84
0.9567056909587679 -0.09432477543740818 -0.3807738324465754 46 51 56
0.8343524244420621 0.12350370601766242 -0.3952355632755211 188 187 187
0.8343121636240001 0.11212097720744563 -0.3951996528660447 122 118 119
0.9077558253702598 0.10863974996252489 -0.39522835224173136 180 183 182
0.9077558253702598 0.10863974996252489 -0.39522835224173136 180 183 182
0.9335470119992986 0.10540784786155198 -0.393018955363025 28 34 32
0.9948739237075066 0.07752375491791941 -0.3933265992470709 62 70 69
0.9994819238068894 0.07277918112333946 -0.3941225543781739 62 68 70
0.9994819238068894 0.07277918112333946 -0.3941225543781739 62 68 70
1.0100040194577182 0.06207338539980866 -0.3938377219975067 73 80 84
0.980486233773127 0.05838182936344253 -0.3942730991991789 57 68 66
0.980486233773127 0.05838182936344253 -0.3942730991991789 57 68 66
0.9157061244995193 0.05175506481673763 -0.39446503357140306 178 184 182
0.9593217860064537 0.046973443480367014 -0.39496605322201706 48 53 58
0.9896008628268771 0.02625606712243295 -0.3958205703699801 60 71 69
0.986939722236909 0.020132115575749805 -0.39251195350690804 180 183 184
0.9162090552578114 0.019475479937222095 -0.3954386793949345 29 32 31
0.9416474333873552 0.013000492074076298 -0.39374821301861046 175 184 183
0.9373928695577349 0.009194400823226156 -0.394026664243126 179 185 185
1.0100264614289598 -0.0011505600090406512 -0.3947938815292329 72 83 83
0.9620583684079816 -0.01946444858415113 -0.3941390793998822 178 184 184
0.9816939978424846 -0.03971137675233032 -0.3939337785406439 180 183 184
0.9880507892686201 -0.04482341274565796 -0.39320522948628056 179 182 183
0.8779428037124152 -0.05076876542553436 -0.3947978410131952 23 27 28
0.8629440825316845 0.06353335309297571 -0.38104819716648647 198 201 204
0.8738633272285811 0.060907253654612865 -0.38187683626280006 32 35 36
0.8738633272285811 0.060907253654612865 -0.38187683626280006 32 35 36
0.8738633272285811 0.060907253654612865 -0.38187683626280006 32 35 36
0.8322542310492708 0.0003452729880612507 -0.37934816921771985 134 131 135
0.8324030848015848 -0.001649128903020248 -0.38015550710508555 196 196 200
0.8315488381395314 -0.007299481814319948 -0.3799769656762071 192 192 196
0.8307321557109791 -0.008800686308196129 -0.37966141654516694 193 193 195
0.8447875001875358 -0.02337441771815302 -0.38000621798034806 192 192 194
0.8337288846385628 -0.031624742804534936 -0.3791821210466088 117 112 120
0.8321391227198928 -0.03182800122397079 -0.3791785895132173 111 110 114
0.8328626999105738 -0.034948067879833566 -0.37849276331752946 184 184 186
0.8720389039465509 -0.060800693402539414 -0.3768413960644109 26 28 27
0.9879218929677696 -0.1506962030019939 -0.3673380991898682 33 33 33
0.8952598284620895 0.09702901643743575 -0.37528319987113135 30 33 34
0.9727810619975285 0.07926573653172919 -0.37061733697365795 187 186 186
0.9727810619975285 0.07926573653172919 -0.37061733697365795 187 186 186
0.9757841178171982 0.07631857617145878 -0.37087744281800883 73 72 74
0.9801223638214482 0.07251400877265901 -0.3704984128115601 66 72 72
0.9905600973589295 0.07263286423033949 -0.3700381972834134 181 185 181
0.9906403675389142 0.06882202430039006 -0.37036282215456806 81 84 85
0.9906403675389142 0.06882202430039006 -0.37036282215456806 81 84 85
0.9906403675389142 0.06882202430039006 -0.37036282215456806 81 84 85
0.9541946077886083 0.06627299174390602 -0.3716819428592153 46 52 52
0.9918005449995004 0.0655252900189624 -0.371424992178895 188 199 197
0.9338927149425443 0.05725833824407656 -0.3724608556913158 43 49 49
0.9275147674632775 0.009304080244923935 -0.3717194681920032 181 184 183
0.9275147674632775 0.009304080244923935 -0.3717194681920032 181 184 183
0.9275147674632775 0.009304080244923935 -0.3717194681920032 181 184 183
0.9795700933470212 0.0071359914862543 -0.37017570761824403 69 75 77
0.9257117493874567 -0.053139099957701774 -0.3711732762678162 175 178 177
0.9378465196718616 0.10984007359164673 -0.37759268405498797 42 48 50
0.9655523320062043 0.10731694304255182 -0.3755134572949965 49 45 46
0.9545420177142439 0.10303083630651708 -0.3745987161412876 43 31 23
0.9553911378247909 0.09217999787915901 -0.37516995030978856 43 33 25
0.9440924388515771 0.08519422076078266 -0.37497078844319265 193 199 199
0.9136720578392523 0.07958881117279061 -0.37632734627213504 187 195 194
0.9281622792361874 0.07574652849394692 -0.3760607965364405 36 36 40
0.9889931547744982 0.07213460926950027 -0.37280592006018876 51 44 41
0.9889931547744982 0.07213460926950027 -0.37280592006018876 51 44 41
0.9849696288714203 0.06853901051862268 -0.37317798609809527 49 43 37
0.988391840666716 0.06513758754916794 -0.37280567643679347 59 50 50
0.988391840666716 0.06513758754916794 -0.37280567643679347 59 50 50
0.9789055221203335 0.05932748742408709 -0.37281881169368175 38 41 42
0.9473835877279868 0.0454564222837419 -0.3737956629312419 35 41 43
0.9516562964537987 0.04177406150760418 -0.37418946815794707 195 198 199
0.9516562964537987 0.04177406150760418 -0.37418946815794707 195 198 199
0.9575049766169306 0.04160421411201471 -0.37295544832770455 33 33 35
0.9937758718353867 0.013666988432402376 -0.37187973916188843 43 53 56
0.9551594521145629 -0.05430942266937722 -0.370986552143252 24 30 28
1.0021140093984442 -0.15055118899907677 -0.37286412298934213 31 34 33
0.8869411303962769 0.08922013993291086 -0.378208521786208 37 40 43
0.8831832817314669 0.08563835394657035 -0.37772985308922463 188 196 197
0.8831832817314669 0.08563835394657035 -0.37772985308922463 188 196 197
0.8781197175108374 0.08033120819361358 -0.37944950446811504 187 193 195
0.8781197175108374 0.08033120819361358 -0.37944950446811504 187 193 195
0.8665860503684347 0.07254376839410194 -0.37841975156637275 49 46 50
0.9207914049338748 0.06894309958933414 -0.3757750472475366 48 36 36
0.9207914049338748 0.06894309958933414 -0.3757750472475366 48 36 36
0.8672450137925399 0.06559094763790081 -0.3787636243765771 56 49 58
0.859279836849624 0.061494952473411885 -0.37800515331359663 194 197 198
0.9211922817960261 0.06251710369674024 -0.3765735315298167 41 32 32
0.9320396861385479 0.06213290470059543 -0.37637892688520175 28 31 30
0.9244675008638579 0.06155332359872077 -0.37604727095678886 191 197 199
0.9244675008638579 0.06155332359872077 -0.37604727095678886 191 197 199
0.9352365661451575 0.058619460955599216 -0.37602810850430074 34 35 35
0.9352365661451575 0.058619460955599216 -0.37602810850430074 34 35 35
0.9136964361191792 0.05490052068935144 -0.37581760661276437 191 199 200
0.9136964361191792 0.05490052068935144 -0.37581760661276437 191 199 200
0.908340119250717 0.04951460879771607 -0.376994552866975 191 197 199
0.905112617172528 0.04615986661473292 -0.377308231485935 33 34 37
0.8883961891385466 0.044517010841764536 -0.37766133963112514 34 37 40
0.8883961891385466 0.044517010841764536 -0.37766133963112514 34 37 40
0.8883961891385466 0.044517010841764536 -0.37766133963112514 34 37 40
0.8938100415230446 0.03869421660102302 -0.37693628432611365 47 46 53
0.8914127850507008 0.034870389230919965 -0.3769433806729156 194 197 199
0.8876925900350973 0.030226122355578467 -0.37571988730452327 83 65 63
0.8876925900350973 0.030226122355578467 -0.37571988730452327 83 65 63
0.9384273593219319 0.025005727098035457 -0.3751604763936664 34 37 36
0.9140346669577826 0.02474821251464417 -0.37537061460287463 32 38 38
0.938629225974194 0.019229749141967598 -0.3747415909500848 190 196 194
0.938629225974194 0.019229749141967598 -0.3747415909500848 190 196 194
0.9324186531632962 0.01276494704317444 -0.37512876805278855 185 198 195
0.9324186531632962 0.01276494704317444 -0.37512876805278855 185 198 195
0.85632479929836 0.015096772439784014 -0.3774120609150415 46 46 50
0.9202347461515232 0.012376507956585141 -0.375061371872931 184 192 191
0.9202347461515232 0.012376507956585141 -0.375061371872931 184 192 191
0.8596735765261163 0.01172151117233016 -0.3774581539523523 190 196 196
0.9206870205700836 0.008597581336431017 -0.375194903211118 49 44 46
0.9235032017234754 0.007663982082885049 -0.3748505869200141 189 195 195
0.9235032017234754 0.007663982082885049 -0.3748505869200141 189 195 195
0.9243746172651613 0.004740939621221832 -0.37488342945801434 50 48 53
0.9243746172651613 0.004740939621221832 -0.37488342945801434 50 48 53
0.9877454206396399 0.0016778322288255102 -0.37290770963557957 189 197 196
0.9274283493589497 0.003811713219365383 -0.3747127771141648 187 193 191
0.9274283493589497 0.003811713219365383 -0.3747127771141648 187 193 191
0.9937293092500723 -0.00019905710155357896 -0.37155524170930704 46 57 57
0.9210769245139662 0.0015215491539923743 -0.3750607271928537 44 33 31
0.9210769245139662 0.0015215491539923743 -0.3750607271928537 44 33 31
0.9320075398384906 0.0005423214412561747 -0.37454191309215296 184 192 191
0.9320075398384906 0.0005423214412561747 -0.37454191309215296 184 192 191
0.91868095156031 -0.0010962749752351404 -0.37516398042319443 33 40 39
0.91868095156031 -0.0010962749752351404 -0.37516398042319443 33 40 39
0.91868095156031 -0.0010962749752351404 -0.37516398042319443 33 40 39
0.9384218216220709 -0.011410649556383089 -0.374738904496849 32 35 34
0.9141104282755883 -0.01155544782950979 -0.37484757964202564 32 35 37
0.8882542058769892 -0.016496564103238437 -0.37565345627213453 33 33 33
0.9561446047790897 -0.022252597090776004 -0.37486477104318566 183 191 192
0.9557824267309294 -0.022900458020891766 -0.37436820012495664 189 195 197
0.8627012107313906 -0.024177054193009036 -0.37674979567231176 28 31 30
0.9503875228964807 -0.03217594135043699 -0.37251330383409204 37 36 42
0.9269656190098895 -0.047783802973946916 -0.37203639394532895 181 187 185
0.9323717633141008 -0.05313542179241399 -0.3732010402046917 180 184 184
0.9323717633141008 -0.05313542179241399 -0.3732010402046917 180 184 184
0.9206993842068215 -0.05277978956854537 -0.3734776569963673 186 186 186
0.9542202309855835 -0.07549401832867549 -0.37192523138720357 30 35 41
0.95110286223815 -0.08581414848381512 -0.3713132637095873 183 183 183
0.9616905002718432 -0.08991947127036862 -0.371078830767743 178 182 181
0.9616905002718432 -0.08991947127036862 -0.371078830767743 178 182 181
0.8636716104393727 -0.08695856520211859 -0.3754246913383327 21 25 24
0.8636716104393727 -0.08695856520211859 -0.3754246913383327 21 25 24
0.8537933465784375 0.023062577326051575 -0.38507526767826006 34 39 39
0.8853683296699165 0.022709253056728367 -0.38660656860906467 191 197 199
0.860808635780881 0.009642899640341498 -0.38634648689959816 192 194 200
0.868570374832262 0.006568840864646179 -0.3858838526073929 187 192 197
0.8607576364624959 0.0029007739644059264 -0.3851821088800403 192 195 198
0.8598968282724674 0.001318062728482956 -0.38641536949358685 188 191 194
0.8598968282724674 0.001318062728482956 -0.38641536949358685 188 191 194
0.9167898467730201 -0.00855804156174974 -0.3851656332224326 188 196 197
0.8853782339996452 -0.014443094808105248 -0.38542896632983037 187 190 191
0.8962603246180475 -0.025344158173900354 -0.3853461714345706 55 48 54
0.8998676705785401 -0.02845033109821501 -0.3846020937165313 186 191 192
0.8998676705785401 -0.02845033109821501 -0.3846020937165313 186 191 192
0.8789637054766528 -0.045745883404963585 -0.38375533432252806 184 187 188
0.8642320701089599 -0.06103854270955627 -0.3841233208357096 181 183 184
0.909315350691416 -0.07049666320086594 -0.38159437255970424 29 32 31
0.8848755365999148 -0.0767097479029496 -0.38351650087464534 188 188 190
0.8793711717272298 -0.07681092231835651 -0.3839436388566714 25 25 27
0.8553229861966105 0.08807567675800063 -0.38884156186176766 35 38 37
0.8624002327216757 0.07341122804601193 -0.39076244815443784 45 34 34
0.9993554831634421 0.07647683392984127 -0.38602341871632445 62 64 69
0.8796622579040647 0.05423530655861021 -0.38732129071727717 197 200 203
0.8796622579040647 0.05423530655861021 -0.38732129071727717 197 200 203
0.9488859352277921 0.05463410265730131 -0.3850957097364735 40 49 50
0.8647007035739556 0.005901399203986663 -0.3864864905381475 49 48 57
0.8997732598080057 0.004445320183738121 -0.38965298668448944 25 31 31
0.892776062794568 -0.022104192789509154 -0.38555632149032504 47 41 40
0.8544405385920326 -0.03875971454908603 -0.38441895374189405 29 32 31
0.8857894974347731 -0.045990824301325006 -0.38510836780409624 33 36 39
0.8745003032824247 -0.05085534071807971 -0.38564807837164883 29 29 29
0.8745003032824247 -0.05085534071807971 -0.38564807837164883 29 29 29
0.8692189283891661 -0.06133492693559604 -0.38532208067437 182 183 185
0.8692189283891661 -0.06133492693559604 -0.38532208067437 182 183 185
0.8582791403145862 -0.06057768132514055 -0.38740442473330583 32 31 38
0.8576833197026504 -0.06794117423764807 -0.3859788725475225 32 32 35
0.9025145344490942 -0.0839120943129344 -0.3821028380093544 44 44 40
0.8912552462745581 0.10726765942782433 -0.38976891546401976 39 39 41
0.9805947067181212 0.08638284962401156 -0.38562865136886504 52 63 61
0.8605426077228269 0.06093277081931117 -0.38777190743109236 199 198 204
0.9744672532033114 0.04903362267203407 -0.38635060920037984 197 205 206
0.8909472416753479 0.04350021152188585 -0.3882211125336003 35 38 39
0.9567325863659203 0.041146219441123996 -0.38608403220379667 196 202 203
0.9037217691320439 0.029771934733502595 -0.3868073564345711 191 196 201
0.9390400539941793 0.013730314874659881 -0.3861272271575423 46 48 56
0.8667473114893395 0.011526027976167938 -0.3867229176252578 31 34 37
0.9552759461724892 -0.02073613557948191 -0.3853281000129448 192 200 199
0.9552759461724892 -0.02073613557948191 -0.3853281000129448 192 200 199
0.9369801713332003 -0.0651899796742862 -0.3834924663097961 32 35 36
0.9938084460035517 -0.1532470781359589 -0.38620766677768625 26 26 26
1.0050798866554056 -0.1610185283999039 -0.3871308123819469 34 34 36
0.9831302278142865 0.11218517937465064 -0.3891397490042727 55 60 65
0.8893397682570973 0.08979751100492538 -0.38914183472597214 46 43 41
0.9559085955362694 0.09697191814682689 -0.38777638115143787 194 202 202
1.0038944358939272 0.07783021676522807 -0.388056359001215 76 76 81
0.996678745603222 0.07337927493141957 -0.3875874664859134 68 66 61
0.880175563800202 0.04840618879337025 -0.3898586936276077 33 33 35
0.9535223657045083 0.04557343780584239 -0.38827728632704733 51 50 54
0.9599760645674916 0.04228019705353471 -0.38700892024436173 192 201 201
0.9672692385264235 0.030052217682115252 -0.3856883670201407 190 200 203
0.9703779392880244 0.026459434417955664 -0.38530201273841236 56 59 58
0.9173285101391753 0.017357360614948344 -0.3870907007504281 194 200 202
1.0868431059467978 -0.00913638781629144 -0.3943564735061867 161 169 166
0.9540725093402443 -0.01935237583945325 -0.38505548950918095 198 205 209
1.077923782107825 -0.0289681269867684 -0.3898056826724989 163 171 172
0.9555213091010003 -0.032861331065665314 -0.3852268105876796 189 200 198
0.8894672011917294 -0.03640639359665771 -0.3859374082407553 40 42 48
0.9389216068572189 -0.04908822676714835 -0.3850674369458403 48 47 51
0.9995292278957536 -0.06477251559067518 -0.38439063273566093 187 198 196
0.9995292278957536 -0.06477251559067518 -0.38439063273566093 187 198 196
0.9868853736163076 -0.06425206317870283 -0.3841257203713914 188 199 199
0.9422657780394208 -0.0711797429287472 -0.38392499371125527 189 196 195
0.9614451314096855 -0.09082486284987537 -0.3820941930183633 194 202 203
0.8681962918041565 -0.0014317149833584118 -0.38562951217473923 55 51 56
0.8681962918041565 -0.0014317149833584118 -0.38562951217473923 55 51 56
0.8858782264863514 -0.04598486709585016 -0.3852437760007529 33 36 39
0.9161762155601124 -0.07115118713378846 -0.38267338426142367 181 187 189
0.9101678086323627 -0.07675237460670538 -0.38251559633528187 182 188 188
0.9101678086323627 -0.07675237460670538 -0.38251559633528187 182 188 188
0.9795599221962673 0.11302015700105422 -0.3820835815773048 55 63 62
0.9728766658818061 0.08328254681167094 -0.3843337194168618 53 61 60
0.9728766658818061 0.08328254681167094 -0.3843337194168618 53 61 60
0.9883524568098203 0.07101457574540129 -0.3806336429933884 59 54 60
0.9978106435429499 0.00018157006081354825 -0.38002358406619563 51 62 60
0.9568818396375399 -0.03307333048840514 -0.37987509792912916 32 38 38
0.9892065572968182 -0.0526607442435524 -0.37978724060017266 40 49 49
0.988698276429923 -0.06391266629275659 -0.3793015842717012 32 32 34
0.9263638537766415 -0.06113680806978731 -0.380754729639112 156 156 152
0.831687164808427 0.13996603921551598 -0.39117885810368375 157 152 154
0.8313280879527728 0.12100835964216645 -0.38269151603920526 122 117 117
0.8312265127341536 0.07241863518199258 -0.38014871913729154 175 174 174
0.8313123499545476 0.07163637784104726 -0.38128713936763814 123 120 117
0.8310752656710144 0.06078064769807302 -0.3806118657922554 177 177 177
0.8310752656710144 0.06078064769807302 -0.3806118657922554 177 177 177
0.8728542667483447 0.06099611223396094 -0.3828421078508068 25 28 28
0.8623781929810794 0.00729632094935351 -0.3778532864185064 28 30 26
0.8671261436778206 0.0011384331678425388 -0.383306185277968 25 25 25
0.856939767376418 -0.0016878324565472796 -0.37953666626516697 22 26 21
0.9380769164139149 -0.06750969881871359 -0.3753527192454849 169 172 171
0.8319360744060216 0.13520458075433492 -0.3925336353810238 191 187 188
0.9195599519488065 0.11850130589905013 -0.39308649699652803 27 33 35
0.8919494257626815 0.11337633731872596 -0.3936198376416148 26 29 30
0.9087467758887435 0.11428433311268306 -0.3918843656290677 33 33 34
0.9276389841533698 0.1036139905783991 -0.3836217803942709 21 25 24
0.9037770736523538 0.09811530046581841 -0.38932375328261626 167 170 169
0.9037770736523538 0.09811530046581841 -0.38932375328261626 167 170 169
0.8893159141687327 0.09409747033393917 -0.39040975301536346 25 27 24
0.9114494070609261 0.09023446341662873 -0.3888289527326512 160 170 166
0.8853637936615683 0.08461597947960703 -0.38995895378868395 21 27 29
0.944011337880819 0.08541954086199904 -0.38922566451302315 161 167 166
0.944011337880819 0.08541954086199904 -0.38922566451302315 161 167 166
0.9214834398219999 0.07656370768525023 -0.3860445363845704 29 35 33
0.9294440757744625 0.0748006463373689 -0.3818960414505939 40 39 39
0.8613458023623692 0.06808493454459166 -0.3892894964540309 37 28 19
0.8613458023623692 0.06808493454459166 -0.3892894964540309 37 28 19
0.8686056408527986 0.06886701579819547 -0.38981580342884564 30 29 33
0.8986845603148046 0.07207667089083393 -0.39033184174311564 13 19 16
0.8727530374711987 0.0688947757470418 -0.38923776541333266 157 165 166
0.8727530374711987 0.0688947757470418 -0.38923776541333266 157 165 166
0.9346016739810719 0.07330284354546815 -0.3857745081514953 183 186 185
0.8635259688213336 0.06577936014861789 -0.38884128708190013 162 170 171
0.8602769562982348 0.0646264062170494 -0.38901457949338714 162 170 171
0.8602769562982348 0.0646264062170494 -0.38901457949338714 162 170 171
0.8570950461111718 0.061506991643614076 -0.38950301545895777 30 31 27
0.9273169527033358 0.06403125416163696 -0.38565444590893805 188 194 194
0.9431295016211855 0.058337763222466296 -0.38746985197252926 145 160 157
0.9107491519727129 0.051468329674199356 -0.3865226353387556 186 192 192
0.9107491519727129 0.051468329674199356 -0.3865226353387556 186 192 192
0.8899771911669053 0.04613818435702572 -0.38695591471159846 27 30 31
0.8968759050764697 0.04551691682051245 -0.3889465611593627 140 157 155
0.8968759050764697 0.04551691682051245 -0.3889465611593627 140 157 155
0.8334349838642028 0.038134111940367796 -0.3891776094706702 162 166 169
0.8916664399713938 0.0403975203006705 -0.38657170467443164 182 188 190
0.896071777601804 0.03645126409098882 -0.38586333260776007 181 189 188
0.8923869664121777 0.03287403837611982 -0.3879557101830833 139 155 154
0.8327287579033745 0.028848899268167107 -0.38888154829829213 164 167 168
0.8891088300077281 0.02983721471382616 -0.38828316337106367 14 21 14
0.9112339886428232 0.02614474911940295 -0.3869276480430342 137 157 152
0.8575581604988568 0.01665466973166945 -0.38961448387159336 21 24 23
0.9383446906664323 0.016480588593838302 -0.38472627338318877 32 39 34
0.9214225391850365 0.012922479324553305 -0.380809520054949 133 156 152
0.8981648669785228 0.0070302638536344575 -0.38685810806144116 10 18 15
0.8608281963630585 0.005942858988372305 -0.38683700867328696 142 157 156
0.9284370124896006 0.004179717121271152 -0.37994746697589854 133 151 147
0.9284370124896006 0.004179717121271152 -0.37994746697589854 133 151 147
0.861695652204345 0.002127465385943535 -0.3890218053175845 26 22 18
0.861695652204345 0.002127465385943535 -0.3890218053175845 26 22 18
0.8328439204793906 -0.009394331177478437 -0.3874215161703563 99 99 103
0.879434494752897 -0.012039196830217206 -0.3892320366681136 12 18 16
0.8543481050563833 -0.012286750713246081 -0.3878560958923912 15 21 19
0.9696071235101389 -0.01566537555838087 -0.385388163840437 28 40 39
0.9696071235101389 -0.01566537555838087 -0.385388163840437 28 40 39
0.9068789400774313 -0.016283619751044757 -0.3889476906154299 13 19 17
0.8922250433382031 -0.022199833137456538 -0.3868397723281889 128 146 144
0.9011471909276499 -0.02703054789029727 -0.3861973456253036 127 144 141
0.9011471909276499 -0.02703054789029727 -0.3861973456253036 127 144 141
0.9525889052431579 -0.029698032416867377 -0.3793682338053272 170 177 175
0.8997314182904002 -0.029422934508587184 -0.3866000441722643 23 22 24
0.8997314182904002 -0.029422934508587184 -0.3866000441722643 23 22 24
0.8885429117990802 -0.03388243321526196 -0.38444268857564556 27 27 27
0.8894784442959197 -0.03357205761197682 -0.38726108692447364 16 22 23
0.9112154150398308 -0.03723176257833785 -0.3859975507226639 133 148 145
0.8857562701700943 -0.04298316140959407 -0.38677961110720643 15 18 18
0.9288132177161343 -0.05045287715979515 -0.3858685664749978 33 36 37
0.9288132177161343 -0.05045287715979515 -0.3858685664749978 33 36 37
0.9338357350770464 -0.057044931517727285 -0.38204975279093445 29 30 32
0.9338357350770464 -0.057044931517727285 -0.38204975279093445 29 30 32
0.928275136998005 -0.057522287518444355 -0.385613385468914 30 29 30
0.928275136998005 -0.057522287518444355 -0.385613385468914 30 29 30
0.928275136998005 -0.057522287518444355 -0.385613385468914 30 29 30
0.928275136998005 -0.057522287518444355 -0.385613385468914 30 29 30
0.928275136998005 -0.057522287518444355 -0.385613385468914 30 29 30
0.9228105212365496 -0.057957223587687935 -0.38311090402356424 161 164 163
0.8713984159931483 -0.057287708587314974 -0.3836313038120896 32 28 32
0.8713984159931483 -0.057287708587314974 -0.3836313038120896 32 28 32
0.9249995823678522 -0.060768990334103413 -0.38588194606995263 28 24 29
0.8762166604521703 -0.06542523556070509 -0.3851439959344657 21 23 22
0.8762166604521703 -0.06542523556070509 -0.3851439959344657 21 23 22
0.8544374813594129 -0.07555703922444042 -0.3848795619845302 16 20 15
0.9035042656060868 -0.08140797473857965 -0.38527014633317325 22 25 22
0.8966738143216035 -0.08515211988249718 -0.38377162533783316 23 27 24
0.9021000179013652 -0.08907499297534471 -0.3841451301748858 147 152 148
0.889016873178201 -0.09641533813426599 -0.3841126011462781 20 23 26
0.892029619928354 0.10705611895609374 -0.38522405243273183 37 33 27
0.8908095616987295 0.094481579518786 -0.38320444747648996 165 169 170
0.8832298427676839 0.08716669532829305 -0.3825668070755961 164 172 171
0.9578332359424032 0.09488338201402817 -0.38194289867741776 48 39 31
0.9678666267826311 0.0917675158240877 -0.38169597551900264 36 39 38
0.9457731575327036 0.08766534816246993 -0.3815095724819389 181 181 176
0.9453954630473111 0.08171721114236738 -0.38070481111794713 29 32 31
0.9453954630473111 0.08171721114236738 -0.38070481111794713 29 32 31
0.9254596587739817 0.07539162755035583 -0.3822753807762099 188 194 194
0.9219610790722017 0.07038417851538381 -0.38143964655975127 44 36 29
0.9211773641702529 0.06729489608768444 -0.3819723856704739 179 182 177
0.9220673875180764 0.06383991263278832 -0.3815830554565091 44 37 36
0.9220673875180764 0.06383991263278832 -0.3815830554565091 44 37 36
0.9329837645117135 0.06353412045020397 -0.3814045334127033 24 27 26
0.9941517724293202 0.06403064965822253 -0.37919592866755897 181 181 181
0.9977108943373394 0.060011048584367996 -0.3786820398968506 55 59 60
0.9462873173838595 0.051111900743554 -0.38142892410862317 148 161 156
1.0013085323564435 0.05037224655841042 -0.3794622071819604 57 60 63
0.9525125583807358 0.03636748380628519 -0.3802383380699182 178 182 177
0.9525125583807358 0.03636748380628519 -0.3802383380699182 178 182 177
0.9607412101749575 0.03556372400756844 -0.38039287544362205 43 49 49
0.9565819398466338 0.032160418442252085 -0.38012134576465223 179 179 179
0.9595989460936387 0.028721368815215476 -0.37926645757842137 33 41 39
0.9396722497172255 0.024957397913916598 -0.37976839956038166 30 36 34
0.909786323333112 0.020102471554454455 -0.38249924479889963 15 18 17
0.9400218659908153 0.020015952118813473 -0.38052252110031354 176 181 179
0.9770304214404109 0.020146861332745198 -0.3795805492034224 181 182 178
0.9770304214404109 0.020146861332745198 -0.3795805492034224 181 182 178
0.9187317955097178 0.01629002798803929 -0.3817762633714071 30 31 34
0.9805676143455312 0.016555909450303035 -0.37926866072148463 58 61 62
0.9808521210488684 0.01670572832317267 -0.3798048968502651 58 61 62
0.9214225391850365 0.012922479324553305 -0.380809520054949 133 156 152
0.9335423121433926 0.013166680317848263 -0.38093547063040184 175 178 177
0.9335423121433926 0.013166680317848263 -0.38093547063040184 175 178 177
0.983630506520188 0.013022461844502292 -0.3785655532096037 177 180 179
0.983630506520188 0.013022461844502292 -0.3785655532096037 177 180 179
0.9298524033820138 0.0096689307390131 -0.38134942388888093 178 181 180
0.9831965345699282 0.005455527530926124 -0.37871845538828214 176 180 179
0.9868973693927336 0.00506829659431852 -0.3781318558847698 69 75 73
0.9294952067332923 0.001578025455154836 -0.3805181448515806 41 37 38
0.9845303910787624 0.0023071118018332996 -0.37984435941778194 65 68 70
0.9253973847154662 0.0009288518834682638 -0.38042129178780354 172 180 177
0.9332235208807534 0.0009033622870805535 -0.3801035587962558 174 182 181
0.9198713136473408 -0.0008814415028258331 -0.3812478840910979 26 32 32
0.9196944704839428 -0.0009455497697960298 -0.38093392853739627 26 32 32
0.936073171163649 -0.0022806576421936704 -0.379568703404783 35 41 41
0.9363385595697864 -0.0021833179383906067 -0.38004285946317273 35 41 41
0.93825169252114 -0.0065171773088249264 -0.37691207177888875 174 183 176
0.946047543161515 -0.010993338950051435 -0.3800830800438093 177 180 179
0.9639837846785151 -0.0222125866726817 -0.3787076605109348 172 178 177
0.9598895164863328 -0.02473500157101032 -0.37952108083600905 40 46 48
0.960435586686465 -0.02654995606871022 -0.3783420787415653 48 51 52
0.960435586686465 -0.02654995606871022 -0.3783420787415653 48 51 52
0.952383720706801 -0.029723628778703663 -0.3790816634571728 170 177 175
0.9763510475283885 -0.03660268716645732 -0.37801791484676645 47 58 56
0.976953705879942 -0.041857146161931806 -0.37873519959164137 175 181 181
0.976953705879942 -0.041857146161931806 -0.37873519959164137 175 181 181
0.9397486532338611 -0.042027839126444914 -0.37910377794721123 170 176 174
0.9804937137818712 -0.04542563809216833 -0.37867649843246215 56 62 64
0.9839249291809203 -0.04893053981567096 -0.3787553884975205 177 180 179
0.9314192515695218 -0.051308359790889047 -0.3806465515189185 168 176 173
0.9872715003878973 -0.05634454196221048 -0.3771136323301959 178 178 178
0.9808580065451015 -0.05659913322585068 -0.37845320151376766 48 56 57
0.9869460298896648 -0.05998884723436678 -0.3772926004065639 61 63 69
0.9827338571807394 -0.06052702118501375 -0.3770708285650455 175 181 180
0.9827338571807394 -0.06052702118501375 -0.3770708285650455 175 181 180
0.9827338571807394 -0.06052702118501375 -0.3770708285650455 175 181 180
0.9899010684959316 -0.06116401305831676 -0.3766581744689457 187 193 191
0.9899010684959316 -0.06116401305831676 -0.3766581744689457 187 193 191
0.9664870850645121 -0.07613453544961425 -0.3771598012588904 39 47 46
0.952355478072034 -0.07964536863115261 -0.3781315193292429 169 175 173
0.952355478072034 -0.07964536863115261 -0.3781315193292429 169 175 173
0.9532434390090773 -0.08725221329602102 -0.3779152859274743 169 175 175
0.9016997454324374 0.10595283431642386 -0.38373301168086343 194 197 198
0.9016997454324374 0.10595283431642386 -0.38373301168086343 194 197 198
0.9683237834565904 0.11064482319196098 -0.3824340206773417 38 40 40
0.9546836647019534 0.10217952186078039 -0.3829422571110661 191 194 193
0.9546836647019534 0.10217952186078039 -0.3829422571110661 191 194 193
0.957771585268443 0.09862898841406309 -0.3822860648243264 47 50 51
0.8782837028364882 0.08749442299898263 -0.38396861962965945 30 31 27
0.9628829431685639 0.09547995971949452 -0.3825350583972296 166 169 167
0.9093066329876067 0.08792749768388117 -0.38343656543331345 191 194 195
0.9404354033136522 0.08790848010826881 -0.38227910743654014 38 41 40
0.8722096714429541 0.07570296258830238 -0.3843174599159992 25 28 27
0.9340497127531336 0.0763487650549434 -0.37655957958988606 40 43 44
0.9374406827402453 0.07903166140543434 -0.38333555522203977 44 43 45
0.9339465306231415 0.07586195299050778 -0.38293254420676526 187 195 196
0.9339465306231415 0.07586195299050778 -0.38293254420676526 187 195 196
0.9573593601528155 0.06874414123130551 -0.38021966751360803 22 30 27
0.9148734890036125 0.05641691052364317 -0.382311998036289 187 193 195
0.9147648328603877 0.05633742720323047 -0.3819692367353886 187 193 195
0.9061104086200337 0.04750347154481806 -0.38340040597869335 30 31 30
0.9061104086200337 0.04750347154481806 -0.38340040597869335 30 31 30
0.8887088522787571 0.045546141969885656 -0.3829804037989012 27 30 31
0.9505522982578308 0.047594616434821574 -0.3824159725954717 25 31 32
0.8911671434470343 0.04289408318368175 -0.38232708890588407 38 30 23
0.9018542159122278 0.041768140986014425 -0.38292346187117887 23 29 27
0.9565812351869638 0.044221488763021094 -0.38059837943433106 188 196 195
0.905381372450716 0.02863110289774477 -0.3815686911578691 29 32 31
0.909131763265737 0.025144348794067475 -0.38167985836079604 181 187 187
0.9401046540184682 0.02003087315147037 -0.3806804134705752 142 157 154
0.8749211113989229 0.01625849918797556 -0.382240469653546 29 29 29
0.8706251588132886 0.007895762901312442 -0.3828344227954103 42 42 45
0.8706251588132886 0.007895762901312442 -0.3828344227954103 42 42 45
0.9583539524142118 0.006841868624161126 -0.38115118196869624 18 29 27
0.871438314588425 0.0046121182424211605 -0.38236549261795816 176 181 183
0.9256598795678591 0.005156596330538129 -0.3809012316454577 38 38 40
0.9256598795678591 0.005156596330538129 -0.3809012316454577 38 38 40
0.9214912363385208 0.005029197734154323 -0.381060154679854 175 181 181
0.9214912363385208 0.005029197734154323 -0.381060154679854 175 181 181
0.9214912363385208 0.005029197734154323 -0.381060154679854 175 181 181
0.9222507956018726 0.0019106945543639017 -0.38089320005661054 40 31 30
0.9222507956018726 0.0019106945543639017 -0.38089320005661054 40 31 30
0.9462805627086889 -0.010983194517022465 -0.38043406222579956 144 159 158
0.897809815094628 -0.018951263801262316 -0.3813495422280966 170 173 174
0.9572330732350653 -0.022928297609393036 -0.3793456034145564 184 192 190
0.8947194098493321 -0.022454741316593047 -0.3815744031917722 41 36 37
0.8947194098493321 -0.022454741316593047 -0.3815744031917722 41 36 37
0.8983510008381278 -0.025485745537531215 -0.38103546848859193 168 174 174
0.8983510008381278 -0.025485745537531215 -0.38103546848859193 168 174 174
0.9144336519712453 -0.03656177642330701 -0.3790372351126322 27 31 26
0.9592792421600436 -0.05553193170625488 -0.38098267352928733 19 27 24
0.9217356690292599 -0.059750472552446685 -0.3785584021428391 28 24 29
0.8599243777173408 -0.05716506124694862 -0.3812305080893824 25 24 26
0.867867885876857 -0.05791350248038776 -0.3812236305641487 166 166 166
0.8635985063031629 -0.06088940550054874 -0.38130916997232517 24 23 23
0.859743460401789 -0.061407264983174586 -0.3818528064350376 168 167 169
0.859743460401789 -0.061407264983174586 -0.3818528064350376 168 167 169
0.856608615339762 -0.06477196307166223 -0.38255385921086865 24 24 24
0.9492760696795371 -0.07634090747653743 -0.3784451895781495 25 28 29
0.887432223406784 -0.07683804557013033 -0.38034398439735295 24 24 25
0.9560851284980465 -0.08349598553557587 -0.3776869219432941 39 42 45
0.9560851284980465 -0.08349598553557587 -0.3776869219432941 39 42 45
0.8908700575068234 -0.08042945163580695 -0.38046740716146754 168 168 168
0.8997225041911892 -0.08448449773020172 -0.38084243616722085 26 29 30
0.8912760431213055 -0.09209273481338055 -0.3814145996273586 170 171 171
0.9916262693068965 -0.14236928131272333 -0.3760084867030097 40 28 37
0.9765614707335161 -0.15531011914664608 -0.37366292930151035 24 28 23
0.8742499646069497 0.10751975173833941 -0.37557244539345447 26 32 31
0.9357007806198298 0.10909872841433481 -0.3752953289662167 37 40 41
0.8732991879257511 0.07606189317225603 -0.37825566896467816 28 28 30
0.8732991879257511 0.07606189317225603 -0.37825566896467816 28 28 30
0.9276460172216258 0.0655133028906353 -0.37756087075335926 39 42 43
0.9276460172216258 0.0655133028906353 -0.37756087075335926 39 42 43
0.9550802697245535 -0.023124957670111353 -0.37529648927097903 166 172 170
0.9345677391914476 -0.054994314672799756 -0.38869169148575855 163 166 167
0.9601271452263871 -0.08199876826787537 -0.3722879840308166 30 31 38
0.9847356843158243 -0.14562624659786272 -0.370917944238939 33 36 30
0.8315956473014638 0.1089714973368107 -0.39339098295819847 188 188 190
0.9529222926319713 0.10922410932152052 -0.383337509756279 32 39 38
0.9621104278511572 0.10483897081564236 -0.3855190829834644 50 53 56
0.9564109314967264 0.10342520000088933 -0.38659438381395245 186 189 188
0.9564109314967264 0.10342520000088933 -0.38659438381395245 186 189 188
0.8317069546259108 0.08616190584330564 -0.3935879412570319 152 149 150
0.9446117868539337 0.09081848330827581 -0.3913573661708475 38 45 45
0.9513511077427611 0.09122013552229122 -0.3923469464937459 184 191 185
0.9814711387587324 0.08493970179411967 -0.387634477807292 187 190 189
0.9877648724985005 0.08240689485710999 -0.39217416086879753 61 69 70
0.9939816977204315 0.07262022913343451 -0.38401967872348397 178 184 182
0.9940888219175437 0.0726313366255664 -0.38416929535078514 181 184 183
0.999650900433769 0.07373989656123417 -0.3863753332123651 76 83 87
0.9864084434536673 0.06862023627031982 -0.38425626696285176 183 185 181
0.9863414067376858 0.06861377491261215 -0.38413603522227086 183 185 181
0.998293853760706 0.06895205000080777 -0.3839399559806371 178 183 181
0.994050848171364 0.06834015154504915 -0.38400692779158035 70 73 76
0.985070845897986 0.06487751958279815 -0.38151461643244833 75 75 77
0.8296755875687876 0.05186372249456606 -0.392111092847864 183 186 186
0.9621648055132027 0.04590396622274783 -0.39127951327672467 182 190 189
0.9996371500151907 0.0456674777441385 -0.38938182707841523 64 77 76
0.9633561487877368 0.030032968647108752 -0.3861161492116846 40 48 48
0.8323543530189224 0.028622260270804212 -0.3924124835244536 174 174 178
0.8311850345877946 0.026840510309451244 -0.39241161647562334 143 144 146
0.8332950659861559 0.022617724994975053 -0.391020858584019 169 172 175
0.9255208099160698 0.01333137897682169 -0.39124565517531756 164 170 168
0.9593478756468188 0.006808328093522539 -0.3835305245250917 25 31 29
0.9857871568765111 0.005515450102978365 -0.3829560746203836 175 183 180
0.83316899060438 0.009856700421265773 -0.3909133507103124 169 167 170
0.9896711824600678 0.0023894780794716888 -0.3877170232913523 52 51 58
0.9896711824600678 0.0023894780794716888 -0.3877170232913523 52 51 58
0.9995921206809012 0.0002865515372230169 -0.382725392440329 60 71 71
0.9758221998032152 -0.0059082525167835276 -0.387537714264392 40 46 46
0.9758221998032152 -0.0059082525167835276 -0.387537714264392 40 46 46
0.9106982596365992 -0.004973397350864845 -0.3893420546687152 20 26 22
0.9760234004158499 -0.011233284815980316 -0.3881961406817718 186 189 188
0.9543523249129058 -0.01520780645397077 -0.3892414055855942 31 39 40
0.9506523123223971 -0.014782285429161624 -0.3825084659527962 34 39 42
0.970248812293659 -0.016306437586562188 -0.3871224186825346 32 38 40
0.9500473127898095 -0.025757078502915916 -0.38121446331120434 30 36 35
0.9615412485111902 -0.03098605218227098 -0.3888767884680037 36 39 40
0.9615412485111902 -0.03098605218227098 -0.3888767884680037 36 39 40
0.9719357790484807 -0.03424960255878484 -0.38742636628473653 39 41 44
0.9534652989021309 -0.0342496057808222 -0.3875820387454254 31 34 35
0.9709851515664487 -0.036960458329077316 -0.37981591480585875 186 189 188
0.9424029251018251 -0.03723532794446811 -0.38601103060479597 24 27 26
0.9327429110173284 -0.050183297575455976 -0.3889186169316959 153 159 153
0.9327429110173284 -0.050183297575455976 -0.3889186169316959 153 159 153
0.9893422008457313 -0.06081558988503442 -0.38120481067998896 47 45 50
0.9927535356313313 -0.06226099146904822 -0.38135321208338985 185 188 187
0.9980212395968417 -0.06408723613189556 -0.38876684054559335 187 188 192
0.8672533200107042 -0.05727274953612792 -0.3910282759764788 158 159 155
0.8672533200107042 -0.05727274953612792 -0.3910282759764788 158 159 155
0.857724144555381 -0.06685079880810342 -0.39054229469790747 20 21 17
0.93660755759419 -0.09616270598757862 -0.374320429880683 25 31 29
1.000023346533633 0.07784329384215244 -0.3865457565129102 186 189 188
1.0005466249500123 0.07238770098666299 -0.38317551012159506 67 73 73
0.9881091203023364 0.06599298268600994 -0.38613109812936686 62 61 63
0.9966188914344983 0.06486400581919669 -0.3830990936804493 183 186 185
0.9916941674822107 0.027828169918059188 -0.3820024363027377 50 58 59
0.8468936655408215 0.01782952920596531 -0.39659514723577854 172 175 174
0.9878179908010377 0.013814957647184937 -0.3850451193654392 187 190 189
0.9895020948215406 0.005144156674717567 -0.38227662997778056 63 69 69
0.992052363195274 0.0018976387476753198 -0.38217045039779773 184 190 188
0.9659390028145136 -0.08416007389072165 -0.3822319155826789 43 43 47
0.8955841644566669 0.11163495565405815 -0.3978137464597559 43 32 25
0.9072961583381162 0.09555157678535348 -0.3941542378401495 29 35 35
0.9321448238106096 0.07413032560574319 -0.3946184004836168 181 187 185
0.9321448238106096 0.07413032560574319 -0.3946184004836168 181 187 185
1.0077907525664669 0.06295077753863149 -0.3923654578197131 70 78 81
1.0062141740976416 0.02803489098465273 -0.3867489816273505 66 77 77
0.9798137323151831 0.02096105795726013 -0.393992061557518 47 53 55
0.868403113935989 -0.06602001712330643 -0.3922621736473575 16 19 18
0.868403113935989 -0.06602001712330643 -0.3922621736473575 16 19 18
0.8632919688541282 0.10253744263653991 -0.38694652294211 21 27 25
0.9272168493001276 0.1034120617900945 -0.3837729002476467 28 34 32
0.9910727979472967 0.10380269646811541 -0.3821818928685899 55 63 60
0.9910727979472967 0.10380269646811541 -0.3821818928685899 55 63 60
0.953758472556249 0.09934597006494794 -0.3841857816410119 183 189 187
0.959181919728508 0.0996416330682357 -0.38529332285024254 47 51 51
0.9622614109069385 0.0953767104443707 -0.3822789847534551 180 179 179
0.9157514990969726 0.08289692540979873 -0.38561203348415196 182 188 188
0.9409253617081953 0.08306886153626655 -0.384053363041592 184 190 190
0.9475460968884429 0.08327888785938081 -0.3851876003866049 36 42 42
0.9475460968884429 0.08327888785938081 -0.3851876003866049 36 42 42
0.8605760449712131 0.07536275770965305 -0.38715274748555545 41 27 16
0.929664719205681 0.07514200474099149 -0.3832860885265702 39 39 35
0.929664719205681 0.07514200474099149 -0.3832860885265702 39 39 35
0.9334663189408489 0.07268892376868312 -0.38413006581131276 180 188 185
0.9925844498273273 0.0748701395269759 -0.38087476195875125 67 72 73
0.9925844498273273 0.0748701395269759 -0.38087476195875125 67 72 73
0.9338421421411818 0.06408654487512527 -0.38403685800049564 30 36 34
1.0006748650755748 0.06101406003436854 -0.38320204272245806 69 80 80
0.9094852585077461 0.05631796482985507 -0.38399554596106955 23 30 24
0.9094852585077461 0.05631796482985507 -0.38399554596106955 23 30 24
0.9403952219067576 0.056739214072015196 -0.38286869330234496 178 186 183
0.8840632850771799 0.050950208027940154 -0.3854510078670022 173 181 182
0.9417731377158817 0.05152897618338797 -0.38545352647284786 32 38 36
0.9417731377158817 0.05152897618338797 -0.38545352647284786 32 38 36
1.0040541763807251 0.051211652513721354 -0.3837848326680372 60 66 68
0.9507733481025031 0.04772969389343194 -0.38353192894606275 39 45 47
0.8889049486823818 0.04587579442056627 -0.38501098349187846 23 26 25
0.8911207459399217 0.04302481850014424 -0.3835238420204506 37 34 32
0.9022987873642536 0.042098458751087274 -0.3853731911865089 20 26 24
0.9923257682375791 0.041906160111579965 -0.382204512446321 55 64 63
0.9574698065277998 0.040579262492556764 -0.38287870849601147 46 46 50
0.9686010787452825 0.04057228486036537 -0.3810550567830896 54 62 63
0.8908302333236032 0.040237603822228775 -0.38527116423583846 169 177 176
0.9647032398540323 0.04057034523609323 -0.3839875232771722 184 190 190
0.9919439276500337 0.038631946033011226 -0.3806264209825371 57 65 64
0.9276529287828518 0.037576155115760554 -0.3830300787593499 22 28 26
0.9534085738505783 0.03661033375764354 -0.3825424515650422 183 189 187
0.9534085738505783 0.03661033375764354 -0.3825424515650422 183 189 187
0.8926425503129171 0.03614565287080734 -0.38601530895260827 169 180 178
0.9542502923004483 0.033171506308512407 -0.3829781146594281 47 41 43
0.9663524597354283 0.03273096542745122 -0.38395635128576466 176 184 181
0.9663524597354283 0.03273096542745122 -0.38395635128576466 176 184 181
0.9609934182939879 0.032457103954743036 -0.3817360894430349 43 45 44
0.9609934182939879 0.032457103954743036 -0.3817360894430349 43 45 44
0.9576949482622763 0.03244092638552817 -0.382759983837849 181 189 186
0.8906193462446391 0.03183524242420182 -0.38405948593272343 167 175 174
0.9524545035976646 0.030490160535100064 -0.384302339981006 32 40 39
0.8876586718007198 0.028830156011131598 -0.3848332840017289 27 31 26
1.0036059098324774 0.026583527876761437 -0.3826397302064139 66 74 73
0.9718814426959789 0.025561227293674906 -0.3818932208845336 182 190 188
0.947173080658605 0.02547354173905316 -0.38336667748441183 181 189 186
0.9095951264104543 0.025293888459275816 -0.3840181451802987 167 177 173
0.9095951264104543 0.025293888459275816 -0.3840181451802987 167 177 173
0.8840985884621008 0.025194249981310854 -0.3852388227796216 165 173 170
0.9467008897434439 0.020310543673023124 -0.382999945701961 31 38 37
