ply
format ascii 1.0
element vertex 679
property float x
property float y
property float z
property uchar red
property uchar green
property uchar blue
end_header
0.9327507508374875 0.0014587708833068579 -0.383927235624467 52 48 51
0.9421698557600997 -8.071694998177478e-05 -0.39501664202315917 174 185 181
0.9421698557600997 -8.071694998177478e-05 -0.39501664202315917 174 185 181
0.9277022146188955 -0.0018277313692852755 -0.3950033648831464 31 34 35
0.9216493779848592 -0.0017211659207532776 -0.38148130720059814 29 35 35
0.8364248084415359 -0.008680806809662983 -0.3938020961887066 113 113 115
0.9623213771451549 -0.01786656286093044 -0.3958193706038413 90 97 102
0.9036689457515487 -0.024141793050787726 -0.39405515125959767 163 171 168
0.8963920890740081 -0.023778941310722876 -0.39338342971514095 159 170 168
0.9017426901789137 -0.024410773216192526 -0.3961522818610725 38 41 42
0.9017426901789137 -0.024410773216192526 -0.3961522818610725 38 41 42
0.9017426901789137 -0.024410773216192526 -0.3961522818610725 38 41 42
0.9017426901789137 -0.024410773216192526 -0.3961522818610725 38 41 42
0.9012728286005423 -0.03290530337602575 -0.392799907050948 161 167 166
0.9012728286005423 -0.03290530337602575 -0.392799907050948 161 167 166
0.8365958770694797 -0.02928216597560659 -0.3931994592666091 116 118 119
0.8365958770694797 -0.02928216597560659 -0.3931994592666091 116 118 119
0.8365958770694797 -0.02928216597560659 -0.3931994592666091 116 118 119
0.8946845912624488 -0.03600360045841923 -0.3966974866040666 30 34 30
0.8355611761977477 -0.0340230063399511 -0.393942954646671 149 149 151
0.8347775079345401 -0.034406525613814604 -0.39357958191023246 110 112 113
0.9152173955770977 -0.044792616956930875 -0.39199787930625574 21 24 25
0.8348663211868322 -0.039870571665290115 -0.39384786973847774 105 103 105
0.9374216900789939 -0.051604310578602035 -0.39426710865824927 175 185 185
0.9374216900789939 -0.051604310578602035 -0.39426710865824927 175 185 185
0.9343154052881375 -0.05308710832397074 -0.3945437378398687 42 40 39
0.9874608936233772 -0.057389076008725295 -0.38152455717859296 64 67 73
0.9874608936233772 -0.057389076008725295 -0.38152455717859296 64 67 73
0.9874608936233772 -0.057389076008725295 -0.38152455717859296 64 67 73
0.8702565231549164 -0.057954442132786915 -0.3924520029739828 173 176 177
0.9293734799085528 -0.06325474981301824 -0.39190178395922903 41 38 41
0.9293734799085528 -0.06325474981301824 -0.39190178395922903 41 38 41
0.8760759590804583 -0.05972870771633112 -0.39339378700779726 35 31 35
0.8760759590804583 -0.05972870771633112 -0.39339378700779726 35 31 35
0.8679512725600392 -0.0609314851541577 -0.3926368702931965 167 170 169
0.8608871979614675 -0.06774508557507077 -0.3928917935800464 33 33 37
0.9160705501594789 -0.07731911968720594 -0.3935479463156661 163 166 165
0.9621794617435051 -0.08230579353825407 -0.3913831576623334 186 189 189
0.9004259646946756 -0.08077467258781584 -0.39254941186475084 24 26 32
0.8607550507866026 -0.0814926424127183 -0.39850532924458654 20 25 24
0.9104297695173337 -0.08627706675988096 -0.3910676109051365 23 26 25
0.906258096945528 -0.08866257402356639 -0.39338557887320197 30 32 38
0.9032258282043599 -0.08950183678288028 -0.3966397654856218 24 27 29
0.9075311335533527 -0.09273488573061842 -0.39382544561855864 167 170 169
1.0740304124163773 0.1398213899026642 -0.3800703977394736 137 138 137
1.079548870166181 0.1390066967910058 -0.3846411067060335 105 99 101
1.0825469519902735 0.13619903924869972 -0.38109122333377726 113 110 106
1.0745682431360826 0.13327297947088118 -0.3812720594853143 150 151 150
0.8327323617175127 0.10360254253947149 -0.3806534163420649 190 186 187
1.0944423723223313 0.13481507929912445 -0.3847740354631398 137 138 135
1.0815749732169426 0.11935975083149925 -0.3835606205425659 153 156 154
1.0815749732169426 0.11935975083149925 -0.3835606205425659 153 156 154
1.0837706438567172 0.11341172612677553 -0.3804389154576837 110 109 109
1.078715927756885 0.1114963421416228 -0.3827471800324896 107 107 109
1.0779665560071312 0.10467772702453307 -0.38801200335032693 125 124 126
1.084545876222834 0.1029344216957042 -0.38720443475392685 153 158 158
1.0840707862219936 0.1011541195420559 -0.3833488792261158 95 97 103
1.0958851752693544 0.10016755942865743 -0.3842480958890216 133 139 137
1.0958851752693544 0.10016755942865743 -0.3842480958890216 133 139 137
0.9468605595409529 0.08658387567250546 -0.37978575500537687 191 199 196
1.0929123182566032 0.09277285916211848 -0.38775805197506724 143 149 147
1.097255285956791 0.08789346934617169 -0.3840904180491027 72 72 76
1.097255285956791 0.08789346934617169 -0.3840904180491027 72 72 76
1.0987617316715999 0.08614494163175464 -0.38827606462927233 105 108 109
1.0803843029753046 0.07944534530634415 -0.38360353862619156 109 110 112
1.0851649486095232 0.07965486083091443 -0.3835974694221187 81 84 85
1.0831807330676153 0.07575250527900358 -0.38141970339991516 115 115 116
1.076124661473581 0.07356503570375214 -0.3784180641904438 93 94 98
1.076124661473581 0.07356503570375214 -0.3784180641904438 93 94 98
1.078947542866502 0.07283466161771562 -0.3820861210202812 131 132 135
1.0789186697488586 0.05508224588769894 -0.37842855849911994 148 154 154
1.0758625524241843 0.054236401581175805 -0.3844477351749437 101 103 104
1.096491113167212 0.052859257601955416 -0.3887378392515642 141 147 147
0.9636737420391054 0.04481451321263106 -0.37615718689046246 31 37 37
1.0962566764813184 0.049621994402102285 -0.38254229246905325 93 92 96
1.0799643144103408 0.04060362948603193 -0.38698287439631224 160 168 172
1.0863708265656329 0.03895054154222359 -0.38335300733164085 93 97 99
1.0863708265656329 0.03895054154222359 -0.38335300733164085 93 97 99
1.0812987437569304 0.034958984210168444 -0.3824135562770415 106 109 110
1.0876164505447798 0.034571060615799926 -0.38716285522193 151 164 162
1.0876164505447798 0.034571060615799926 -0.38716285522193 151 164 162
1.091745778134485 0.03236891011569028 -0.37981509390907886 132 138 138
1.091745778134485 0.03236891011569028 -0.37981509390907886 132 138 138
1.0851168006213892 0.030625605383665634 -0.3835474710112932 146 157 157
1.0919054516358966 0.026259181840778023 -0.37627866169797414 102 102 104
1.0982911111773104 0.025527116139791632 -0.38632152315801 133 141 138
1.079514539495678 0.024926768523566276 -0.38424804404891755 156 162 162
1.083612882077158 0.015795612859086792 -0.38462458948839845 107 107 108
1.0879572053539128 0.015589189096158413 -0.3822258971578479 139 145 144
0.9875060055294042 0.011802134535775817 -0.3718846651625106 179 185 183
1.0917831877302577 0.007833875133730439 -0.3848132233408819 141 149 148
1.0830848084001943 0.0033922573902751482 -0.3807674295824372 149 155 155
0.8455093859437077 -0.004601600280300115 -0.37505942121671 182 185 186
0.916567531770804 -0.03747528479882537 -0.38027279016419996 31 34 35
0.8335166906762972 -0.036454600342153094 -0.38240137197701324 177 180 183
0.99548679288442 -0.06320677470526696 -0.3711450558026263 55 61 63
0.9891791271531697 -0.0642830514915827 -0.37706551250294185 44 47 52
0.8652699407858759 0.10097172833826411 -0.38507659796989213 24 27 26
0.8652699407858759 0.10097172833826411 -0.38507659796989213 24 27 26
0.8548503527633055 0.08749159255330743 -0.38423817334922555 28 31 30
0.8891967935715696 0.09030160639302168 -0.38394258128406283 37 37 37
0.9388309968426775 0.07798607248668894 -0.38278952352230605 36 36 37
0.9345984467566941 0.07143820693829954 -0.38216726549679525 184 187 188
0.8986377003051973 0.06892802036555255 -0.38459933138538055 21 27 25
0.8578844478555543 0.05878539617828885 -0.3838594564082492 41 41 37
0.927668018116883 0.06240836111365798 -0.3824870694286446 182 188 188
0.9217885986501685 0.060713432624273776 -0.3830947315501219 29 32 33
1.000164044641853 0.05948450611832629 -0.37969167259488074 60 63 64
0.8646058546081469 0.03683425279162952 -0.38466883252723955 23 28 26
0.9553842048352287 0.03211613986661967 -0.38130655002710595 49 50 52
0.9553842048352287 0.03211613986661967 -0.38130655002710595 49 50 52
0.9894867150225556 0.008165656596937442 -0.3806621549239613 68 73 78
0.9216493779848592 -0.0017211659207532776 -0.38148130720059814 29 35 35
0.9216493779848592 -0.0017211659207532776 -0.38148130720059814 29 35 35
0.9666003890600046 -0.022976251216471854 -0.38009881586846145 178 184 184
0.9666003890600046 -0.022976251216471854 -0.38009881586846145 178 184 184
0.9645837405121681 -0.030167423855523404 -0.3796722375770858 180 188 187
0.9946655950471825 -0.05901986578407057 -0.37858596762108265 185 188 189
0.9219496800016321 -0.063801893007051 -0.38057174745772127 25 31 31
0.9548586840375137 -0.0809434004861757 -0.3795768484675459 175 185 185
0.928810316076179 -0.0894573426582568 -0.37835417664716314 21 29 26
1.003226763113895 0.07678428578937158 -0.3936127408314083 65 66 67
1.003226763113895 0.07678428578937158 -0.3936127408314083 65 66 67
1.011121315446403 0.05140992726088128 -0.3910371251581399 63 76 76
0.9944602741097464 0.004850431093789954 -0.39334360763492765 177 183 185
0.9339684106482469 0.004478408832169329 -0.3951920595820339 47 47 49
0.9339684106482469 0.004478408832169329 -0.3951920595820339 47 47 49
0.9295723478561495 0.004326863465869025 -0.39523383794360134 176 182 182
0.9295723478561495 0.004326863465869025 -0.39523383794360134 176 182 182
0.9295723478561495 0.004326863465869025 -0.39523383794360134 176 182 182
0.9946200970328439 0.0012874773613997244 -0.3928604707859963 74 74 81
0.9946200970328439 0.0012874773613997244 -0.3928604707859963 74 74 81
0.9300192464927586 0.001036296246851709 -0.394441607739782 46 46 50
0.9300192464927586 0.001036296246851709 -0.394441607739782 46 46 50
0.950519013082188 -0.006967990358556553 -0.39748419713485955 178 184 183
0.950519013082188 -0.006967990358556553 -0.39748419713485955 178 184 183
0.9020948056549425 -0.019991459002455615 -0.3967921232202236 162 171 170
0.9672821040900027 -0.024945604766421072 -0.3943150162271902 181 186 186
0.9377093200069896 -0.026141873683630232 -0.3986043063988963 29 35 33
0.9059370541465064 -0.03175562406849015 -0.39784235663305195 31 30 32
0.9059370541465064 -0.03175562406849015 -0.39784235663305195 31 30 32
0.866025740863804 -0.06575260560932476 -0.399674959041525 155 161 161
0.866025740863804 -0.06575260560932476 -0.399674959041525 155 161 161
0.8931130431967689 0.10269201184549688 -0.3747097945674275 186 185 185
0.8999628561101962 0.1023119952958192 -0.37482166665688554 186 186 182
0.9537235325046652 0.10255998242240118 -0.3727897000490022 55 51 51
0.9496325781669636 0.0949353432833088 -0.3726982499825727 181 184 183
0.9496325781669636 0.0949353432833088 -0.3726982499825727 181 184 183
0.9310597950969575 0.0613299555717539 -0.37392152183692867 40 44 47
0.9496017285005914 0.0344993335383537 -0.3717046221420373 177 185 182
0.9496017285005914 0.0344993335383537 -0.3717046221420373 177 185 182
0.9669489847717365 0.018822047057466103 -0.37007576172783474 66 72 76
0.9669489847717365 0.018822047057466103 -0.37007576172783474 66 72 76
0.9312955160040438 0.01231008039366127 -0.3720575432687775 174 182 180
0.9312955160040438 0.01231008039366127 -0.3720575432687775 174 182 180
0.9833346453844993 0.004221803581795397 -0.36979904014404846 78 85 86
0.9665409399194851 -0.041961738202193455 -0.369855850684475 46 52 54
0.9432319662761295 -0.06638534734234816 -0.37002817393139026 33 39 37
0.9628247443791337 -0.09280285617514308 -0.3675164997859329 43 45 51
0.9607682928436686 0.030674078776160924 -0.39582637298121554 38 49 49
0.9607682928436686 0.030674078776160924 -0.39582637298121554 38 49 49
0.986939722236909 0.020132115575749805 -0.39251195350690804 180 183 184
0.9979023592870452 0.008315005030465228 -0.39338192713346043 73 80 85
0.9667112595829953 -0.032315842650905875 -0.39441170853307495 47 52 52
0.9667112595829953 -0.032315842650905875 -0.39441170853307495 47 52 52
0.9436237730039055 -0.05773729186223155 -0.3952059444575958 179 185 185
0.9436237730039055 -0.05773729186223155 -0.3952059444575958 179 185 185
0.8831832817314669 0.08563835394657035 -0.37772985308922463 188 196 197
0.8831832817314669 0.08563835394657035 -0.37772985308922463 188 196 197
0.8781197175108374 0.08033120819361358 -0.37944950446811504 187 193 195
0.8781197175108374 0.08033120819361358 -0.37944950446811504 187 193 195
0.9207914049338748 0.06894309958933414 -0.3757750472475366 48 36 36
0.9207914049338748 0.06894309958933414 -0.3757750472475366 48 36 36
0.8672450137925399 0.06559094763790081 -0.3787636243765771 56 49 58
0.9206870205700836 0.008597581336431017 -0.375194903211118 49 44 46
0.9235032017234754 0.007663982082885049 -0.3748505869200141 189 195 195
0.9235032017234754 0.007663982082885049 -0.3748505869200141 189 195 195
0.9243746172651613 0.004740939621221832 -0.37488342945801434 50 48 53
0.9243746172651613 0.004740939621221832 -0.37488342945801434 50 48 53
0.9274283493589497 0.003811713219365383 -0.3747127771141648 187 193 191
0.9274283493589497 0.003811713219365383 -0.3747127771141648 187 193 191
0.9937293092500723 -0.00019905710155357896 -0.37155524170930704 46 57 57
0.9210769245139662 0.0015215491539923743 -0.3750607271928537 44 33 31
0.9210769245139662 0.0015215491539923743 -0.3750607271928537 44 33 31
0.9320075398384906 0.0005423214412561747 -0.37454191309215296 184 192 191
0.9320075398384906 0.0005423214412561747 -0.37454191309215296 184 192 191
0.91868095156031 -0.0010962749752351404 -0.37516398042319443 33 40 39
0.91868095156031 -0.0010962749752351404 -0.37516398042319443 33 40 39
0.928136108158884 -0.0020032524414025804 -0.37428524037659994 39 42 42
0.8882542058769892 -0.016496564103238437 -0.37565345627213453 33 33 33
0.9616905002718432 -0.08991947127036862 -0.371078830767743 178 182 181
0.9616905002718432 -0.08991947127036862 -0.371078830767743 178 182 181
0.9554176855328056 0.09143982067953155 -0.3875763762658159 44 49 53
0.9706553035229711 0.08981206968105385 -0.3866294469353396 61 61 61
0.861536444237328 0.06450392336266937 -0.3883210034181828 48 35 35
0.861536444237328 0.06450392336266937 -0.3883210034181828 48 35 35
0.8537859209150422 0.023057387056535213 -0.38504756606069407 34 39 39
0.860808635780881 0.009642899640341498 -0.38634648689959816 192 194 200
0.868570374832262 0.006568840864646179 -0.3858838526073929 187 192 197
0.8717297806768319 0.0053462767710643795 -0.385216932482222 48 48 55
0.8717297806768319 0.0053462767710643795 -0.385216932482222 48 48 55
0.899198503673394 -0.02839870385095062 -0.3828529222866142 186 191 192
0.899198503673394 -0.02839870385095062 -0.3828529222866142 186 191 192
0.9420757588624218 -0.03937131728644577 -0.38503035359521437 39 43 42
0.927303358053227 -0.052941331891015235 -0.3829913402537391 53 45 50
0.927303358053227 -0.052941331891015235 -0.3829913402537391 53 45 50
0.9992147981953404 -0.0669649913083337 -0.3796407720745595 65 64 71
0.8724964724440986 -0.05645019199623004 -0.3845208001784128 182 185 186
0.9466450512617088 -0.07013938222862884 -0.3793769702212768 41 47 49
0.8789794474235354 -0.0710697813782936 -0.38302290691705076 183 186 187
0.8789794474235354 -0.0710697813782936 -0.38302290691705076 183 186 187
0.8793711717272298 -0.07681092231835651 -0.3839436388566714 25 25 27
0.9052044631361598 -0.08129191774449704 -0.382346421384657 29 32 31
0.9052044631361598 -0.08129191774449704 -0.382346421384657 29 32 31
0.9047278366618975 -0.09743101757877405 -0.38250654036188586 31 31 33
0.9395295032862663 0.07670069256364666 -0.3874082547506419 47 47 51
0.9257628448308196 0.06446763790281666 -0.38434240789130636 196 202 204
0.9257628448308196 0.06446763790281666 -0.38434240789130636 196 202 204
0.8749936710211866 0.059150017674906866 -0.38802390116173735 30 33 34
0.9488859352277921 0.05463410265730131 -0.3850957097364735 40 49 50
0.8647007035739556 0.005901399203986663 -0.3864864905381475 49 48 57
0.8611562504599576 0.002951033227205767 -0.3866293516932077 192 195 198
0.861590069888398 -0.0012409850802662303 -0.3870862241300514 48 35 43
0.861590069888398 -0.0012409850802662303 -0.3870862241300514 48 35 43
0.8994650763019362 -0.021889033852451587 -0.3854721424179685 187 190 193
0.892776062794568 -0.022104192789509154 -0.38555632149032504 47 41 40
0.8916571153489669 -0.03362606201936338 -0.3848234080747322 183 187 189
0.8916571153489669 -0.03362606201936338 -0.3848234080747322 183 187 189
0.9101675063456118 -0.040103980061474975 -0.3834386270991134 182 188 188
0.8605698883236592 -0.05656828606382284 -0.3852790126950702 181 184 187
0.9239123215537134 -0.0635652215548815 -0.38372884558852843 44 34 38
0.9239123215537134 -0.0635652215548815 -0.38372884558852843 44 34 38
0.8692189283891661 -0.06133492693559604 -0.38532208067437 182 183 185
0.8692189283891661 -0.06133492693559604 -0.38532208067437 182 183 185
0.8582791258022952 -0.06057768022599621 -0.387404424100908 32 31 38
0.9619704432396294 -0.09472393544413533 -0.3814638949079037 55 46 52
0.8970310557994984 -0.08785949474630175 -0.384492278689343 34 33 35
0.916880898793714 -0.10137873592676648 -0.3812507893058883 28 34 32
0.8797426966342247 0.1116952088696778 -0.39190223168913796 36 36 38
0.8912552462745581 0.10726765942782433 -0.38976891546401976 39 39 41
0.9395295032885399 0.07670069256530633 -0.38740825475538376 47 47 51
0.8728916154999262 0.06488569428386454 -0.38772284694649395 197 200 205
0.8728916154999262 0.06488569428386454 -0.38772284694649395 197 200 205
0.8966138567726089 0.04157246189381468 -0.3870609214908319 194 198 201
0.8966138567726089 0.04157246189381468 -0.3870609214908319 194 198 201
0.9567325863659203 0.041146219441123996 -0.38608403220379667 196 202 203
0.9567325863659203 0.041146219441123996 -0.38608403220379667 196 202 203
0.896943551816685 0.03380849155345655 -0.38696517320290164 191 198 202
0.8924312165416213 0.029345596979167034 -0.3868643280290218 192 195 198
0.9037217691320439 0.029771934733502595 -0.3868073564345711 191 196 201
0.9390400539941793 0.013730314874659881 -0.3861272271575423 46 48 56
0.9325399938121877 0.006860207480025361 -0.3871111207469841 190 196 198
0.9239882278523845 0.0063803516343882375 -0.38585283925292907 49 43 48
0.906403189002828 -0.019419290714259657 -0.3867010555310654 31 35 36
0.906403189002828 -0.019419290714259657 -0.3867010555310654 31 35 36
0.9639308322352117 -0.0838864512301899 -0.3819507013878972 198 201 202
0.9679963274414093 0.10570157597846737 -0.3888042933855175 195 201 201
0.8893397682570973 0.08979751100492538 -0.38914183472597214 46 43 41
0.9073305285203063 0.08944975459967278 -0.38729191446361066 45 44 44
0.9073305285203063 0.08944975459967278 -0.38729191446361066 45 44 44
0.9597003785885124 0.0983731966490791 -0.3884485663969269 67 68 74
0.9597003785885124 0.0983731966490791 -0.3884485663969269 67 68 74
0.9559085955362694 0.09697191814682689 -0.38777638115143787 194 202 202
0.9660496441162232 0.09397066372574413 -0.38854940025080004 194 201 200
0.8910775659584332 0.04367108993099018 -0.38875099680722497 37 37 41
0.8910775659584332 0.04367108993099018 -0.38875099680722497 37 37 41
0.8910775659584332 0.04367108993099018 -0.38875099680722497 37 37 41
0.9439449729565721 0.04899441130710311 -0.3905517550357005 41 42 44
0.9439449729565721 0.04899441130710311 -0.3905517550357005 41 42 44
0.9535223657045083 0.04557343780584239 -0.38827728632704733 51 50 54
0.9595747991033542 0.029919736409221805 -0.38602222040763856 191 200 203
0.9672692385264235 0.030052217682115252 -0.3856883670201407 190 200 203
0.9672692385264235 0.030052217682115252 -0.3856883670201407 190 200 203
0.953703622107333 0.02787759038126001 -0.38645526785925616 40 47 48
0.9491846199563442 0.01779774445339811 -0.38708855402213377 46 51 54
0.9237426449958079 0.0024688435352369646 -0.3861835999045122 189 196 197
0.9248373901875802 -0.0007619417157754424 -0.3871108213791593 49 37 41
0.9248373901875802 -0.0007619417157754424 -0.3871108213791593 49 37 41
0.9319239211043403 -0.0010914777925744635 -0.3859322226303431 57 52 56
0.9277573616564141 -0.0017262966149193227 -0.38578650440903633 187 195 199
0.9354960467859897 -0.0018881346914649416 -0.38504354028543686 190 197 201
0.9354960467859897 -0.0018881346914649416 -0.38504354028543686 190 197 201
0.942204309843936 -0.008601343950968043 -0.3849781622841636 195 201 203
0.9108486252774377 -0.014194337895830952 -0.3853825831173999 189 195 197
0.9657755957987914 -0.02204785206168788 -0.38336395912077736 50 52 60
0.9657755957987914 -0.02204785206168788 -0.38336395912077736 50 52 60
0.8996600240483517 -0.03246998107147604 -0.3853442094840393 51 47 54
0.8996600240483517 -0.03246998107147604 -0.3853442094840393 51 47 54
0.9962382634334317 -0.06177111327156459 -0.3840298951936172 195 201 203
0.9940673555794106 -0.06497647701258485 -0.38367362626340035 194 200 199
0.9940673555794106 -0.06497647701258485 -0.38367362626340035 194 200 199
0.8667617599314695 -0.06640145955548835 -0.3847144312202356 28 31 32
0.9521866468645733 -0.08019305514427037 -0.38414617486912234 43 48 55
0.9614451314096855 -0.09082486284987537 -0.3820941930183633 194 202 203
0.9006429269477204 -0.08776430116983513 -0.3835433066385046 39 39 43
0.918935590132775 0.11058677884330265 -0.38822291800744213 41 41 45
0.9407899955044657 0.11010819736765 -0.3874750808111123 39 42 45
0.9056697536311664 0.09020487307432319 -0.38782779523312777 57 58 65
0.8852705455818178 0.08603143385586037 -0.38832461262633794 200 203 206
0.9680172105783215 0.09892972429775265 -0.38638447618472394 44 52 53
0.9603578818233837 0.0965620048709088 -0.3870780228806441 56 59 62
0.9110491229059997 0.08576409434674208 -0.3872178364662669 200 202 205
0.9110491229059997 0.08576409434674208 -0.3872178364662669 200 202 205
0.9741293397821299 0.08609470256968947 -0.3866374050704017 195 202 202
0.9812896456228912 0.08078565658560843 -0.38759706257798227 193 200 200
0.9354079919623265 0.06130518100413689 -0.3863075248211107 35 41 46
0.8854880594720401 0.05412160370615856 -0.385631975063201 34 37 38
1.0020820302766136 0.06977773908549394 -0.3860167050281011 76 76 80
1.0024978591455787 0.05858639847420007 -0.3864690016260628 74 77 80
0.981154488788255 0.04978671974730242 -0.38802449023930874 61 67 71
0.981154488788255 0.04978671974730242 -0.38802449023930874 61 67 71
0.9694007742894283 0.033697220815708584 -0.3839809792691167 54 57 56
0.8888083244978352 0.026056851887250432 -0.38585103916958785 46 43 47
0.8888083244978352 0.026056851887250432 -0.38585103916958785 46 43 47
0.9485982569066413 0.0229137171236645 -0.38585618102203617 196 203 207
0.9485982569066413 0.0229137171236645 -0.38585618102203617 196 203 207
1.0016885269502946 0.012266607286736758 -0.3863407073014888 70 78 79
0.9863771304838969 0.010223781821812078 -0.383559959283791 194 202 201
0.9863771304838969 0.010223781821812078 -0.383559959283791 194 202 201
0.9836356437347876 0.006316839943107791 -0.38453596495945924 61 67 69
0.9601562231561586 0.004051663925038636 -0.3850171156620032 34 44 44
0.9601562231561586 0.004051663925038636 -0.3850171156620032 34 44 44
0.9896395322113504 0.002149541672800889 -0.3828634461402734 80 78 77
0.9916585243507077 -0.0012207660611836453 -0.3818706156465924 195 203 204
0.9986508239587719 -0.0034873021315428776 -0.3818355424626979 67 78 78
0.9625813372710871 -0.021008366680933088 -0.38378852940562935 193 201 202
0.9580186702455267 -0.023141055653440504 -0.3857352211952503 196 202 204
0.9624446965167547 -0.02509381018106693 -0.3834955010463272 55 52 56
0.9624446965167547 -0.02509381018106693 -0.3834955010463272 55 52 56
0.9664635893341413 -0.025400917230028262 -0.3834023205973221 194 202 203
0.9664635893341413 -0.025400917230028262 -0.3834023205973221 194 202 203
0.9587773248769794 -0.026286754839426267 -0.3826784002884416 202 211 212
0.9937118418475754 -0.02727297511014821 -0.38325433215101995 53 64 64
0.9525541911000144 -0.028956177851995835 -0.3854069767495957 45 50 57
0.9548265628392035 -0.033006882814713714 -0.3839764933582762 188 199 199
0.9548265628392035 -0.033006882814713714 -0.3839764933582762 188 199 199
0.9548265628392035 -0.033006882814713714 -0.3839764933582762 188 199 199
0.9548265628392035 -0.033006882814713714 -0.3839764933582762 188 199 199
0.9520116161994879 -0.03653906146135746 -0.38459305077885425 49 56 60
0.9484887507243057 -0.040092230991448374 -0.38473701934145466 192 201 202
0.9484887507243057 -0.040092230991448374 -0.38473701934145466 192 201 202
0.9277922051156706 -0.053053274888058416 -0.3843149476809107 52 51 54
0.9277922051156706 -0.053053274888058416 -0.3843149476809107 52 51 54
0.9909290349121025 -0.05603292876341359 -0.38337628290532866 62 71 72
0.9909290349121025 -0.05603292876341359 -0.38337628290532866 62 71 72
0.9907010532192938 -0.06003854015036891 -0.3830627559152954 189 200 198
0.9272416121190185 -0.06451650492648682 -0.38370455069773973 180 187 187
0.9418730978714132 -0.07118110370369822 -0.3832635263830121 191 196 196
0.9161762155601124 -0.07115118713378846 -0.38267338426142367 181 187 189
0.9427598496333909 -0.07666163471166788 -0.38480284180241325 36 40 43
0.9427598496333909 -0.07666163471166788 -0.38480284180241325 36 40 43
0.9549272328193517 -0.08350768884569183 -0.38325068359671843 192 198 200
0.9549272328193517 -0.08350768884569183 -0.38325068359671843 192 198 200
0.9664215501689596 -0.08702773090644822 -0.3832754707572101 58 57 63
0.9683491163108111 -0.08923551595558632 -0.38255179592509003 43 48 53
0.9683491163108111 -0.08923551595558632 -0.38255179592509003 43 48 53
0.965629184278738 -0.0919293714362799 -0.38194502720969736 63 63 67
0.966324069799358 -0.09534388560482447 -0.38212984970641894 189 197 198
0.9812854894388022 -0.10096254437766991 -0.3821127431911053 46 55 56
0.8543328223737434 0.026906543169834114 -0.3896304446741989 23 28 26
0.88740631948751 0.022038535606755148 -0.3956323024247454 15 19 18
0.8860351107736122 -0.005557213688658191 -0.3889182683960609 12 18 16
0.8338523422635964 -0.013914799713857144 -0.3949041245589492 178 181 184
0.9645809150890507 -0.08882482542805023 -0.3797766295964651 38 36 38
0.9656668931933701 -0.089186111877289 -0.381556923479102 37 43 45
0.9305851461652194 -0.09067350682341187 -0.3856248459799759 12 19 13
0.8919494257626815 0.11337633731872596 -0.3936198376416148 26 29 30
0.9688287665781619 0.11078389281119923 -0.3899487696728091 172 174 173
0.9037770736523538 0.09811530046581841 -0.38932375328261626 167 170 169
0.9037770736523538 0.09811530046581841 -0.38932375328261626 167 170 169
0.8893159141687327 0.09409747033393917 -0.39040975301536346 25 27 24
0.944011337880819 0.08541954086199904 -0.38922566451302315 161 167 166
0.944011337880819 0.08541954086199904 -0.38922566451302315 161 167 166
0.8602769562982348 0.0646264062170494 -0.38901457949338714 162 170 171
0.8602769562982348 0.0646264062170494 -0.38901457949338714 162 170 171
0.9120028801335139 0.05279660117595278 -0.3894484024795464 145 158 157
0.9120028801335139 0.05279660117595278 -0.3894484024795464 145 158 157
0.8927527504322551 0.041680241350861666 -0.3896974430955741 141 157 157
0.9384186101853256 0.016656670605878783 -0.38484135083020277 37 43 45
0.879434494752897 -0.012039196830217206 -0.3892320366681136 12 18 16
0.8908454092579907 -0.016419533060852323 -0.387616245722059 12 18 18
0.8922250433382031 -0.022199833137456538 -0.3868397723281889 128 146 144
0.9011471909276499 -0.02703054789029727 -0.3861973456253036 127 144 141
0.9011471909276499 -0.02703054789029727 -0.3861973456253036 127 144 141
0.8997314182904002 -0.029422934508587184 -0.3866000441722643 23 22 24
0.8997314182904002 -0.029422934508587184 -0.3866000441722643 23 22 24
0.8894784442959197 -0.03357205761197682 -0.38726108692447364 16 22 23
0.8894784442959197 -0.03357205761197682 -0.38726108692447364 16 22 23
0.9370613588415212 -0.05458233125591275 -0.3854646473830639 131 144 141
0.9370613588415212 -0.05458233125591275 -0.3854646473830639 131 144 141
0.928275136998005 -0.057522287518444355 -0.385613385468914 30 29 30
0.928275136998005 -0.057522287518444355 -0.385613385468914 30 29 30
0.928275136998005 -0.057522287518444355 -0.385613385468914 30 29 30
0.928275136998005 -0.057522287518444355 -0.385613385468914 30 29 30
0.928275136998005 -0.057522287518444355 -0.385613385468914 30 29 30
0.92416328841955 -0.057844093088315326 -0.3860550107658898 136 144 142
0.8908095616987295 0.094481579518786 -0.38320444747648996 165 169 170
0.9147883950570186 0.08180754956821094 -0.38228457264933796 182 181 181
0.9209887311670722 0.06707339526002347 -0.3815076644402531 179 182 177
0.8314842686363216 0.043143058529248254 -0.3824418949642849 171 174 177
0.9521936353132541 0.03618909586695758 -0.3797404285759076 178 182 177
0.9521936353132541 0.03618909586695758 -0.3797404285759076 178 182 177
0.9534007398845997 0.032930945962750084 -0.3806768359834785 44 44 44
0.9534007398845997 0.032930945962750084 -0.3806768359834785 44 44 44
0.9601915788333835 0.032277956014731025 -0.3798016066589753 39 46 40
0.9601915788333835 0.032277956014731025 -0.3798016066589753 39 46 40
0.939969650889892 0.019993356054492754 -0.3804444161877744 176 181 179
0.9770304214404109 0.020146861332745198 -0.3795805492034224 181 182 178
0.9770304214404109 0.020146861332745198 -0.3795805492034224 181 182 178
0.9189247159875492 0.00887026632760063 -0.38129348031046323 28 34 33
0.9845303910787624 0.0023071118018332996 -0.37984435941778194 65 68 70
0.9811166577169492 -0.0009203042043465911 -0.37821882025823306 58 66 66
0.9811166577169492 -0.0009203042043465911 -0.37821882025823306 58 66 66
0.946047543161515 -0.010993338950051435 -0.3800830800438093 177 180 179
0.9632901972161367 -0.0187794994363431 -0.3786238472126088 46 45 47
0.976953705879942 -0.041857146161931806 -0.37873519959164137 175 181 181
0.976953705879942 -0.041857146161931806 -0.37873519959164137 175 181 181
0.9314192515695218 -0.051308359790889047 -0.3806465515189185 168 176 173
0.9808580065451015 -0.05659913322585068 -0.37845320151376766 48 56 57
0.9531504616856127 -0.09344581497999468 -0.37794580336618355 27 35 34
0.8970648913580055 0.10051607514988524 -0.3840434877023631 32 32 32
0.8970648913580055 0.10051607514988524 -0.3840434877023631 32 32 32
0.9577971946197541 0.10667496830320909 -0.3830318683908325 53 51 43
0.957771585268443 0.09862898841406309 -0.3822860648243264 47 50 51
0.9339465306231415 0.07586195299050778 -0.38293254420676526 187 195 196
0.9339465306231415 0.07586195299050778 -0.38293254420676526 187 195 196
0.9338582665013792 0.07284185873313297 -0.3841966286771348 189 195 195
0.9256217068297258 0.06319875052239192 -0.3818100939065282 188 194 194
0.9464454228177567 0.05116314461457591 -0.3816679729275205 148 161 156
0.9061104086200337 0.04750347154481806 -0.38340040597869335 30 31 30
0.9061104086200337 0.04750347154481806 -0.38340040597869335 30 31 30
0.8911671434470343 0.04289408318368175 -0.38232708890588407 38 30 23
0.9018542159122278 0.041768140986014425 -0.38292346187117887 23 29 27
0.8975336451991066 0.03511734816036119 -0.3811376585127448 36 37 38
0.9610224321444081 0.03564722660497073 -0.38092798466470107 28 37 38
0.8749211113989229 0.01625849918797556 -0.382240469653546 29 29 29
0.8706251588132886 0.007895762901312442 -0.3828344227954103 42 42 45
0.8706251588132886 0.007895762901312442 -0.3828344227954103 42 42 45
0.871438314588425 0.0046121182424211605 -0.38236549261795816 176 181 183
0.9256598795678591 0.005156596330538129 -0.3809012316454577 38 38 40
0.9256598795678591 0.005156596330538129 -0.3809012316454577 38 38 40
0.9214912363385208 0.005029197734154323 -0.381060154679854 175 181 181
0.9214912363385208 0.005029197734154323 -0.381060154679854 175 181 181
0.9214912363385208 0.005029197734154323 -0.381060154679854 175 181 181
0.9255109207479991 0.0009374452415113586 -0.3807300069046792 172 180 177
0.8712283996885667 -0.053150183471356964 -0.3805056911342669 166 166 168
0.990058952641311 -0.06121523898347659 -0.3769032742520772 170 175 176
0.990058952641311 -0.06121523898347659 -0.3769032742520772 170 175 176
0.8705391926543199 -0.05646193720035039 -0.38023750344546753 32 28 32
0.8705391926543199 -0.05646193720035039 -0.38023750344546753 32 28 32
0.859743460401789 -0.061407264983174586 -0.3818528064350376 168 167 169
0.859743460401789 -0.061407264983174586 -0.3818528064350376 168 167 169
0.903757563885928 -0.07771064340706064 -0.3788333496501523 23 26 25
0.903757563885928 -0.07771064340706064 -0.3788333496501523 23 26 25
0.887432223406784 -0.07683804557013033 -0.38034398439735295 24 24 25
0.8985190615530568 -0.08021733590371859 -0.3800000848103232 171 171 171
0.8997225041911892 -0.08448449773020172 -0.38084243616722085 26 29 30
0.895898568182273 -0.08447135677322587 -0.38155131801819175 25 25 25
0.8912760431213055 -0.09209273481338055 -0.3814145996273586 170 171 171
0.9532139449487459 0.09722759197905684 -0.3768600540830592 55 52 51
0.9532139449487459 0.09722759197905684 -0.3768600540830592 55 52 51
0.9340497127531336 0.0763487650549434 -0.37655957958988606 40 43 44
0.9276460172216258 0.0655133028906353 -0.37756087075335926 39 42 43
0.9276460172216258 0.0655133028906353 -0.37756087075335926 39 42 43
0.9761088631509143 0.015514958623750337 -0.37271828682580666 67 75 76
0.9302051257800447 0.012216860946201379 -0.3741381646086942 170 173 172
0.9763393564271834 0.008353458939801248 -0.37306139131880917 63 71 72
0.9550802697245535 -0.023124957670111353 -0.37529648927097903 166 172 170
0.9813778111622022 -0.05144573597109782 -0.3688146795249994 40 49 49
0.8315956473014638 0.1089714973368107 -0.39339098295819847 188 188 190
0.9845126506771863 0.08590987698046061 -0.3922819075629129 187 190 189
0.9877648724985005 0.08240689485710999 -0.39217416086879753 61 69 70
0.9877323648974121 0.06953285229684697 -0.38629300477798806 183 185 181
0.9877323648974121 0.06953285229684697 -0.38629300477798806 183 185 181
0.9095603342779162 0.04922628439965605 -0.39345998270665744 28 31 26
0.9621648055132027 0.04590396622274783 -0.39127951327672467 182 190 189
0.9662878684576949 0.03006032959016167 -0.3910073853688328 40 48 48
0.9857628671152322 0.00960376655156834 -0.38748832233809644 49 55 57
0.9617874235281533 0.006973217417991937 -0.38785431910309204 27 33 31
0.9896711824600678 0.0023894780794716888 -0.3877170232913523 52 51 58
0.9691191460791825 -0.022871906853521397 -0.38773203814713103 185 189 188
0.9691191460791825 -0.022871906853521397 -0.38773203814713103 185 189 188
0.966938356986247 -0.030296803880014055 -0.38736997037919957 186 189 188
0.9615412485111902 -0.03098605218227098 -0.3888767884680037 36 39 40
0.9615412485111902 -0.03098605218227098 -0.3888767884680037 36 39 40
0.9534652989021309 -0.0342496057808222 -0.3875820387454254 31 34 35
0.9668802861830772 -0.08290385090643944 -0.38709310001221486 186 189 192
0.8868615651802105 -0.0765594048784517 -0.39195285256796003 162 161 163
0.8868615651802105 -0.0765594048784517 -0.39195285256796003 162 161 163
1.0040399128115347 0.08151167817682904 -0.38729602586548767 75 78 81
1.0016124757958031 0.08086157061688852 -0.3839720473566008 75 78 81
1.000253410412589 0.07010817768093888 -0.3866077557565609 187 190 191
0.9919251613021066 0.06781029828425181 -0.38089202546519557 64 58 60
0.9888940187484359 0.0664613832245406 -0.38729664978994266 69 72 73
0.9888940187484359 0.0664613832245406 -0.38729664978994266 69 72 73
0.9878179908010377 0.013814957647184937 -0.3850451193654392 187 190 189
0.98797861000467 0.013812827411567174 -0.38528366709071943 187 190 189
0.9941464121872762 0.0024115595319175102 -0.3849833969059643 187 190 189
0.961603625015913 0.10453687136272179 -0.3846785110018921 43 41 40
0.9576426878682538 0.10061687194523421 -0.3849286916100689 54 52 51
0.9576426878682538 0.10061687194523421 -0.3849286916100689 54 52 51
0.953758472556249 0.09934597006494794 -0.3841857816410119 183 189 187
0.953758472556249 0.09934597006494794 -0.3841857816410119 183 189 187
0.9633202596081505 0.09589402205769547 -0.38403037091159437 185 188 187
0.9720660261560442 0.08850997973652427 -0.3832021409801368 183 189 188
0.9475460968884429 0.08327888785938081 -0.3851876003866049 36 42 42
0.9227838562027676 0.07771987576370731 -0.38996084400761194 27 33 31
0.9340500296401554 0.07600394898887 -0.3838900755488667 177 188 186
0.9340500296401554 0.07600394898887 -0.3838900755488667 177 188 186
0.9997345958986174 0.07215032894614423 -0.3821264181912399 66 78 80
0.9338421421411818 0.06408654487512527 -0.38403685800049564 30 36 34
1.0040541763807251 0.051211652513721354 -0.3837848326680372 60 66 68
0.9507733481025031 0.04772969389343194 -0.38353192894606275 39 45 47
0.9686010787452825 0.04057228486036537 -0.3810550567830896 54 62 63
0.9637177172925835 0.0404183202460773 -0.38244693155482806 184 190 190
0.9276529287828518 0.037576155115760554 -0.3830300787593499 22 28 26
0.8906193462446391 0.03183524242420182 -0.38405948593272343 167 175 174
0.8950188444377173 0.02927768610236202 -0.3849626045000773 25 29 24
0.9788028529061106 0.02586948593586615 -0.38256098043849524 53 64 62
0.9320944048307573 0.010433644189810935 -0.3853941520584019 165 171 169
0.9320944048307573 0.010433644189810935 -0.3853941520584019 165 171 169
0.9320944048307573 0.010433644189810935 -0.3853941520584019 165 171 169
0.946996981622589 -0.005354811023558604 -0.38224149738860363 32 38 36
0.9998625870847909 -0.012141117687468709 -0.3783995962361478 42 50 51
0.9716309496619064 -0.010901659909885642 -0.3813311918075337 185 191 189
0.9608933859088274 -0.017884155832219095 -0.38111621217034214 181 189 188
0.8331017271421546 -0.012245516166754629 -0.3839539989653569 168 168 170
0.9527451952682587 -0.029793964661179874 -0.3804270094306115 184 187 186
0.8330327687559521 -0.027840839246928668 -0.3851701380398942 94 89 92
0.8330327687559521 -0.027840839246928668 -0.3851701380398942 94 89 92
0.9781750123235919 -0.04211734446050934 -0.380792745861729 189 192 187
0.8314112894677324 -0.03149506589818977 -0.38510080095724686 94 88 92
0.9849572359528441 -0.049419297600447935 -0.38073830764176153 188 188 188
0.8311737569919136 -0.037997098769501636 -0.3849209496635419 85 81 82
0.8311737569919136 -0.037997098769501636 -0.3849209496635419 85 81 82
0.9318247689310623 -0.051676946306256195 -0.38214195306521054 160 163 162
0.9598291516939359 -0.055823866303040516 -0.3824494442139839 22 26 21
0.9927535356317478 -0.062260991469222295 -0.38135321208396944 185 188 187
0.8727875577821258 -0.04818255399521838 -0.3836791209935093 20 20 20
0.8727875577821258 -0.04818255399521838 -0.3836791209935093 20 20 20
0.9894678452736774 -0.06428414380540425 -0.38044759277637297 32 32 34
0.9293844355184637 -0.061132321503235755 -0.382104627648078 155 158 157
0.9477090641261331 -0.07384616574327771 -0.3826368216976632 183 183 183
0.9477090641261331 -0.07384616574327771 -0.3826368216976632 183 183 183
0.9514223178365638 -0.07767405047498148 -0.38307200856513934 27 31 34
0.9639293874069943 -0.08819393707370334 -0.37891348755051946 38 38 42
0.9642392418336219 -0.09165396414461215 -0.37869132141678075 183 189 191
0.8952980125542489 -0.08419325011214239 -0.3808363140939639 21 21 21
0.88472172330993 -0.09188883034884338 -0.37129592103933956 20 22 22
0.9591933167595071 0.09962600878884625 -0.3852773423217778 47 51 51
0.9859144283338701 0.06843495666885344 -0.38345088740224786 183 191 188
0.9965725212466434 0.06481376006045222 -0.3830086941664506 185 191 189
1.0002323527455805 0.06088268947277195 -0.3825936824061411 69 80 80
0.9789172564299977 0.05694311213084735 -0.38338974165568385 184 190 188
0.9593055632318132 0.006768047442636018 -0.3834165202751627 27 33 31
1.079361162542561 0.08672707112454225 -0.3874674967078613 119 123 122
0.9308069728589253 0.06766588066520109 -0.3846821973816243 33 39 39
0.9308069728589253 0.06766588066520109 -0.3846821973816243 33 39 39
0.9943221699265079 0.0728426311377374 -0.3845212294153862 178 184 182
1.003535776840722 -0.011303269589067699 -0.38208035064253854 59 67 66
0.9999939803496386 -0.03521548769111963 -0.3780416257362622 42 50 49
0.9819805498738255 -0.05705153611836767 -0.38045991938342383 32 40 41
0.9994011761040672 -0.0644525314097335 -0.3798919475029991 43 47 51
0.9994011761040672 -0.0644525314097335 -0.3798919475029991 43 47 51
1.0018696102676328 0.08021594400942098 -0.3845038879406876 67 75 76
1.0018696102676328 0.08021594400942098 -0.3845038879406876 67 75 76
0.9943475996358339 0.07281363850471918 -0.3845667116282203 178 184 182
0.9987762452443844 0.06921933294701645 -0.38465036841631695 179 185 183
0.9944587933067727 0.0685700232777191 -0.3846246126338233 70 73 76
0.9944587933067727 0.0685700232777191 -0.3846246126338233 70 73 76
0.9944587933067727 0.0685700232777191 -0.3846246126338233 70 73 76
0.9995921206809012 0.0002865515372230169 -0.382725392440329 60 71 71
0.9548988248520055 -0.09458180514512045 -0.38131562994649504 28 31 33
0.9439773615494274 0.11769197220885232 -0.3918790101756005 27 33 33
0.9716512319418915 0.11342776241100211 -0.38831050878589596 45 44 44
0.9575156576083923 0.10454165057386074 -0.3884737915414285 185 185 185
0.9575156576083923 0.10454165057386074 -0.3884737915414285 185 185 185
0.9588456578976445 0.10160372140291166 -0.38690467538776774 42 41 44
0.9588456578976445 0.10160372140291166 -0.38690467538776774 42 41 44
0.9809010942282391 0.08437753384120623 -0.38661130922010306 183 183 183
0.9876407369282618 0.07659023626481419 -0.3849686296971254 44 50 50
0.9246474734743744 0.06573019416238655 -0.3879396881783022 44 38 34
0.9246474734743744 0.06573019416238655 -0.3879396881783022 44 38 34
0.9527960099574827 0.04860344754789919 -0.3869040826417842 34 37 40
0.9598440142882941 0.04147615516639303 -0.3867368282858847 42 41 43
0.9553337402895691 0.03729563329784435 -0.3856560200401961 166 170 169
0.9553337402895691 0.03729563329784435 -0.3856560200401961 166 170 169
0.9560992192842986 0.03381881714579573 -0.3857340867979169 45 42 37
0.9560992192842986 0.03381881714579573 -0.3857340867979169 45 42 37
0.9595073867640387 0.03309564058715977 -0.38556986900789797 163 171 168
0.9742221338430168 0.0206910342344727 -0.38541036551611785 44 50 52
0.9941667331807338 0.01319486186684227 -0.3846200577501493 171 177 172
0.9598426078081806 0.006986614447171204 -0.38435627829261204 25 31 29
0.941948478130082 -0.005762440763571401 -0.38417448568194046 178 185 183
0.9426173452579917 -0.011055708329473045 -0.3855252150392228 28 31 30
0.948535362310237 -0.011015715800623467 -0.3849455106466101 164 170 168
0.9628961622960188 -0.01798915134791095 -0.38394695984843147 164 172 169
0.9593613549830475 -0.02325588187811081 -0.38325353904265186 164 172 170
0.9593613549830475 -0.02325588187811081 -0.38325353904265186 164 172 170
0.9283922064703019 -0.02455824141314244 -0.38294971708855013 18 24 22
0.9283922064703019 -0.02455824141314244 -0.38294971708855013 18 24 22
0.9929044781944364 -0.02443979166604391 -0.38169377509188407 46 55 54
0.9698411539775089 -0.033454118060169645 -0.38367128043272786 40 45 49
0.9737997121327582 -0.0371911286771204 -0.3839428861047218 170 177 174
0.9737997121327582 -0.0371911286771204 -0.3839428861047218 170 177 174
0.9481774783640724 -0.037304266576315276 -0.38398898273796916 164 172 171
0.9481774783640724 -0.037304266576315276 -0.38398898273796916 164 172 171
0.9906305179577257 -0.05713296273670986 -0.3823174359330961 177 183 183
0.986572720826785 -0.05732072252645427 -0.3828747893823201 54 54 60
0.986572720826785 -0.05732072252645427 -0.3828747893823201 54 54 60
0.986572720826785 -0.05732072252645427 -0.3828747893823201 54 54 60
0.9984810810161988 -0.06186437679554314 -0.38227617715295126 176 182 182
0.9984810810161988 -0.06186437679554314 -0.38227617715295126 176 182 182
0.9483674620713575 -0.07384257761125912 -0.3835614492581527 171 177 175
0.9483674620713575 -0.07384257761125912 -0.3835614492581527 171 177 175
0.9693533998944079 -0.07727485713015285 -0.38218164855422404 36 38 42
0.9641447906251739 -0.08125179921553381 -0.38235313885378436 181 187 187
0.9549456687883244 -0.08092671533952708 -0.3829977249480932 177 183 182
0.9549456687883244 -0.08092671533952708 -0.3829977249480932 177 183 182
0.9580679608945745 -0.08452134040688764 -0.3814441107596669 45 45 47
0.9580679608945745 -0.08452134040688764 -0.3814441107596669 45 45 47
0.907029028405693 0.07896290073395508 -0.3778393998269215 24 24 24
0.9430703179015012 0.07925938484094776 -0.3765397509965797 29 32 31
0.9430703179015012 0.07925938484094776 -0.3765397509965797 29 32 31
0.9853329007109822 0.06874357843250929 -0.3764951546586465 59 54 60
0.9887275811335587 0.06546319904267815 -0.3764855272590689 64 58 60
0.9475712372044517 0.045604281807684964 -0.37739236560535566 31 37 37
0.957747526475105 0.041838836081915215 -0.3765760365540754 34 37 37
0.9378191620778096 0.023696631287382204 -0.3763431693544097 30 36 34
0.9378191620778096 0.023696631287382204 -0.3763431693544097 30 36 34
0.9856162935290433 -0.05226663069941339 -0.37434072926374007 58 69 69
0.9511890852671094 -0.08696111054350242 -0.3745190705363701 169 175 175
0.8309798695879796 0.046445014593077066 -0.3796734111188779 167 168 164
0.8308369890127558 0.02709308763861621 -0.3796870105864098 105 106 100
0.8588618804015714 0.004372854212106137 -0.37775503468819266 162 170 169
0.8312858045193138 0.0021128585648886367 -0.3787486695307438 163 168 177
0.830965276607457 -0.0008406787275931434 -0.3779754633998093 94 97 95
0.830965276607457 -0.0008406787275931434 -0.3779754633998093 94 97 95
0.8312114939966169 -0.002797165360658939 -0.37883913222112026 161 172 172
0.8302814005239431 -0.00846869286098461 -0.378276427401911 160 170 173
0.8321448581189934 -0.027229131999453853 -0.3777787940744076 179 180 182
0.9913962097739987 -0.036271304767684184 -0.3654955415760821 55 61 61
0.9330197015180093 0.06357257215388422 -0.3814152026779801 30 36 34
0.9335250650860564 0.013157109083916069 -0.38094054369193525 175 178 177
0.9335250650860564 0.013157109083916069 -0.38094054369193525 175 178 177
0.9295042338828067 0.001578233041777707 -0.3805079472131532 44 44 48
0.9572651328790782 -0.022910294252102937 -0.379339286738468 174 181 179
0.9561330972185589 -0.08346428306534401 -0.37770270294559116 39 42 45
0.9561330972185589 -0.08346428306534401 -0.37770270294559116 39 42 45
0.9639698044009258 -0.09133958921952703 -0.37739105748318624 173 177 172
0.8312985788204617 0.10065944052403271 -0.38463812508435125 188 185 186
0.8319789881106138 0.10053146387136438 -0.38486002822262605 177 177 178
0.8314833714039803 0.09563500820228292 -0.38398552446031237 142 138 138
0.8314833714039803 0.09563500820228292 -0.38398552446031237 142 138 138
0.8627027957579098 0.07340458238253905 -0.38101295708539146 175 175 175
0.8669472678206641 0.06973773713744387 -0.3810101332650994 172 175 174
0.8595413521483107 0.0645335453247624 -0.38029485600804275 35 30 20
0.8595413521483107 0.0645335453247624 -0.38029485600804275 35 30 20
0.8706327255921817 0.06536978179735255 -0.38030868256290995 172 175 174
0.8555107453700953 0.05798600373820569 -0.38026705888451545 29 32 31
0.8701013631762757 0.007181242671470039 -0.37924574740099587 26 28 23
0.8701013631762757 0.007181242671470039 -0.37924574740099587 26 28 23
0.8708865515915216 0.003852604433848893 -0.3793251546611413 160 170 168
0.8708865515915216 0.003852604433848893 -0.3793251546611413 160 170 168
0.9349252202940188 -0.0028757260084249794 -0.37727104983348525 40 51 51
0.9383695271558437 -0.006460824740314856 -0.3770868834195971 172 175 176
0.898405462479998 -0.027424487050132215 -0.3778193152318303 151 159 156
0.898405462479998 -0.027424487050132215 -0.3778193152318303 151 159 156
0.8924118493626805 -0.028497923975560367 -0.37862109659363696 155 161 159
0.859210978547861 -0.0534609695821985 -0.37842118715038353 146 154 151
0.8655262975032144 -0.055235436262776307 -0.37882025670739994 149 155 153
0.8596290626998768 -0.05731958287698127 -0.37837211775937146 25 26 20
0.8593070482703242 -0.06134421758097004 -0.3782929948825299 145 153 150
0.8623160166878796 0.07114243970839672 -0.379198830042953 44 44 46
0.8671837345639434 0.06428351903642027 -0.37992002199592867 195 198 201
0.9166566230474705 0.06748932819804768 -0.3778678906786701 66 61 64
0.9175102453476317 0.0615478155803011 -0.37976002225053607 56 52 53
0.9175102453476317 0.0615478155803011 -0.37976002225053607 56 52 53
0.9528570174778968 0.06634686853199585 -0.37985780011641773 54 62 61
