ply
format ascii 1.0
element vertex 679
property float x
property float y
property float z
property uchar red
property uchar green
property uchar blue
end_header
0.892301177159348 -0.07335725368227561 -0.39206167789759155 174 177 178
0.9718154161125563 -0.07951655488639334 -0.3919271688666312 196 196 196
0.8614916255778854 -0.07463303713906268 -0.3928250385238998 28 31 30
0.8614916255778854 -0.07463303713906268 -0.3928250385238998 28 31 30
0.9044118709116121 -0.08429354073082686 -0.3926814419061944 28 31 32
0.936598684918651 -0.0883110204880932 -0.3912702063554505 21 24 23
0.9771864937435558 -0.09429618459855553 -0.3914430407486277 45 44 51
0.8997445958013179 -0.09202294408753968 -0.39246772069618213 175 181 181
0.896558994191622 -0.09556604023827067 -0.3920194820782519 34 33 37
0.8355628502816285 0.14001646597802975 -0.388062245880682 183 177 179
0.836353647273915 0.1237097173840518 -0.38933215633442575 139 133 137
0.836169701504743 0.11916852880136898 -0.3901280477403676 186 180 182
0.8363492460139914 0.11007163479968675 -0.3892067781608906 118 112 118
0.8363492460139914 0.11007163479968675 -0.3892067781608906 118 112 118
0.8383685764077909 0.11025071964546453 -0.38895457918449716 195 191 194
0.8811719566251719 0.11191330453662786 -0.3869393806230931 32 32 34
0.8717013367130909 0.07434786618180185 -0.38697880675273305 34 33 33
0.838346758301564 0.0480219167167855 -0.38677992955601603 190 190 190
0.9031369753021934 0.007788166692489389 -0.38958214687814197 20 26 24
1.0977342923406448 0.2910820130026402 -0.39792851605784285 34 33 33
1.0940493632025012 0.28609805349681905 -0.3996292023243356 38 39 33
1.0940493632025012 0.28609805349681905 -0.3996292023243356 38 39 33
1.0851298280229422 0.2235586696602426 -0.398707151018927 40 41 35
0.8911154049017426 -0.04200541712297149 -0.39037743338814934 21 25 20
0.8898333183252825 -0.04196181005060654 -0.38586691132365664 21 25 20
0.8982885492691354 0.09671886242960283 -0.37763142879620604 30 33 34
0.8982885492691354 0.09671886242960283 -0.37763142879620604 30 33 34
0.9680113698224739 0.10797171320826686 -0.37943459729080026 57 60 63
0.9654531867258277 0.10537389336667004 -0.38158389883807997 187 186 186
0.9604640201868446 0.10094723438918277 -0.37863289038668196 61 61 61
0.9070841855542455 0.08850752596666844 -0.3785276199131124 34 34 36
0.9260997550644883 0.06542576782423594 -0.3787275855702593 181 184 183
0.9260997550644883 0.06542576782423594 -0.3787275855702593 181 184 183
0.9421184681338801 0.05572254102383684 -0.38040129233387693 182 182 184
0.9304143626918512 0.03694913438076274 -0.3812393759197027 31 39 36
0.8902189292442337 0.029525793866258934 -0.3753816457589645 77 73 66
0.835374942666921 0.0930400416656338 -0.39448082042384774 195 198 199
0.8355314393579654 0.08220877751526995 -0.38054543262957746 139 138 145
0.8354287080455345 0.08009743284677322 -0.38033412983588727 200 199 201
0.8367406323053016 0.08228654999053076 -0.3893267891344144 190 190 192
0.8565809048939835 -0.034159310981323396 -0.3736156361009569 28 32 27
0.8704625219134056 0.07288731693330303 -0.39592622994706184 42 36 38
0.8347917513884632 0.06454029583972301 -0.3886114004477329 192 195 198
0.8365297226678371 0.061134002738027195 -0.38685078464635275 187 190 191
0.8365297226678371 0.061134002738027195 -0.38685078464635275 187 190 191
0.8784893150514731 0.06227088712074338 -0.38922852306832834 31 31 31
0.8370588362822964 0.05001944205099894 -0.38884612603818997 139 138 140
0.9477798565384356 0.05219924198196748 -0.3800114598121554 192 200 199
0.9513704901260448 0.04865112857601679 -0.37979288105816333 38 41 44
0.8965232500173534 0.044116868929904206 -0.3871854309147319 39 35 36
0.8365155305909139 0.032452139893924925 -0.3887513018943576 136 136 140
0.8930508242584277 0.032294117624175736 -0.3840624787606579 133 129 122
0.8383904601493215 0.03058772652143143 -0.3890331546075091 197 197 199
0.8591223823474498 0.026692299682733657 -0.3880766859027325 33 39 39
0.9473654456065865 0.016176861444575023 -0.4044529912545061 176 184 183
0.8835847003289847 -0.004766320628180124 -0.3858461211094954 174 180 180
0.9152429287378037 -0.009775011118127789 -0.38800683576474615 177 180 181
0.9107311861471031 -0.014930457411468754 -0.38912363508234726 30 30 30
0.9107311861471031 -0.014930457411468754 -0.38912363508234726 30 30 30
0.9043440758125457 -0.017587826104765603 -0.3891406948098616 176 187 187
0.8381184379175852 -0.018208755626210726 -0.3879191695123363 177 180 181
0.8393595870313547 -0.019293013812533247 -0.38740498709045446 125 124 128
0.8385117511042263 -0.021896618670243617 -0.3890189781755134 109 112 115
1.0189055977222572 -0.03396607412111436 -0.4058105747386836 57 65 66
0.8995553069385391 -0.03357750016410268 -0.4045974138216928 30 34 29
0.8385340751260172 -0.03276999858882995 -0.38865966636786087 183 188 193
0.8842577562652367 -0.04124585426405537 -0.386686859276985 176 176 176
0.8367354250271262 0.10198013867417915 -0.38990776286508627 187 187 189
0.8365831811845942 0.09010037363924187 -0.3896123325408654 160 156 157
0.9089414967481482 0.09367499953387501 -0.3899334332530981 48 55 59
0.8369038914205487 0.07936593538010403 -0.38968895963799666 152 148 151
0.9139810626121478 0.0831028914163791 -0.3892955593795972 32 32 36
0.9761561734998546 0.08411212428685835 -0.38946845862513146 35 38 39
0.8760320655318042 0.07138903575208452 -0.3891189611091705 28 28 24
0.8479269611196618 0.06908464164012793 -0.39186626175325834 192 192 192
0.8385947207335859 0.02945944271363671 -0.3891465316991825 131 127 128
0.8786197131546685 0.014475628402713325 -0.3905358290012386 25 28 29
0.8375453948644159 0.01130066746062001 -0.3888790847391337 186 186 188
0.8384244136766255 0.009269097367107059 -0.38977089313480384 112 108 109
0.8370704594520542 -0.002456357039567366 -0.38893634948489314 118 118 122
0.8370704594520542 -0.002456357039567366 -0.38893634948489314 118 118 122
0.8379196209705398 -0.020130841164937446 -0.3890779806646843 187 187 189
0.8379196209705398 -0.020130841164937446 -0.3890779806646843 187 187 189
0.8384696691625945 -0.021916940945134997 -0.38888633259877736 113 115 121
0.8389180899562569 -0.024216817380109164 -0.3886873139622657 184 187 190
0.9021920387135849 -0.029687880331646523 -0.3894756678650168 177 190 187
0.9021920387135849 -0.029687880331646523 -0.3894756678650168 177 190 187
0.8378598666160185 -0.03175926113411637 -0.3890128635636758 103 103 105
0.8378074665600987 -0.037048108308372456 -0.3884639190739484 84 80 81
0.8784225791018819 -0.05236225457608864 -0.3894645094186022 171 182 182
0.8821243267922068 -0.06385245455579996 -0.3894379413033617 27 30 29
0.911885764768561 -0.07679706897389807 -0.38970161429828115 25 28 29
0.911885764768561 -0.07679706897389807 -0.38970161429828115 25 28 29
1.005449343885125 0.07463552392845915 -0.39056567854785 48 54 52
0.998696543898191 0.004435109394073323 -0.3916663126779686 179 185 183
0.9737431698154989 -0.014191674971070824 -0.3906996368623096 39 50 50
0.9349114778586308 -0.048993259547189395 -0.39317125207530645 40 37 32
0.8980323199678041 0.11411531628528747 -0.4020206773873466 27 33 33
0.9488034335737859 0.11787633609633782 -0.40027511919534087 35 41 43
0.9674224875539771 0.10872331543810564 -0.40438418643521623 185 185 185
0.9674224875539771 0.10872331543810564 -0.40438418643521623 185 185 185
0.9006016556229155 0.09998307713227425 -0.40253065123552295 179 183 178
0.9793352389076962 0.10824529972968717 -0.4051974648656106 48 56 55
0.9663762397931146 0.10526251341169182 -0.4049143988858917 179 185 185
0.915868766773278 0.09679454367811001 -0.4029856985962493 36 39 38
0.8868201283565113 0.08618173031874365 -0.4012000180631227 178 184 182
0.9905539163383114 0.09350303980350519 -0.4035541159689248 57 63 61
0.9372177531868936 0.08064303388222654 -0.403455768325639 175 183 180
0.9457330681632701 0.08098053315118146 -0.4036167442384442 175 181 179
0.9457330681632701 0.08098053315118146 -0.4036167442384442 175 181 179
1.0125176187430265 0.08222529124103158 -0.4058794136750335 179 182 183
0.9338761290372861 0.07547879900661812 -0.4032855514359969 47 44 41
0.9338761290372861 0.07547879900661812 -0.4032855514359969 47 44 41
0.9328470445763887 0.07208657696398071 -0.403178479775874 176 184 183
0.9328470445763887 0.07208657696398071 -0.403178479775874 176 184 183
1.0001953394472793 0.07385295093980496 -0.40571880114899883 178 184 182
1.0127056324108352 0.07432171264242363 -0.4058274734377824 180 183 184
0.9334939731313527 0.06848019923789433 -0.4022348763702475 51 50 52
0.9334939731313527 0.06848019923789433 -0.4022348763702475 51 50 52
1.0085500636858036 0.0737069795591699 -0.4061106824371053 79 78 85
1.0085500636858036 0.0737069795591699 -0.4061106824371053 79 78 85
1.0085500636858036 0.0737069795591699 -0.4061106824371053 79 78 85
0.945825979682584 0.06853710913305801 -0.40431555265397096 37 43 45
0.937806917498802 0.0678330524610314 -0.4037065582545054 177 183 181
0.9538693526510813 0.06142630623584814 -0.4060325704004203 178 186 185
0.9199206039174398 0.05464913831538788 -0.4025347421222893 178 184 182
0.9858296637749036 0.05619283781779584 -0.4045669099190314 178 184 184
0.8984712714435231 0.048842342138021085 -0.4014566949940533 29 32 33
0.9049224199051179 0.04712398885012995 -0.4021061356964865 176 184 183
0.9049224199051179 0.04712398885012995 -0.4021061356964865 176 184 183
0.901474070508763 0.0461928186660372 -0.4022856498051093 40 31 24
0.9127768279940821 0.04514686536100112 -0.403551205517148 26 34 33
0.9005334264224829 0.04313662597014741 -0.4020751328274206 173 184 182
0.9024149313108243 0.03876764958813272 -0.4026182235352308 176 184 183
0.9669209546974571 0.0401992482584372 -0.40436108654886366 173 184 182
0.9669209546974571 0.0401992482584372 -0.40436108654886366 173 184 182
0.9047908165369886 0.03520510947754026 -0.4019260389452137 40 36 29
0.9008693272365091 0.03440838104306493 -0.4021752375105118 173 186 183
0.9792719968929573 0.03626988060511552 -0.4043024546920945 175 183 182
0.9792719968929573 0.03626988060511552 -0.4043024546920945 175 183 182
0.9710802988017329 0.0359723712665561 -0.4041269569251275 174 182 181
0.9829696762799749 0.032694376093580745 -0.40504998478027876 61 69 70
0.9280269467629171 0.02862576095944596 -0.40549910253591875 27 35 32
0.9912287873636818 0.029039669728616706 -0.40126080033504 60 71 69
0.9869934209479323 0.029055225761700085 -0.4055251201171914 178 184 182
0.9925335692057576 0.0235779148279221 -0.4036798007585464 181 184 185
0.9969790681233639 0.01998674618669022 -0.40444672496875267 66 73 77
0.9313286886556561 0.011215786350635639 -0.4033168187669579 35 38 39
1.0001689573468864 0.008318448743671658 -0.40474404223941174 178 184 186
1.00458186856007 0.007948308503399767 -0.40500877537970165 82 87 92
0.9340054986152142 0.007116391838302899 -0.4032958718535564 176 182 182
0.9340054986152142 0.007116391838302899 -0.4032958718535564 176 182 182
0.9340054986152142 0.007116391838302899 -0.4032958718535564 176 182 182
0.9416280646072953 0.006349853541498351 -0.4031864232597423 173 181 180
0.9416280646072953 0.006349853541498351 -0.4031864232597423 173 181 180
0.9346119175756387 0.0038400512045851983 -0.4027275716362638 46 46 50
0.9346119175756387 0.0038400512045851983 -0.4027275716362638 46 46 50
0.9467765218569827 0.0028047626954166766 -0.4036899152841946 177 183 181
0.9328022484602695 0.0009035974733304522 -0.4045239804681629 30 36 36
0.9328022484602695 0.0009035974733304522 -0.4045239804681629 30 36 36
0.9440282227569521 9.360558911464451e-05 -0.4065831325818979 40 46 46
0.9505377034505893 -0.000283018609832501 -0.40488001573430504 46 53 57
0.9586370139951805 -0.005663584846112374 -0.40440742235192073 54 48 50
0.9756780368159796 -0.020560844341271294 -0.40411609530273107 51 53 59
0.9019479654611786 -0.02154664016771497 -0.4035890661659478 161 169 168
0.9064491486130146 -0.02191465130166516 -0.40398842896562803 37 40 43
0.9064491486130146 -0.02191465130166516 -0.40398842896562803 37 40 43
0.9642997106326994 -0.024733289913416015 -0.4038786526658487 44 50 52
0.9106022765220706 -0.02518371719940854 -0.4045165457314535 162 170 167
0.9106022765220706 -0.02518371719940854 -0.4045165457314535 162 170 167
0.9677550611587149 -0.029057142542461837 -0.40429121258423245 175 183 182
0.8410777442881312 -0.02500820662737159 -0.4024625351766162 169 174 179
0.964927374214727 -0.03282022762691044 -0.40513208730489897 46 52 54
0.9509882251050328 -0.046120259890958915 -0.4048957144417151 41 40 47
0.8820232123685962 -0.05808861676728112 -0.40434756596144134 33 27 29
0.8820232123685962 -0.05808861676728112 -0.40434756596144134 33 27 29
0.8734243477850194 -0.05952050619757471 -0.4025064654971794 156 162 162
0.9031875178315715 -0.08278736670107956 -0.4038653497372256 151 157 157
0.8975409579475525 0.10943876360275442 -0.39307664995503877 40 31 24
0.9073235275767584 0.10883598862795532 -0.3921263683088876 185 191 191
0.9073235275767584 0.10883598862795532 -0.3921263683088876 185 191 191
0.9025192828109962 0.10308474331365675 -0.3921040829320118 32 35 34
0.9025192828109962 0.10308474331365675 -0.3921040829320118 32 35 34
0.9982431583515633 0.1073646906731727 -0.39318043697740396 53 64 62
1.0032857642227293 0.10938316907471729 -0.4012357376790965 52 60 57
0.9631713399143467 0.10341462873062791 -0.3929847322744904 50 50 52
0.9631713399143467 0.10341462873062791 -0.3929847322744904 50 50 52
0.9595266820160511 0.10207823410564848 -0.3926288638585588 183 191 188
1.1197378571672143 0.11551408355857339 -0.4400726042111119 155 161 161
0.911414135787031 0.09430840400123132 -0.3922584167722217 36 36 36
0.8894859454481704 0.09002200024641356 -0.3918998895114866 179 190 188
0.9403603173635094 0.08484995667300754 -0.3794346094708544 44 44 44
1.2435423619482147 0.13531709127071992 -0.5877169350520893 194 194 194
0.8352310749901443 0.08135933459321235 -0.39238743694827044 184 192 193
0.9276155370979454 0.08024670081354038 -0.3952111125874163 30 36 36
0.9320361012674756 0.07865602638662098 -0.39256368736394254 181 189 186
0.9359061287380074 0.07789915269588003 -0.3919880107592247 44 43 43
0.8361182101651098 0.07369018653816031 -0.39202255085440924 127 130 133
1.0033166239153128 0.07967917727605811 -0.39259441928622163 184 190 188
0.9394087170335328 0.07541560557256294 -0.3924333414924832 181 189 186
0.9284776811582597 0.073486400142736 -0.3916588664114811 45 40 36
0.9027796841752417 0.0721899198186105 -0.3930394588563941 24 27 26
0.8692228469909107 0.06954495520356488 -0.39239726608961234 177 185 184
1.0183453897245784 0.0711888981530838 -0.3700421262321298 193 196 195
0.8732925650401763 0.0695185356841314 -0.3929011660640905 39 35 36
0.8376933817017425 0.06522036818009071 -0.392840413273531 143 143 145
0.9324124298368862 0.06622591057002909 -0.39240945781126185 177 185 182
0.9324124298368862 0.06622591057002909 -0.39240945781126185 177 185 182
0.9264618250265715 0.06435142278666729 -0.392572547903518 31 34 35
0.8611927930417064 0.06023508963339267 -0.3882169405581345 43 46 47
1.0062986446978335 0.06430652602398053 -0.3924878505313296 72 79 83
0.9214909238454922 0.05911721930183591 -0.3920990389120464 174 185 183
0.895396307678598 0.04826528284171446 -0.3932021406473001 25 28 27
0.900951510768346 0.042271737602787185 -0.3924698824188729 34 37 40
0.9603302433787808 0.04024522308594031 -0.3845086413389451 38 41 42
0.904700961155828 0.037899425593833753 -0.39227473580946326 39 39 41
0.972116751722694 0.03570163773348586 -0.39250694615623294 182 190 189
0.972116751722694 0.03570163773348586 -0.39250694615623294 182 190 189
0.9643043741334613 0.035407443697853654 -0.3924692446146389 181 189 188
0.9116469264426603 0.035036216454530054 -0.4022212484971192 175 183 182
0.975096960520859 0.032204617393510555 -0.3921527598080155 57 63 65
0.837994502000445 0.02905725992727278 -0.39213651135249233 175 181 179
1.0120132734889222 0.02750540249121339 -0.39205538683452024 71 76 81
1.0120132734889222 0.02750540249121339 -0.39205538683452024 71 76 81
0.9854622964091417 0.02351008683795192 -0.3929068868032217 185 191 191
0.9854622964091417 0.02351008683795192 -0.3929068868032217 185 191 191
0.947713794396552 0.02296230337680591 -0.3926911687390975 181 187 187
0.9261204943306381 0.018935213843560474 -0.39317799905653245 30 36 38
0.9959077868715382 0.008449728404287479 -0.3923443049486291 66 68 74
0.8740986419232205 0.01120267909131702 -0.39234171428716036 164 175 173
0.8740986419232205 0.01120267909131702 -0.39234171428716036 164 175 173
0.9929779070207899 0.0056422956269650175 -0.39303828041893873 52 52 56
0.9929779070207899 0.0056422956269650175 -0.39303828041893873 52 52 56
0.9988261605026296 0.0053255752787865224 -0.39273156171919127 185 191 189
1.0052612430503913 0.0032211363709154215 -0.3919429467643808 57 65 66
0.8781369168613088 0.006629200039199632 -0.39245953548688584 163 171 170
0.9905089878711997 0.0024115522163394637 -0.3929578792333902 49 56 60
0.9905089878711997 0.0024115522163394637 -0.3929578792333902 49 56 60
0.9905089878711997 0.0024115522163394637 -0.3929578792333902 49 56 60
0.9275762579461716 0.001598147353231602 -0.3934999389436968 31 34 35
0.8360841168774664 0.004479868120756516 -0.39255611491763054 172 178 178
1.0094026976080746 -0.010109638860612013 -0.39407649139172185 47 53 55
0.9544476812874033 -0.00833157393356263 -0.39333142395643117 186 189 190
0.8394731977241894 -0.006018623019660134 -0.39238621640247145 109 108 110
0.9731263508742949 -0.019349714068076913 -0.3930467036338188 185 191 191
0.9731263508742949 -0.019349714068076913 -0.3930467036338188 185 191 191
0.8979748608183752 -0.020127099917993392 -0.39309725144969965 160 171 169
0.8978417226897278 -0.02881729605249065 -0.3927460271898913 160 166 164
0.8978417226897278 -0.02881729605249065 -0.3927460271898913 160 166 164
0.9794879242010162 -0.03425069514578215 -0.39259019232889053 187 190 189
0.9863356346134952 -0.03932791850925664 -0.39321927095272996 192 192 192
0.9863356346134952 -0.03932791850925664 -0.39321927095272996 192 192 192
0.8389032397310119 -0.03328890948482761 -0.39248488990284464 109 109 109
0.8389032397310119 -0.03328890948482761 -0.39248488990284464 109 109 109
0.9925788078088668 -0.049994343232114984 -0.3924472138843309 183 189 189
0.9398491435023457 -0.04941552754795598 -0.39387764083679105 172 175 174
0.997231292759306 -0.05397578220524478 -0.39274244574951567 187 190 189
0.9308671182008204 -0.05167539778754979 -0.3934704992045927 163 167 162
0.9969105082140662 -0.05770751355238697 -0.3928731305104142 49 47 58
0.9928694278787438 -0.05832383259042342 -0.39283019650693085 184 191 185
0.9928694278787438 -0.05832383259042342 -0.39283019650693085 184 191 185
1.0000618972626172 -0.05888359999591722 -0.3924102558031493 185 188 191
1.0000618972626172 -0.05888359999591722 -0.3924102558031493 185 188 191
0.9365912487739841 -0.05510036661826711 -0.39274875932046055 176 182 180
0.9897373503016659 -0.06179421523979826 -0.3926499554836857 41 40 47
0.9437799638091394 -0.060738206016013804 -0.3929444117167594 30 36 36
0.9714652298590906 -0.07842950463081327 -0.393127251563798 187 190 189
0.9656239465063574 -0.08198744578620698 -0.3926386583222415 47 46 46
0.9656239465063574 -0.08198744578620698 -0.3926386583222415 47 46 46
0.9731685841587029 -0.08689315295904988 -0.393214776952925 38 37 46
0.9737992639194561 -0.08986111635943775 -0.3928943755971548 184 192 193
0.9737992639194561 -0.08986111635943775 -0.3928943755971548 184 192 193
0.7797872221035452 0.08835678359216705 -0.40483387662496384 54 54 54
0.8376520776643493 0.08313743729068378 -0.39903750681018174 180 182 188
0.8387054206121541 0.07053875749297578 -0.39980681250740346 124 127 128
0.8703078222650275 0.06732581987225791 -0.40062996933625505 178 181 182
0.8395375905629919 0.057611534852699146 -0.399379003034029 112 112 112
0.838458043196119 0.05184260537500983 -0.39956764556884966 114 114 116
0.838458043196119 0.05184260537500983 -0.39956764556884966 114 114 116
0.8380182351066725 0.03376588115848186 -0.39994583176710097 121 117 120
0.838479499218428 0.030346905375597803 -0.39974656103705863 100 100 102
0.8627005594305681 0.028785324075252784 -0.4032655479983915 22 28 26
0.839377504080928 0.015704422985271915 -0.4001019885700721 176 184 185
0.8690593105496495 0.0068296896197081475 -0.40180598412314206 171 179 180
0.9006255848684045 -0.02791803913547252 -0.4013105872466287 158 169 167
0.8692178379264311 -0.05779292159093214 -0.38485818531789223 37 36 40
0.9416702912492579 0.11429673018582627 -0.38581145640533093 39 44 49
0.958662571149277 0.1070687421586042 -0.38231514350544094 52 52 54
0.9432323840443745 0.08454611749566118 -0.3851932547570189 184 190 188
0.8758956954220204 0.07691022863124027 -0.38525791265011744 34 37 38
0.9901637076748594 0.07308661130602459 -0.38289792747316553 67 73 75
0.9907806405460391 0.06658962279798543 -0.383844675435316 188 191 190
0.9231156390796622 0.06340012616625673 -0.38445607076742955 30 33 34
0.9129056852079535 0.05301792672444901 -0.38568862405495735 190 196 198
0.9058200573041484 0.04396672083213548 -0.38572593316849324 29 32 33
0.8991334346449574 0.03834381674325575 -0.38545040113683254 191 197 199
0.956933884062535 0.0358867639473225 -0.3852083531803778 45 33 33
0.956933884062535 0.0358867639473225 -0.3852083531803778 45 33 33
0.8924607989248213 0.033030542486140096 -0.38384961341169627 88 69 67
0.8924607989248213 0.033030542486140096 -0.38384961341169627 88 69 67
0.8988220149868568 0.031429112373592104 -0.38516988828914905 35 38 37
1.0010980173257753 0.01849510898497895 -0.38578076932289246 43 53 56
0.9379602558528845 0.016444077504788573 -0.3854146144594402 185 198 195
0.9347152013292737 0.012761461518589434 -0.3879253705997718 189 195 195
0.962250087797062 0.010173550464008658 -0.386064249525964 26 32 30
0.962250087797062 0.010173550464008658 -0.386064249525964 26 32 30
0.9874105337917681 0.0091508462278412 -0.38512535603850734 188 196 195
0.8392875425459857 0.012521482333545296 -0.384521543736497 195 198 199
0.9299293938073673 0.008140901502398759 -0.38535963896807335 51 50 54
0.9299293938073673 0.008140901502398759 -0.38535963896807335 51 50 54
0.8377586854178268 0.010678502595956839 -0.385762134215958 125 125 129
0.9298679883189747 0.0039574298218100715 -0.38532552176909973 182 190 189
0.8635563960669835 0.005881527816512536 -0.3852192021519123 186 192 192
0.8635563960669835 0.005881527816512536 -0.3852192021519123 186 192 192
0.924286978006854 0.00212247203591366 -0.3856536112181332 33 39 39
0.836352524826655 -0.0012158963171783428 -0.38602497132239033 122 118 123
0.8362414860086829 -0.005576430568487884 -0.386481633267002 189 189 193
0.9566164535687227 -0.014082572434733754 -0.38525727049974273 184 192 191
0.9678830057027276 -0.01541798480633606 -0.38520043543400656 47 47 49
0.9593189276093963 -0.01653390544505313 -0.3854755537151948 188 194 194
0.8370232364540324 -0.010583876569670974 -0.3861996050249586 178 174 179
0.8962585851671937 -0.016459713862865932 -0.38559434101635714 51 40 44
0.8962585851671937 -0.016459713862865932 -0.38559434101635714 51 40 44
0.9542041458407007 -0.022202759700570358 -0.38544612917076077 38 41 44
0.9035071823160495 -0.022595402077917468 -0.38620478068144287 181 189 188
0.83893121058609 -0.025300635368465652 -0.38668590060412467 132 128 131
0.83893121058609 -0.025300635368465652 -0.38668590060412467 132 128 131
0.9506767261841887 -0.03326790006214317 -0.3849561727575424 186 189 188
0.9506767261841887 -0.03326790006214317 -0.3849561727575424 186 189 188
0.9200426576275589 -0.03348076966728332 -0.3855302036970077 35 38 39
0.8892981492926746 -0.03422858517941917 -0.385798297650796 186 186 186
0.9509159221278219 -0.03847483207676461 -0.38535037574613595 31 34 37
0.9509159221278219 -0.03847483207676461 -0.38535037574613595 31 34 37
0.9849883829776638 -0.04132259630762284 -0.38517609271119724 40 45 50
0.8388402213978282 -0.035085046557412035 -0.38659754797500756 106 99 108
0.8836171721271441 -0.03979661533987715 -0.3866255996690902 187 187 187
0.9387734442521923 -0.04516243285851771 -0.38600840480815135 183 191 190
0.9387734442521923 -0.04516243285851771 -0.38600840480815135 183 191 190
0.9339809630312893 -0.04492016395191705 -0.3860850953102979 179 185 183
0.9339809630312893 -0.04492016395191705 -0.3860850953102979 179 185 183
0.9306862989598027 -0.04619179700551042 -0.38508414298930843 48 47 47
0.9306862989598027 -0.04619179700551042 -0.38508414298930843 48 47 47
0.9392017041038984 -0.050320064251611285 -0.3855168583124121 179 182 183
0.9392017041038984 -0.050320064251611285 -0.3855168583124121 179 182 183
0.9381635022475036 -0.05283477199435178 -0.38588974340059656 51 50 54
0.9406297023259849 -0.05476745390145902 -0.38631808745895724 27 33 31
0.8771264723498687 -0.050445756634733156 -0.386473759615209 185 185 185
0.9546769913188481 -0.07246018252649396 -0.38547394461018164 32 37 42
0.9546769913188481 -0.07246018252649396 -0.38547394461018164 32 37 42
0.96901114163303 -0.07912966624099042 -0.3850816367785758 41 43 51
0.9000475204909646 -0.07363371539994475 -0.3860685698782795 27 30 31
0.9044148152425547 -0.07693693466746415 -0.3862492428053558 178 178 178
0.969162700207686 -0.08423085166757578 -0.3857668233897388 45 44 46
0.9589933559414726 -0.08339412682757444 -0.3855843219811429 183 183 183
0.8967067268133352 -0.07714997760869693 -0.3863541623378128 177 180 181
0.8701898865806806 -0.08519940170117206 -0.38722975574026886 22 25 24
0.9993614942285987 -0.1545601059387614 -0.39192563115525914 16 17 13
0.9773686311128195 0.11202630567121366 -0.37772815426295797 37 43 45
0.9766247919808675 0.08204402590355497 -0.3769134144241954 193 199 199
1.0926910854559877 0.08619493683506785 -0.38297136346204685 106 102 103
1.085447272925476 0.0615739777312921 -0.3801805410388542 147 150 149
0.9469543725446571 0.05149446736418485 -0.3775360482285316 192 200 199
1.0881010275980536 0.10216911995229028 -0.3838531930561329 98 95 92
1.0804663978808502 0.08512271006632396 -0.3838030277943493 86 86 86
0.8920671314541336 0.0464317786513373 -0.38090498376731446 34 37 40
0.8920671314541336 0.0464317786513373 -0.38090498376731446 34 37 40
1.086664811642528 0.045647946712851835 -0.385508982162417 97 96 96
0.8878758822679602 0.020747038141690342 -0.38066669941918185 34 37 38
0.9818537157177625 0.019079264891208793 -0.3790462690541388 40 50 55
0.9791255121996008 -0.0324162074536505 -0.37858859280230145 42 48 50
0.8729536534768653 0.009581743988870751 -0.3720604115524128 28 34 36
0.9275514596438412 -0.04927437027693773 -0.37748026590588646 54 45 50
0.8748665861916451 -0.05982363883988403 -0.39130504693312235 180 183 186
0.8748665861916451 -0.05982363883988403 -0.39130504693312235 180 183 186
0.9151076663057252 -0.06853010189973699 -0.38890966810941513 31 34 33
0.9151076663057252 -0.06853010189973699 -0.38890966810941513 31 34 33
0.9751147018388012 0.08435096827766492 -0.37693611755260487 41 49 48
1.0139551241682756 0.0932566279727174 -0.4010656170534793 68 79 79
0.9102594159386871 0.04621690682260601 -0.3893484783318662 38 37 39
0.9995478048688762 -0.1497525402914102 -0.39397932022867366 26 25 25
0.9568368762666661 0.1028950170153275 -0.37982546962800773 49 44 42
0.9597310630844736 0.10037350411713947 -0.37968858473070555 48 42 46
0.9597310630844736 0.10037350411713947 -0.37968858473070555 48 42 46
0.9047802010850681 0.08872434646523035 -0.37982444631098833 64 71 77
0.906776659150531 0.08815353162495919 -0.3801104298859728 44 43 45
0.910265953630734 0.08457311323761858 -0.3799769078498375 196 202 204
0.910265953630734 0.08457311323761858 -0.3799769078498375 196 202 204
0.9632070658441659 0.08542972570589542 -0.3729474049615671 50 50 50
0.9667979185606411 0.08856495082342583 -0.37910745086957676 50 50 50
0.9098929493469965 0.07840593278301675 -0.3800580773254202 37 37 39
0.9098929493469965 0.07840593278301675 -0.3800580773254202 37 37 39
0.9751147018388012 0.08435096827766492 -0.37693611755260487 41 49 48
0.9372626511579052 0.0759208563398299 -0.3797490786987947 48 48 52
0.9869518869991742 0.06946168133393117 -0.37252319185924687 60 59 61
0.9869518869991742 0.06946168133393117 -0.37252319185924687 60 59 61
0.9222939653296853 0.06483138397937642 -0.37965084398539095 195 201 203
0.9928662912353676 0.06666795731157417 -0.37246197996463143 67 70 73
0.9369204701563185 0.05767443075907628 -0.3788698614436011 44 44 46
0.9885767170110885 0.05922163470651357 -0.3713596210391259 195 195 195
0.9403310353961768 0.054244652880591465 -0.3787698778756938 195 203 204
0.8806330082213409 0.04802586454872129 -0.38103072119777986 33 33 35
0.9105554806270193 0.04855265182014233 -0.3795992111971073 195 200 205
0.9141276368534094 0.0458151707193245 -0.37353835477992314 39 41 47
0.8909828900951781 0.04339931803791532 -0.37997677043401845 35 38 39
0.8965114767263572 0.030409238011441592 -0.3791409623612271 58 49 54
0.8964825649299385 0.027226801592141154 -0.3790915485040157 39 38 40
0.9044386087867787 0.02473542486503734 -0.3719500542136647 39 39 41
1.0008237214066225 0.02560499953696753 -0.3790658961476013 72 83 83
0.9307650458432414 0.008513703497294257 -0.37895478054142223 190 196 198
0.9274503877292646 0.006658602326860841 -0.37182852228110336 193 196 195
0.9227502834709778 0.004061572026887956 -0.3782597829165259 185 193 194
0.9296523038576323 0.00333419188756616 -0.37776172686588927 187 195 194
0.9032840559410372 -0.018455542084811472 -0.37107366233179745 32 38 40
0.8940574843997298 -0.02417762586537246 -0.3700424241863594 58 48 58
0.8903180159169194 -0.0337194381629529 -0.3780281459362384 38 38 42
0.929989266035881 -0.047765374904289205 -0.37703847782341376 181 189 190
0.8664488510506638 -0.057717649806031904 -0.3764035617214795 180 183 184
0.898539600861544 -0.0802553922741146 -0.39079920555748165 162 170 167
0.9721170448676952 0.10424140788343644 -0.3710428137231019 41 44 47
0.9664535487610262 0.08181636295273495 -0.37258190994560575 193 197 192
0.9340164218324115 0.07275058634476818 -0.3729837008210173 48 44 47
0.9929284484341747 0.07345051894856523 -0.3720896055551499 68 68 72
0.9929284484341747 0.07345051894856523 -0.3720896055551499 68 68 72
0.989800308001362 0.06651644847712535 -0.37234249697217253 71 67 72
0.989800308001362 0.06651644847712535 -0.37234249697217253 71 67 72
0.989800308001362 0.06651644847712535 -0.37234249697217253 71 67 72
0.9339193621515673 0.054459492613957196 -0.37188030671271904 43 46 45
0.9339193621515673 0.054459492613957196 -0.37188030671271904 43 46 45
0.9769125219129008 0.05663473735602589 -0.371885531611852 55 61 61
0.9141276368540389 0.04581517071975631 -0.3735383547812676 39 41 47
0.9588543487190183 0.03614372056739111 -0.37174468149939577 190 194 189
0.9853475984193792 0.010100761456170249 -0.37125066530587975 191 194 193
0.9512258758726138 -0.0214278606206162 -0.3699315117608609 190 196 194
0.8945298553028249 -0.03232696051739236 -0.36912377896062853 185 192 196
0.9962127997535501 -0.03583489402370741 -0.37139808119115475 68 78 81
0.8719038995177723 -0.061587196561257676 -0.36587944324269 27 30 29
0.8572902765766546 0.087639838873132 -0.39001076848291577 34 37 38
0.9969974828104674 0.1045837137470605 -0.3927027821704968 53 61 62
0.9969974828104674 0.1045837137470605 -0.3927027821704968 53 61 62
0.8720956325540489 0.07068265389877779 -0.39075233332613246 202 202 206
0.8720956325540489 0.07068265389877779 -0.39075233332613246 202 202 206
0.9353457230223109 0.07835467719216156 -0.39171712785392054 46 46 50
0.9606525828586338 0.04426048019655881 -0.39259105579990017 197 203 205
0.8944280794336968 -0.029473784389919645 -0.3842323895914357 186 192 194
0.8839744088748066 -0.03796881144759305 -0.3902960319720069 32 35 36
0.8844412570981034 -0.04395831897454525 -0.3909648613858632 187 190 193
0.9426754438509837 -0.04746189145283122 -0.3931361827377951 137 150 149
0.9860615414807797 0.06657069258746907 -0.3722530692200273 194 194 194
0.9860615414807797 0.06657069258746907 -0.3722530692200273 194 194 194
0.9900362927902358 0.06312181512311792 -0.37209928634445427 194 194 196
0.9860336620552668 0.062427226631944804 -0.37200333315484685 74 74 70
0.9432091414899464 0.05185777356983737 -0.37253993017683634 35 41 39
0.9432091414899464 0.05185777356983737 -0.37253993017683634 35 41 39
0.9372304669732465 0.04596855047295682 -0.37372549402002975 39 44 49
0.97222664646697 0.04718070313183827 -0.3723830365990332 60 63 66
0.97222664646697 0.04718070313183827 -0.3723830365990332 60 63 66
0.9468983102503977 0.04308537640723747 -0.37304179458451237 46 49 52
0.9078513206265554 0.015954253841680907 -0.37282119774696526 36 36 38
0.9078513206265554 0.015954253841680907 -0.37282119774696526 36 36 38
0.9274503877156849 0.006658602320814387 -0.37182852225061497 193 196 195
0.8730406295358752 -0.003826044046643023 -0.3715505795203686 31 34 37
0.8730406295358752 -0.003826044046643023 -0.3715505795203686 31 34 37
0.9188427851957663 -0.0030992890717594745 -0.3730014829906934 35 41 43
0.9368343523156288 -0.007972891530216028 -0.3699834276820003 187 195 192
0.9677773065048136 -0.009135509712240563 -0.3696141561715056 69 72 73
0.9588836354768754 -0.020347556574452398 -0.3687412249518075 49 48 50
0.957106916410502 -0.027676792078266385 -0.36975242000325803 51 57 59
0.9399411596316315 -0.05483657295146607 -0.3894964952624024 27 27 31
0.877896468108078 -0.0563587087043046 -0.3905650657127893 30 29 29
0.8664287437435281 -0.06303676784659408 -0.3672151041387696 28 31 32
0.9755072981443866 0.07272470162126123 -0.3722589111478649 47 47 49
0.8723080967015034 0.008019072050354204 -0.38900674338090596 194 197 200
0.8765627487415082 0.003542633311594135 -0.38928383105212444 194 201 205
0.8586394169078495 -0.013895172195562158 -0.3901266788940604 35 38 41
0.8895246228776867 -0.01268775283482989 -0.3896946059383121 196 196 200
0.8895246228776867 -0.01268775283482989 -0.3896946059383121 196 196 200
0.8999310959344067 -0.019189632606393253 -0.3893623247966392 190 195 200
0.8966163011239224 -0.02026802745661599 -0.3889975647308652 45 34 38
0.8987578705860172 -0.0292128666943732 -0.38957383374512794 193 196 199
0.8897255647184839 -0.038255865185270646 -0.3897314031497814 189 195 197
0.8897255647184839 -0.038255865185270646 -0.3897314031497814 189 195 197
0.9947627094727447 -0.05449224189850842 -0.38804367753455465 169 177 176
0.868599363361668 -0.05965921996925413 -0.3881011298836488 185 188 191
0.8653437050792252 -0.06297408651984797 -0.38866944774397855 185 188 191
0.8653437050792252 -0.06297408651984797 -0.38866944774397855 185 188 191
0.9213821105925231 -0.06898893298882043 -0.38936164627028935 182 188 190
0.9156095673241028 -0.07462378710096608 -0.3897005280261338 182 188 188
0.9156095673241028 -0.07462378710096608 -0.3897005280261338 182 188 188
0.8595622050471159 -0.07611675362431922 -0.3909056195830415 28 31 34
0.9049255253837646 -0.08171620490356599 -0.38917612666394913 183 189 191
0.897263547463961 -0.08197374226861907 -0.38957553679104395 186 189 188
0.9019612869841908 -0.08572976794296307 -0.38946899782345257 34 33 35
0.8742566225355479 0.10082549719368392 -0.36915392677678727 31 34 33
0.9627325447886058 0.07856046459651032 -0.3660485033783731 193 197 192
0.9488775481715129 0.059483384704381706 -0.36258046238221764 32 40 39
0.9816802295682747 0.05941917746269969 -0.36514949117417717 74 74 70
0.9864092765451933 0.04075415876458656 -0.3592670169324871 67 73 75
0.9440528831560212 0.024338028091993452 -0.36521643714855145 40 47 51
0.9228525418654424 -0.0003307420268989693 -0.36282689585830374 191 199 198
0.9102059526063381 -0.009798209485884795 -0.362947164495002 191 199 200
0.9102059526063381 -0.009798209485884795 -0.362947164495002 191 199 200
0.9044675427159267 -0.015079693823599697 -0.36221667990106865 191 197 199
0.9928889531994607 -0.026720712976135947 -0.3680128875532597 61 73 75
0.8916578621589457 -0.03346458403903559 -0.36090125576394216 187 195 196
1.0607122954575237 0.0506005634381035 -0.3765693290937437 188 185 182
1.0762338775968459 0.04531134770387246 -0.37630509207160484 94 94 96
1.0762338775968459 0.04531134770387246 -0.37630509207160484 94 94 96
1.070990394930033 0.036700686498792545 -0.37629858804237326 132 131 131
1.06993593226112 0.03312494052668687 -0.37489015254391883 132 132 132
1.06993593226112 0.03312494052668687 -0.37489015254391883 132 132 132
1.0619412776604231 0.029334579283840898 -0.3753941364916885 100 99 108
0.9927641326199365 0.0207943723841659 -0.36646915796257856 66 74 73
1.0625201016950274 0.02333068045971371 -0.37565030236073527 113 112 112
0.9970160084757606 -0.012761876602397769 -0.3727293900379782 67 75 76
1.0058687167788407 -0.009783777142105743 -0.3857690684908725 61 67 67
1.0597451790154089 -0.030712194022254367 -0.37272082068380485 159 162 161
1.0585044477345342 -0.03499061679144999 -0.37091081060273134 152 160 159
1.059369513802218 -0.055873583127731656 -0.37145201077504164 148 154 154
0.9524960925445617 -0.0551340721142062 -0.3660712217726819 33 41 40
0.9811606672121744 -0.08535303773699549 -0.36315392185479534 39 50 50
0.9426754438509837 -0.04746189145283122 -0.3931361827377951 137 150 149
0.9399479940956179 -0.05036582401382623 -0.39361790034014116 141 149 148
0.9332686365516676 -0.056068278326000746 -0.39029869592917776 32 28 31
0.9332686365516676 -0.056068278326000746 -0.39029869592917776 32 28 31
0.9324568427428371 -0.05552254536872268 -0.3884096793545273 32 28 31
0.9063709229371225 -0.08006168938819494 -0.3907375141101122 157 168 166
0.8360791795863475 0.12147858114194149 -0.38968655899071 191 185 187
0.836946517211364 0.11330753719655505 -0.3875986298071341 185 185 185
0.8359080739531133 0.11073776319501819 -0.38770469339073177 177 173 174
0.8378656610476597 0.10955797052564542 -0.38737832358345525 189 188 188
0.8362159945440609 0.08953182909468567 -0.3884197266283583 137 136 136
0.8362159945440609 0.08953182909468567 -0.3884197266283583 137 136 136
0.8366082740081058 0.07280482871051654 -0.38858581150014493 173 176 179
0.8364390783832456 0.0702588210117722 -0.38862341908245707 179 179 181
0.8348558857663821 0.048835820150734774 -0.38871867216439343 176 179 180
0.9115916205406106 0.03793951138653585 -0.3906469135975324 16 22 20
0.8376732024009764 0.02108459094824367 -0.38854810569350656 149 149 149
0.9206872215932103 -0.035373194589505524 -0.38639480389910746 15 21 19
0.920675660558686 -0.03536755733097637 -0.38645088268289457 15 21 19
0.9103934433975026 -0.0763419976014883 -0.38666770809816725 17 20 19
0.9103934433975026 -0.0763419976014883 -0.38666770809816725 17 20 19
0.9692155130382927 -0.08619873647233034 -0.38546376681445194 38 37 39
0.8939472189142867 0.04776442633994328 -0.39125924862078165 21 27 25
0.8346611385677282 0.025617412453203103 -0.39095344672867677 170 176 176
0.9771273327244248 0.02737406019237147 -0.38867749168901294 147 165 159
0.9834239874098323 0.02226515490008273 -0.38882632623076707 184 187 188
0.8372675056440533 0.1114374302541659 -0.389999009428751 189 189 191
0.881603689724827 0.11470066246327502 -0.39130453392119263 29 35 35
0.8957717244386486 0.09698706296251346 -0.3911296118675276 181 187 185
0.8884436864282738 0.0896837025420299 -0.3910604429958331 181 187 187
0.8828549334752337 0.084157550456938 -0.39132548726723493 178 184 184
0.8619805356242836 0.07836960568292874 -0.39111377799038294 28 31 30
0.867884649113448 0.07675739657520907 -0.390614646191717 177 183 183
0.8337446804390634 0.07054489692672686 -0.390853822336263 183 186 187
0.8721446644858281 0.07301106835220517 -0.390626656190586 176 184 183
0.8721446644858281 0.07301106835220517 -0.390626656190586 176 184 183
0.86822913544345 0.07268028667700381 -0.3906086183056803 30 30 26
0.8679141328678363 0.06868264142689055 -0.3899423584335156 173 184 182
0.8720556389282323 0.0689303248995997 -0.39098058685021936 32 32 28
0.877470309999127 0.06308699915367838 -0.3907508748849084 20 26 24
0.8380302165132159 0.04955120627863167 -0.3902642653398707 176 179 180
0.9702215109145848 0.049048964195045786 -0.39094153292364764 46 54 55
0.9001176136367648 0.03823878568039188 -0.3904701852548786 168 176 173
0.9029502517511667 0.03733439774474124 -0.3898316595876242 29 35 33
0.8362939138313185 0.029849182402614003 -0.3898816165291985 89 89 93
0.8371126952899389 0.028771042251456862 -0.39020136955404106 172 175 176
0.837198075392538 0.026636755931492 -0.3901210218653328 149 152 153
0.9202766940218778 0.027776624717451143 -0.38993955514874284 23 29 27
0.8651178659300055 0.014073716880058033 -0.3908618437381557 164 170 168
0.8378049913872979 0.010236115412712866 -0.389893348159721 85 84 84
0.8688332804879783 0.010237512651233266 -0.3903578231650229 35 38 37
0.8368791514984839 0.008285777301366674 -0.38996718587229895 138 139 135
0.8759484275243848 0.009722532752257646 -0.3898407520868353 39 42 43
0.8759484275243848 0.009722532752257646 -0.3898407520868353 39 42 43
0.8640395651706311 0.0055267283152761245 -0.38942250835064807 157 163 161
0.836904458598615 0.0016496649286376654 -0.39006670659489173 85 84 84
0.836904458598615 0.0016496649286376654 -0.39006670659489173 85 84 84
0.8631168361203144 0.0008674018866797447 -0.3910562313257914 26 26 26
0.8370592909141483 -0.011333257600251046 -0.39019644880024634 155 155 155
0.8388796891607294 -0.026030174358500954 -0.38992834813225663 95 86 89
0.9054336651313476 -0.02504798957071292 -0.3909479346537205 149 157 154
0.9054336651313476 -0.02504798957071292 -0.3909479346537205 149 157 154
0.8381156827756435 -0.02826523442273141 -0.3901161377665051 164 164 164
0.9014377808183299 -0.029073681270539636 -0.3906402897438054 153 159 157
0.8377758531652656 -0.031955010889423936 -0.3897833079402602 158 164 162
0.8785742108637903 -0.045967971762632016 -0.390170879830309 20 23 22
0.8785742108637903 -0.045967971762632016 -0.390170879830309 20 23 22
0.877453998704797 -0.05158574185652972 -0.3901971737799734 160 161 157
0.9008130665062087 -0.07509254092788742 -0.3904463195904506 18 21 20
0.994442534174872 0.07340288617522599 -0.3896670632546695 59 59 59
0.8371324213616709 0.04714148303294763 -0.3877213212812772 133 132 132
0.8837645334849076 0.051702857781948816 -0.3901295187280647 15 21 19
0.8837645334849076 0.051702857781948816 -0.3901295187280647 15 21 19
0.9770646292514056 0.053687134445936736 -0.38954160932781884 153 166 161
1.0065453424424922 0.05195618080031517 -0.3886868049849829 61 69 70
0.9601332385102724 0.04558941136714864 -0.389435923607141 184 187 186
0.966175514685909 0.03419127639721119 -0.38820187359399566 29 40 40
0.9702565938590719 0.034301594949470375 -0.38849012926119464 144 159 156
1.0035688113017869 0.002161502053708773 -0.3886090245147282 53 66 63
0.9784800276196098 -0.005681638389444315 -0.38688603601188765 36 44 43
0.981563997926887 -0.0076779790601797 -0.3877299615738452 43 45 51
0.9728691162196398 -0.013841772677648322 -0.38920606554026566 27 38 38
0.8974084598519331 -0.01826708017615696 -0.38791790956705985 41 38 33
0.9616766716713419 -0.018346027654262916 -0.3888914116529476 183 189 189
0.9711736833169445 -0.020202234753949874 -0.3887258244137947 178 184 184
0.933943468317388 -0.0224005674552035 -0.3885601114369258 19 26 20
0.9605417650136503 -0.02409765295595747 -0.38846786810350853 25 33 34
0.9670813651329083 -0.025021586270206106 -0.3871509231393109 50 53 56
0.9670813651329083 -0.025021586270206106 -0.3871509231393109 50 53 56
0.9593187098367547 -0.028074321190574715 -0.38865313309092814 151 162 158
0.9669579297592255 -0.028061071888800592 -0.3883558206996429 155 163 162
0.9669579297592255 -0.028061071888800592 -0.3883558206996429 155 163 162
0.9836074503692048 -0.034853341202889104 -0.3884428420359811 34 42 41
0.9949841855997161 -0.05027187587075819 -0.3876286703427551 43 51 50
0.9903701019190196 -0.05069010214482019 -0.388192049396043 166 174 171
0.9935421820550678 -0.05153918338315715 -0.3877360466990459 45 48 49
0.9344187372899064 -0.05245797320255272 -0.3884976545091722 157 158 154
1.0028110813367364 -0.05383164708846558 -0.38855232519127636 168 174 172
0.9905502513154226 -0.05878816775466731 -0.3883425876840363 170 176 174
0.9905502513154226 -0.05878816775466731 -0.3883425876840363 170 176 174
0.9905502513154226 -0.05878816775466731 -0.3883425876840363 170 176 174
0.9977743226472499 -0.05937605521926552 -0.3881142187411248 181 187 187
1.0047604023111933 -0.06180904564601468 -0.387680539565342 50 53 54
0.9692714820543076 -0.07863918776888486 -0.3885777013839106 174 177 176
0.9707550426651624 -0.08144743965585115 -0.3879231225838965 37 35 44
0.9027923239141572 -0.08328433103343395 -0.3893313540888077 25 28 29
0.9667088664698387 -0.08563463777585745 -0.3881792075969866 178 181 180
0.9606667674785555 -0.08591189183951141 -0.38802925520653214 176 176 178
0.9336413667482808 -0.08733689119017896 -0.38611146691848713 13 20 14
0.9251742227215891 0.07750822609087794 -0.3887331334711876 27 30 31
0.8614568561032928 0.060438826735398375 -0.38885276286390363 31 34 33
0.9356956262172017 0.06885165201518655 -0.3895806995800991 32 35 34
1.0040657311378864 0.06258402684955576 -0.38830477351925763 59 62 61
0.8979835943017753 0.03708281388246601 -0.3899633446515677 182 188 188
0.8658917723920316 0.006290646205022003 -0.3886086124750101 167 173 171
0.9010149405656768 -0.021306882784463837 -0.38887558156483476 43 35 34
0.9015876388872577 -0.021565176804144735 -0.39069118169587325 37 36 38
0.9010149405656768 -0.021306882784463837 -0.38887558156483476 43 35 34
0.9691258561196602 -0.02750864675104042 -0.38814319713179285 182 190 189
0.9300439767757317 -0.05267187116103566 -0.3908817365754926 168 176 173
0.9291288058910108 -0.056461288678482366 -0.3904992934342875 148 152 147
0.9420122803488417 -0.056867214083151166 -0.38818495729842145 32 38 38
0.9301477516406267 -0.05932520270461897 -0.39072943152266976 31 26 24
0.8667103669378972 -0.061281992721820874 -0.39067064489229786 161 169 168
0.8664402936319755 -0.06060603498600575 -0.3886882293349386 159 159 161
0.8986260111199009 -0.09173420358762772 -0.3904981679298765 157 165 164
0.9103683867287667 -0.09296027205794176 -0.38818389630229777 28 34 34
0.9404077269239176 0.002391211180603669 -0.39030912209111845 164 172 169
0.9446255561834921 -0.04469812965843186 -0.3916386871825453 25 28 29
0.9340126336694279 -0.049083109796236084 -0.39104354581108197 36 36 36
0.837816366113283 0.13332332358253612 -0.3906868925765573 195 194 194
0.8331894492025573 0.12130625086348933 -0.39005120128786547 194 194 194
0.8577688349576966 0.08894981983181831 -0.38841054145598913 27 30 29
0.8363967945084281 0.08378074004792468 -0.38872962176036374 184 183 183
0.8374291387098333 0.079780489246053 -0.3881566560687266 188 187 187
0.8373131207504614 0.0717823477309889 -0.3883276692056041 175 175 177
0.8373131207504614 0.0717823477309889 -0.3883276692056041 175 175 177
0.8771891593656971 0.07667688214777744 -0.3893345693971975 22 25 24
0.9866510487368766 0.08173719548683413 -0.3898765980463986 61 67 69
0.8367573464243048 0.04983826852756968 -0.38877820446242733 115 115 119
0.8376234496002607 0.04569986456687122 -0.3898264444846659 119 118 120
0.83753475549797 0.045522972568329434 -0.3885977619487606 119 115 116
0.9113960887389061 0.048858587433244845 -0.3888014167071075 25 29 24
0.9113960887389061 0.048858587433244845 -0.3888014167071075 25 29 24
1.0080848065109984 0.05320747808319194 -0.38958767107576237 60 67 71
0.8384484971236933 0.029296636806809093 -0.38993215506668655 100 96 99
0.8376986873944738 0.021201482329955137 -0.3891838192431772 162 161 161
0.9210723221394702 0.021310517900336407 -0.3895495203590167 138 156 152
0.8388000256829081 0.015642370104780173 -0.3883644964547892 132 128 131
0.837686879586663 0.013597543703322978 -0.3909257416608928 160 163 166
0.8714023366315916 0.015030482482607008 -0.389572408956227 23 26 25
0.8781460637231904 0.01422861893149231 -0.389854810556809 11 17 15
0.8781129625667577 0.014270187688754597 -0.3898138378779137 21 24 23
0.8383597720175492 0.009341884701598682 -0.3883272128306937 95 94 94
0.8365284725641216 0.009188030977250634 -0.38845882809943205 109 109 109
0.8693691114889519 0.009355532027622739 -0.3891761340033438 30 33 32
0.8380572712469159 0.004333272417814389 -0.3883800777424961 98 101 100
0.8351723096993908 0.003442893532867928 -0.38841214643994026 174 174 174
0.866604507831013 0.0022596173508227613 -0.39085131535637385 36 27 22
