ply
format ascii 1.0
element vertex 714
property float x
property float y
property float z
property uchar red
property uchar green
property uchar blue
end_header
1.2490526797955208 -12.627391611753879 30.497427994090355 70 70 66
1.5458440081646274 -12.412238985578798 30.248758653539884 120 123 122
1.7751262086048178 -11.026563084759415 29.690571006503152 110 109 111
1.9206893470093516 -12.301048097649856 29.753761473146323 112 118 116
2.1223928651323223 -12.117624215133999 30.191246524638224 132 140 139
3.2813238530115854 -11.741019411528363 29.86569495046595 147 150 149
4.922680954310779 6.534221342284908 21.251247707965174 97 96 96
5.526965247766134 -1.6711329702301052 24.952819006673256 36 39 42
9.552272144975214 3.2343227569717627 21.80207396430573 22 28 26
-9.512095268318506 -10.511356656800723 31.071854421691683 94 93 95
-8.315522357534519 -10.408103307738529 30.822385215136155 104 103 105
-8.230263743532486 -10.27645404142697 30.74357793991491 171 174 175
4.176670583364851 6.4862074662484455 21.43125734959229 143 142 144
-1.520611681849328 5.1896878032945 23.001400912247952 30 33 32
2.181188117380217 -11.8533394721882 30.088713299384896 100 103 106
3.0868776899113315 0.6668840352063714 24.272184624098145 32 35 36
8.135846574169255 -3.2818659694535643 24.799383261111902 37 42 49
14.720599107763187 -5.106364622364449 25.597539822529097 20 20 20
-0.17558186487179625 -12.18054057245248 30.707593443888005 89 92 93
1.1739772233832726 -11.884548485325803 30.10242130318494 136 142 140
1.3615903821143271 -12.000499158254486 30.239657989847373 121 127 125
1.9566330535630225 -10.44440595900909 29.129658377331854 97 97 97
3.360320078803015 6.629340776739357 21.500316158021917 196 195 202
-4.377097137695235 -10.772109278156272 30.49411076378207 158 161 160
-3.7229248356880644 -10.71398848569118 30.482387267263203 103 102 102
-2.048021197386151 -10.282081379594183 30.244818045029888 186 190 185
0.2838751936740889 -12.564562461166853 30.82274120511306 109 113 108
1.0240849057214128 -10.733587201818658 29.702726026339985 164 172 169
5.4855296672386 2.8089662933037363 23.172626739222615 31 31 35
14.296884372470371 -4.581819994812216 24.39968858254545 32 32 28
-5.089498050891096 -1.680476186361122 26.2618563026735 38 45 49
-4.470883489935994 -3.50640533588267 26.956614826673825 41 49 48
-1.6404095777804524 -3.6290798769489747 26.84910956209085 58 61 64
0.2871751047625333 0.7972713869530046 24.488100358425033 29 35 35
3.5278870898408976 -3.0366548628779397 25.83849564591174 47 57 60
6.484849939226545 -4.761024953318301 26.26219740632942 80 82 88
-3.0759352767368133 4.672710651362241 23.193619839699885 189 189 189
-3.0759352767368133 4.672710651362241 23.193619839699885 189 189 189
-2.458615569663821 5.09892647224765 22.98256864991835 40 40 36
-1.528308046972992 6.7797257106206095 22.035859658927865 137 136 136
-1.1943304111973054 -1.8242061106750485 26.045756780636403 185 188 187
-1.1943304111973054 -1.8242061106750485 26.045756780636403 185 188 187
-0.7465742084657797 4.588542067613817 23.045445612547283 22 28 26
1.4658632371365767 -0.33677118116057 24.893393543023517 185 188 187
4.856392453982858 5.003500400690682 22.16660176453126 26 32 30
-2.5995031445983985 6.863826318889674 22.25265419439325 190 190 192
0.9628515676125348 6.712341952798198 21.849265157913543 175 181 183
3.1796131500478046 6.641010268277809 21.784143914222277 179 182 185
14.43043067996009 -6.530154363147739 26.031990652743826 16 20 15
14.465262342995082 -4.4936298995094175 24.9744618354417 25 26 22
-3.217419737787904 7.140946765865266 22.34326096475827 193 192 192
-4.4165478904096025 -5.259874315758511 27.609808632147946 41 47 47
-1.8942495001688793 6.688970371833518 22.15120099651333 189 188 190
-0.5337933407999214 1.4892436453872913 24.344020854721457 27 27 27
1.1150369772491033 6.707923411950452 21.762483349081613 123 123 125
8.481069753620996 -2.945124540555569 24.743683184642055 190 193 192
9.357420284267969 -3.427874913458961 24.73485696705649 40 46 48
0.2423249489244257 3.416084132264883 23.465345227068596 24 28 23
-4.044326643499253 5.996390098386706 23.594053536118185 202 202 204
-1.9717016460190948 6.886114060560964 22.232118661519014 117 116 118
1.3459697874336625 -4.686900941308456 26.60880141254003 199 202 203
-0.9356586769103027 6.779139312474266 22.09738190507868 185 188 189
2.759805139353117 -3.8387987976134146 26.363170740215235 177 183 181
-5.328281707108105 6.963866663276505 22.564233590933913 140 140 142
3.106271608157197 0.6660469342748612 24.5041982667684 28 31 30
5.53280590646743 2.8256982543637164 23.4007615341841 21 24 23
0.2828577738654227 0.8065271251688716 24.729070030099606 28 36 33
7.256580205596998 -4.239019113951817 25.487417978928644 35 40 45
9.792226279246382 -1.3033178264342187 23.91150369473104 35 41 41
15.099651501486658 -5.989130102766145 26.581247174141023 21 20 20
-0.8639330238041593 -11.394323841622024 30.048846146735393 103 103 105
7.167245498989701 -11.021040206917686 28.578261180827703 101 101 103
8.410330819749985 1.644580620058784 23.012217521479393 178 178 178
-3.1116845312658907 -12.044935324755295 31.16160740119736 174 180 180
-2.220555742067402 -12.116251555713289 30.90596570494569 168 174 174
2.599435299989495 3.339563836827606 23.140114270079764 164 172 169
0.22042504985112057 0.7694902242155183 24.448865355880873 23 29 27
0.6329871768186827 6.739464809924636 21.766653610173336 186 186 186
-3.496017371126525 6.850673295256071 22.27964676861215 197 197 199
-0.9280133287533421 6.8051300503366186 22.127907303125557 193 193 197
-0.8920035997302641 6.8649283842379605 22.093335646176282 129 128 135
1.3747286104505223 6.623468826484892 21.74275079715377 112 111 113
3.5016362292907055 6.595940224635393 21.43307843548995 182 188 190
3.6122465953592564 6.517051239110457 21.52797932484343 125 124 128
4.991026083844266 1.0219672711458416 23.501766740869826 175 181 181
4.810187577829279 -5.404684785908357 26.06511102367339 43 51 52
-1.0877031801352721 -12.366285529119631 30.570893638857413 116 120 113
1.159550544169628 -12.553471455686736 30.633518355660552 114 121 115
2.605464657496784 2.908716686245144 23.424871032565704 33 39 41
14.4185818094215 -4.481005390391742 25.856616967114626 31 31 31
-3.9836676752225997 -12.257205979270285 31.30899649194514 129 136 130
-3.774738091743515 -10.157971513622408 30.277755809203118 192 193 189
14.690989483114652 -5.980421042164653 25.93372814500126 31 32 28
-3.206756899356841 7.0956258366918155 22.290144959654395 194 197 198
-1.9668373681796425 6.861601150422617 22.236684564732812 117 117 121
-4.414268063648466 -3.4250261573731984 27.063880044727007 63 59 62
1.2403182596769309 6.692544652313395 21.733790810837206 186 186 188
1.61787700744525 6.67603079726968 21.670871673694126 187 187 191
2.6379236331218867 6.557669173768938 21.64040833836786 97 92 100
6.656395278500048 -5.330965071508572 26.124638365676667 176 179 178
14.898721469086048 -5.168482545113717 26.002679259411536 25 26 22
-2.888459253813384 -4.417337894148664 27.279818909533283 183 183 185
1.5726306094651041 5.937457041034818 22.457622711443722 178 181 182
2.591952152605822 -5.429441342982497 26.88368937071515 76 84 85
7.352539264701741 -3.441798633518297 24.784988238649788 31 34 35
15.136242199955488 -5.422523592680412 25.984648416531318 16 16 12
2.6551112622034037 6.7485188646633585 21.679011588360975 189 189 193
-10.846197581119949 8.586286843255936 23.284969870777356 34 34 28
-4.3391866867427025 6.923893201835301 22.503305379116128 151 150 157
-4.709876273407645 -10.833890800923369 30.703337709985636 148 151 150
-4.351365873745673 -11.933625225061602 31.223917254035026 75 75 79
-4.20932723640603 -11.992443617743163 31.396104848690758 155 158 157
-4.11405773905612 -10.791651635524637 30.819836498307257 107 107 107
-3.1026432155647408 6.16001894679561 22.80850336898313 187 190 191
-2.380798890416052 -10.576373330180205 30.42680718126337 146 154 153
-0.2606671284635467 -10.558335965683911 30.152701747627 105 105 109
1.9847330211638796 -11.1413415541221 29.93598798649525 93 96 99
-5.680088666562027 -2.2107393252937904 26.741490769370433 55 54 56
-4.598712863121961 -5.204534189012949 27.952716541386884 65 77 79
2.61895258824138 2.9258340823959026 23.446924486522892 33 39 39
3.4919890703465573 -2.003925345857307 25.186823221364264 166 173 177
5.469433771391064 1.0127439313238342 23.65832612210139 30 29 29
15.426895256370232 -4.91331182529557 26.635867677147072 25 28 27
8.213785071329594 -3.3173181933999447 25.025603611944653 37 39 47
14.686616382001953 -4.928917483535303 26.269510312296205 20 26 26
15.10604690524431 -5.401233190714773 26.088764415288466 18 18 14
-2.3581898084384036 -10.420387956032599 30.106742387276185 107 107 109
0.6425306914321618 6.744703129510736 21.921862994779413 172 178 178
1.56309737017666 -6.941991807607306 26.704873121318013 193 196 195
6.425780886554558 -0.22749001882053702 23.943746335478576 166 166 170
-6.291688402063198 6.970300802553831 22.564751305375147 126 126 128
-3.970998956098794 5.876631085433437 22.965655015442184 187 190 191
4.175635131009483 -2.597035652948219 25.166896531268222 37 40 41
-7.8840925253976435 6.947844860683238 22.425832077112226 191 190 190
-7.286821871186443 6.935278624060726 22.474883792983725 161 161 163
-6.734032783361103 6.896936687003855 22.393080860807398 191 191 187
-6.085866915769222 6.85721517912438 22.628443140622462 134 133 135
-5.497873053182225 6.834395039886255 22.387874582579343 136 139 142
-5.497873053182225 6.834395039886255 22.387874582579343 136 139 142
-4.776350162832343 6.888176885706751 22.442541554668225 131 131 133
-4.347169595749427 6.952465917260122 22.69872789155167 176 176 178
-3.9298848603874883 6.864373671306513 22.375160309441085 140 140 142
-2.1482064617721774 3.1036171214725683 23.604367082325528 26 32 30
-2.0733850173518085 -1.353313983590703 26.203831144869014 49 57 56
1.4229093921073015 -0.37328776992739715 24.86442454571892 191 197 197
-2.1363014013721617 3.141561142797132 23.953621412652637 23 29 27
3.0437608350908723 2.912326250538629 23.31304904570662 165 171 171
1.4229093921073015 -0.37328776992739715 24.86442454571892 191 197 197
14.621922804244871 -5.793419210439492 25.901231008741 19 19 19
-9.824737070104113 -10.574461641404547 31.093999984188514 80 77 72
-8.087987857266905 7.030991619128336 22.736356212347886 138 134 135
-7.459426868758454 -10.61772381406005 30.941923044215706 143 147 142
-5.302221477737392 6.91818412026565 22.4823206464202 140 136 139
-4.062501604722671 -3.054583272107857 26.967041995678166 38 41 44
-3.698970182175133 -4.896216794660388 27.619658899201887 42 41 43
-2.903396885135483 -10.764915611694601 30.293080735797975 88 86 93
-2.3263453672057697 -5.1113209047997366 27.480530487655354 52 62 65
0.6845415217440067 -1.4410342703715338 25.41344610273449 23 29 29
-7.919651325944219 -10.37547656941764 30.88905256864111 114 115 111
-7.919651325944219 -10.37547656941764 30.88905256864111 114 115 111
-6.490350096054989 -11.199147615797795 30.979675892245865 148 156 155
-6.356901906112165 -10.472702436663628 30.612634976117302 106 109 108
-6.306520959368274 -10.620748942350058 30.59308429203696 160 168 165
-4.501387184890881 -0.8167765087222109 25.92822937416165 40 46 44
-4.843657949588026 -11.620101536786189 30.73925289477584 144 152 151
-4.843657949588026 -11.620101536786189 30.73925289477584 144 152 151
-3.790275674059503 -12.308337206579862 31.029784360593016 88 89 83
-3.6853659362347977 -12.229672969974661 31.018203753635824 140 146 144
-2.5571267937403843 3.911830716975233 23.68851411503634 29 32 33
-2.506328314448254 -11.882651003042735 30.544314537536973 126 134 133
-2.0532086200597317 -11.777538965746254 30.60627522994259 153 156 157
-1.7589029537234384 -12.189349368642985 30.95219724789664 136 143 137
-1.648720632052708 -0.9189521082306 25.83345088679768 38 41 42
-1.648720632052708 -0.9189521082306 25.83345088679768 38 41 42
-1.309416126826124 -11.828104955311682 31.226485023321963 131 139 140
-1.137551318147614 -11.130207590083247 30.412576143999136 154 160 160
-0.8459650963909826 -11.999104878782614 30.596278499435588 105 111 113
0.26358397761285995 -12.092484138970216 30.341604610750874 93 93 95
0.29889387385783284 -12.252943188445379 30.315632617480087 126 137 135
0.28430455726432285 -12.192684343059128 30.14923125894785 121 127 125
0.36074339641219055 -11.60312699442674 30.131273455041452 100 103 104
1.1061535405134615 -12.252183763932507 30.407460937841112 93 99 97
1.1286479603394088 3.8476116966197407 23.207166371491898 29 32 33
6.647267620709262 3.9350856115425437 22.344117857101942 180 183 186
14.986053653896882 -6.529472813710292 26.958902794180393 36 39 38
14.126906290109806 -5.333864201126665 25.337805147619626 18 21 20
-5.635554760687286 -11.121903412709475 30.771574135020636 146 154 151
-1.9366261733743424 -12.469121526379794 31.200262280369802 132 138 136
-1.4891672741420605 -11.445221699855601 30.457734984220266 88 91 92
0.7767976819455912 -12.506121849446627 30.79394953262229 130 141 139
1.0758871928836402 -11.375642488008545 30.04470212503541 84 83 85
0.7123443626536167 -3.33273944492779 26.43624309860461 60 63 64
14.333376538784393 -4.8887145434929655 25.962077998708587 35 34 34
-3.8827356037347482 -11.87004753814643 31.01421828528213 134 142 139
-0.5343396021667355 -11.949666251112777 30.54497875348159 132 138 138
0.9424697713998766 -11.633166258785367 30.510243303473572 149 155 153
0.8778342737288236 -11.47058449856893 30.0362383752695 153 161 158
1.8434786926674172 -11.422548717672823 29.9267425689076 94 94 98
1.912349611804844 -11.20836564489358 29.71044822404326 146 152 152
-1.5890744036997437 -11.004367764098992 30.184704939014214 161 168 162
-0.34665952801912026 -12.324795052491103 30.81673208979449 125 131 131
-4.8730189685226 6.849426365669354 22.53697441694488 197 197 199
-3.497083842819668 6.892598911727049 22.388391358819593 200 196 199
-4.762688633614592 5.387001068988463 23.451606910333982 27 33 31
14.668711449805189 -5.4915037167773155 25.777923835011208 29 35 35
-6.0852550084564445 6.8787417004725375 22.58303255229423 140 136 139
-4.96446390843205 7.091658412202821 22.442796455295444 189 189 185
-4.171183190073609 6.892595455903041 22.296108936554777 185 185 185
1.6633069987038593 6.592391677357905 21.368400254875468 149 148 155
9.881608438829211 0.2101439624163892 23.590267746566195 26 32 30
-4.477515907779977 -3.4913456191141785 27.019608586357442 50 63 60
-4.077398400463019 1.4248812972854088 25.00530505643812 34 34 36
0.6795750911525508 1.209345882693714 24.398530107659475 32 32 32
1.6413380642932536 6.730771862194184 21.802025572013406 189 188 195
2.4933911244802975 6.6458169287641145 21.644208545821815 195 194 196
3.9166089109193516 1.9386997358168494 23.534427004970688 190 193 194
4.76360725727075 -2.117765289464529 25.068264648980783 31 30 39
5.034196446954184 3.28739211465218 22.911579683805073 34 33 33
8.920154506392684 4.107353878786795 21.896084762023808 22 25 24
8.920154506392684 4.107353878786795 21.896084762023808 22 25 24
9.523438360306878 2.3579262473167977 22.50227760501188 32 32 36
-4.856214848705206 1.783599334514913 24.83779551778991 31 33 39
-4.471577462359759 -3.481551496529324 26.936938681236242 33 41 38
-3.66146930268875 4.025446526261797 23.772040756529066 28 31 30
-0.44445312786388874 -10.587513241415524 30.38252708544596 83 82 89
0.42776786077355045 6.934552038988977 21.962557101752225 185 188 189
1.1105576899132632 6.894708840438424 21.825011795408045 183 186 187
3.073866886643086 5.136974671421 22.331427019112652 33 33 37
3.5577725687905 2.1053969066973997 23.419674197646575 162 170 169
4.899037962613507 5.020277395774737 22.08975885384061 29 29 29
-6.216377941898264 1.7384924695094262 25.044757703825816 48 44 47
-6.766356430920795 -10.539063740356113 30.496416427131866 161 167 165
-6.766356430920795 -10.539063740356113 30.496416427131866 161 167 165
-6.050512956625468 -10.727232321608401 30.88258317349513 160 166 164
-4.182890448454336 -11.837169302500845 31.023657360829457 133 141 140
-4.134072953517888 -11.586427501017015 30.687106728345256 101 104 103
-3.7752941806775433 -10.857649663910262 30.539253146779853 152 160 161
-3.6899067388912576 -11.9421671294541 31.16485425037599 133 139 139
-1.6106838444602982 -11.096127187024926 30.093085842614475 96 95 97
-1.4821984250814608 -12.263666500869263 31.079877179621917 126 134 131
6.600469628128792 -5.260810309502365 25.865535228287783 190 196 194
5.80197457526626 3.6264013699422173 22.397097207867116 29 29 29
7.281181715232362 -4.246390876530629 25.541533474388718 42 47 54
-6.302955482241084 -0.5398123437286124 25.98999703602616 29 35 35
-5.952162833817018 -11.643366019005896 31.211268895025317 142 153 149
-3.159718133899443 -10.325303944008015 30.2077106387365 121 127 127
-2.1094851412677826 -11.037775904067272 30.359251085246353 156 162 162
0.33046347608462767 -10.992165179558343 29.548230580787187 146 152 152
0.3977319816554666 -10.98917834525784 29.976362194623405 103 103 105
0.9481460580092317 -11.679937261642195 30.137980860558216 105 104 104
14.507557601574808 -5.385057092103816 26.246045639351877 33 32 34
15.17148397649506 -5.477676385323323 26.437141548991853 23 23 23
14.81346858168626 -5.463580957078368 26.32445955712354 24 24 26
-4.579459474295608 -10.919786086037565 30.58830869093656 126 131 136
-4.494488313833124 -10.449320252568588 30.499023447695514 164 170 170
-0.7472675646180639 -11.600731564925344 30.646094914898857 102 105 104
0.0649604075845438 -11.742860688478574 30.272302009379704 134 142 139
-7.154738339997931 7.032866208093568 22.75567707784804 202 202 204
-3.4716219617998805 6.879976335717263 22.34469875610871 195 195 197
7.010771440339551 -4.4418173564706835 25.62583961552522 192 195 194
-5.642037284384965 -4.430719249250685 27.978899601219148 56 64 61
-3.7682646761957637 -5.085725990695128 27.753223190926512 74 82 83
2.0529037656335842 6.707152549977919 21.72903105691299 130 129 133
2.647612620799146 6.646022993219763 21.672242995735864 182 177 185
-11.39071727723635 8.116156930285273 23.285610903632712 17 18 14
-11.067771580721594 6.421297784568993 24.167545947596007 31 31 25
-10.829344669808124 7.000692295078403 23.942436905598576 23 23 19
-5.998372962972944 6.922484881950773 22.64798106287439 190 193 194
-5.998372962972944 6.922484881950773 22.64798106287439 190 193 194
-4.10344823123615 -3.1097707570898314 26.920023591067224 38 41 44
-3.2324693747749538 4.1099939481175225 23.58705580403654 32 31 31
-3.097535685217392 -11.081106212013369 30.966892575770267 160 166 168
-2.116759182744559 1.3092357432806359 24.788638617722345 24 28 23
-0.63069100709069 -2.1934863897633288 25.88328552613601 30 33 34
-0.2129697057676856 6.742536312302391 22.152107078442576 197 197 199
0.20854937864624667 6.929809072608895 21.94950283492006 185 188 191
5.12222637608017 -3.922017716554642 25.812523413583804 42 48 50
-3.246666490278859 4.110239203401362 23.477294168228763 45 44 46
-2.185838050547301 3.5534327096944454 23.818540031962424 197 200 203
-2.1829949167867904 3.076353000084054 23.797485356470883 32 38 38
1.8281815786670126 -0.05562775621564792 24.83399748510174 56 50 56
2.618174943968997 1.1428994163881174 24.216174285194995 35 38 37
6.552739470081295 4.771235121909081 22.052444624013408 32 31 38
-6.140356454925528 -10.864806444333816 30.690293489339457 119 119 119
-5.454386558954829 -10.40090652830002 30.591548105292823 163 169 169
-4.1619265307860935 -12.137593777595315 31.05705589467409 137 145 142
0.041906180634090746 5.157535997069408 22.505053318602155 34 40 40
0.07285690134486668 -12.550036076883812 30.727932973786643 124 128 121
1.2217503550849227 -11.317021830398268 30.15026915848003 160 166 166
1.7987207365273836 -11.08072127833483 29.897123566682513 111 111 113
3.15195085205664 -11.399537271626958 29.573133868761644 109 112 113
3.479014839876144 -11.306586506046022 29.546015786880506 154 162 159
3.638521639203652 -11.500262984861218 29.673858926455217 100 103 104
3.638521639203652 -11.500262984861218 29.673858926455217 100 103 104
3.9039807857673297 -12.04097882415516 29.852164114871552 107 113 115
4.037313148019564 -10.589410308938843 29.27102219945713 161 167 169
4.097157677603485 -11.463211068392667 29.386941678896864 96 99 98
4.235582360170774 -10.476097344340547 29.15222810433248 137 138 134
4.761899799554355 -11.70294527139117 29.506973687685715 132 140 141
6.795316603930723 4.249074951539618 22.023963235048374 38 37 41
8.373629377070326 2.208564981113341 22.660318597698684 187 187 189
14.935199245467574 -5.824288423297833 25.618552288994927 21 21 17
-0.6290383053972866 -10.31499932679028 29.984121805344298 189 195 193
0.12052951264693801 -5.289189736762566 27.137133073755333 64 77 76
0.3486568101311956 -12.554486407340692 30.623747247101612 107 110 109
0.7310684718734193 -12.408759494110774 30.574222124291854 131 139 136
0.7506579275918795 -3.7405502376603907 26.53530143269895 195 203 202
1.475440215228248 -12.265843861892497 29.90550980165751 131 139 140
2.364867734290361 -11.894559028656923 29.87760750808746 135 146 146
5.882183729080304 -5.44914832990231 26.36625368878059 56 62 64
5.882183729080304 -5.44914832990231 26.36625368878059 56 62 64
6.1537539889503305 -5.195972051965428 26.244704533889134 55 62 66
9.707083442852149 -1.295337404212531 23.628186302490516 36 39 40
-1.6394863355234561 -3.6314643715947157 26.845593317781795 58 61 64
7.443668447795907 0.9683173672107364 23.457298252080218 31 34 33
-4.106763646438683 3.203162337524968 24.220028947897834 36 42 44
-1.564416000122359 -5.374529543523536 27.4911653553427 46 54 55
0.667228791945473 2.96271595297202 23.468488874772262 34 37 38
2.5498511377622743 -3.9385316807674258 26.132673133832096 52 55 58
9.836930482342684 -4.341017528266277 25.246558147837344 29 35 35
-8.163764475954874 -10.517807141238194 31.675744537809855 133 136 137
1.5251874474435465 -11.595177942448581 30.54529851039288 97 96 98
1.9494090086837486 -11.019504700555114 29.986158236511287 145 148 149
3.4325474643001317 2.5390738070033105 23.365799566211653 21 27 27
-4.126257460326416 3.6268742335988193 23.933859662281197 202 202 206
-4.750114050020502 -10.835266324792261 30.43277262489029 124 127 128
-4.512750564385807 -10.49533938716118 30.630109074488516 146 152 152
-2.920761667606954 -11.467270232202083 30.48870532613216 141 147 147
-0.21888808032832863 -11.603984991052009 30.360981821799633 98 101 102
0.06720691525574261 -11.503164818486173 30.34197022527442 152 163 161
1.635272876604363 -4.485762328282931 26.71777431826519 75 75 79
2.1489080507580582 -10.928214006576402 29.293102061715892 121 127 127
2.4411429738425237 -11.3948443738175 29.7132439342274 96 99 102
3.5505204389608562 -12.031999977934374 29.989026503966166 102 110 111
3.5505204389608562 -12.031999977934374 29.989026503966166 102 110 111
3.6336557635040347 -11.512725274689082 29.769900811893333 104 112 111
3.6336557635040347 -11.512725274689082 29.769900811893333 104 112 111
4.033037459907959 -10.533069863620549 29.13856671886906 174 182 181
3.8754032072141937 2.4107758582964376 23.439188155012385 187 195 196
4.268467382413677 -12.581048089359946 29.810053601341476 107 110 109
4.272446117404952 -1.908838452132807 25.335841998145916 43 48 53
4.229960552370935 1.6031006025690608 23.684343871769922 39 38 40
5.1313118153801165 -5.661045308646838 26.659132174925663 68 75 79
6.979814570283865 4.051099248310804 22.006954330529382 28 31 32
-4.088336192583405 -0.8441514202951604 25.87342393177888 193 196 195
-4.527109804206061 -12.34707801946857 31.827870432907517 169 172 171
4.975568359796001 3.225917175855508 22.634296513461535 32 35 36
4.975568359796001 3.225917175855508 22.634296513461535 32 35 36
7.866191944737965 0.43327207087698977 23.45422526507437 32 38 40
0.2006062946853743 -4.68664477586019 27.298991935159414 69 75 75
2.5948872910914456 3.345067390739366 23.177712814141202 180 188 189
5.154788983504568 -5.678680871212435 26.600505120992388 51 62 62
-7.843664784603395 6.97467245662955 22.582756472013813 191 187 188
-2.72543914017231 4.910548436304522 23.24625401047116 164 170 172
0.6982465573134994 -1.4389645310717585 25.663279972209935 23 29 29
2.0401754497535736 6.680775176817412 21.715910825299186 82 82 84
2.740594673102201 -3.7926442885557226 26.110312101933168 202 202 204
-4.116888652516627 1.4088071567698024 24.980029795544024 27 30 29
-4.116888652516627 1.4088071567698024 24.980029795544024 27 30 29
-2.4547228071215863 5.926895841433963 22.980278831690164 179 185 183
-1.6309076114246372 6.71751070266112 22.289101789994515 176 179 180
-0.6051771705458042 -2.1823969916941017 25.8860352515202 41 47 47
0.12422693888960888 6.727840586175513 22.020572295596168 149 152 153
0.20629837429756723 6.932518764109376 21.984291409005678 170 176 176
0.26119993268425795 1.233631301392861 24.45678987784755 168 176 173
0.7463515954903873 -3.2983314795905443 26.34527860941011 47 53 55
-2.4939204908094927 0.5743454350142965 25.09008152006082 19 25 25
-0.8142979973689666 -2.599566063217733 26.275495138325198 147 158 154
2.627586769804902 6.593745564817779 21.55320700382223 144 144 144
2.627586769804902 6.593745564817779 21.55320700382223 144 144 144
4.50466970373907 6.528281667962584 21.296864373325715 114 114 116
-1.0859032846692782 -1.9553164615049317 26.070933847844447 185 188 189
1.0604994624049848 6.699061902750458 21.83014902345956 160 163 166
1.0591108966895042 6.695517252390257 21.824925056561614 169 168 175
4.375479109396627 6.585992440718024 21.325079281923575 166 166 166
-0.9323461386730022 6.7716211679085685 22.020103309409713 171 174 173
4.938152775705448 6.576802185348543 21.311173418319807 84 80 81
-9.00511025494394 7.328076427503289 23.711381709391727 154 150 153
-9.00511025494394 7.328076427503289 23.711381709391727 154 150 153
-8.781319417701178 7.344475911959352 23.740292284536487 162 156 158
-8.32846551494425 7.310520115276707 23.6368620550259 190 185 183
-8.741466127797349 7.1782203151019335 23.05448001680098 120 115 113
-1.650129485366231 -3.5832746722925415 26.796852246493412 59 67 68
-1.650129485366231 -3.5832746722925415 26.796852246493412 59 67 68
-0.5653620412833179 6.5847631129909745 22.092062818850152 174 180 180
-0.3530861280326341 6.712215387042944 22.09833926121795 172 178 180
0.21179788547634448 6.759037804337357 21.99261196893965 178 184 184
0.7601847274298976 5.808880452957901 22.57593946887838 172 175 174
1.885028796947671 0.43966673710560183 24.5867852522325 37 35 27
4.682336979539377 6.363642833200406 21.433559656265054 166 166 166
-5.4103525228485525 7.106222741561546 22.452305827465523 188 191 192
-0.9339770780254047 6.77475004928332 22.030903921522 171 174 173
-1.068395875900699 -4.779657955479526 27.2375588208378 63 71 70
4.345788260024341 6.647205548005612 21.272792297298516 134 130 135
14.886520455321618 -4.545693401466816 25.287801598584473 30 34 29
-6.330393056255927 -0.618362721999381 25.87464470324652 32 35 36
-1.7943096283097677 6.802738391293699 22.09813947244105 185 185 187
-2.116113253688094 1.306244844621272 24.799285606669674 23 30 24
-2.1052098803064023 1.299784712678022 24.708206006074324 23 30 24
-1.7238074979161333 3.1026512788075387 23.965080710584168 177 183 185
-1.3870712920454167 6.761882084072701 22.149761979270217 119 118 120
-0.7366234542494322 6.746080578905671 21.976459225047403 108 104 105
-0.46788321313159276 6.723952078930473 21.914774487114144 182 181 183
3.1005222685095073 -1.1314799015265335 25.09274390963809 27 33 33
3.1005222685095073 -1.1314799015265335 25.09274390963809 27 33 33
6.019788771191106 -0.2119422511315526 23.95256818775079 34 34 34
7.915488252814743 -3.9982438217203105 25.25620289994603 29 35 35
-4.561071189964608 6.9615531645390405 22.590150248763056 182 182 184
-4.107322635299739 6.88935997956343 22.503457308012315 115 109 111
-2.042616217499376 -3.576372743444464 26.75575723417319 159 167 164
-0.596163770338988 -2.1892685761809476 26.035727159291223 28 36 35
3.961836977776801 6.696102501368492 21.30833609580971 154 165 165
8.866183938212632 4.077100467223854 21.573482981326848 11 17 15
-2.122018443855615 3.1109178441233762 23.784662906907265 16 22 20
-1.8438296381839128 6.749143273802367 22.118569922268232 122 123 119
-1.621850770564139 6.783962085351716 22.05461259012225 173 172 174
-1.7036382027982242 0.9076683359882077 24.823159811071854 24 27 30
1.2527203191915073 -4.937478127847282 26.78473308060105 71 74 75
2.6792309381750603 6.651993968254696 21.637169060899495 91 90 94
4.579328101624533 -2.1029620740776944 25.244054574728462 174 180 178
-1.0481446142572914 6.758894095620732 22.11091434554466 166 166 166
0.4866360358010004 6.6790362168421264 21.871311030089633 147 152 159
3.0609347741496524 0.7144306989467922 24.326363846128963 29 32 35
2.995170182935335 6.634089070918723 21.41695978275635 92 95 96
3.4788774656483 6.537808558975489 21.24639203077892 155 161 163
4.179043350387873 -4.826106826366181 26.126498199564445 59 62 63
4.111456954846352 6.494571030323086 21.402995286277243 162 162 164
5.884763831677952 -5.474570312705109 26.344940127162065 47 53 55
-3.4988666451904886 -4.861791600873363 27.465886812989755 183 186 185
-3.0049219736229857 4.053504852914224 23.619821450869953 175 183 182
-0.22526698666443465 2.7300978454662204 23.850306270385055 46 39 31
1.0423743301250572 4.309421554572682 23.02317210451233 23 23 23
1.324139313840606 6.59655177309557 21.840199237355485 182 181 183
2.0363027067521795 6.682201040833077 21.675343719381548 101 100 102
2.30056895847656 6.7134965525858785 21.61345744159509 111 110 112
4.849206349282103 6.563975889284095 21.26932888152802 110 110 110
1.4041330947066621 6.672178252440973 21.913903485107177 107 103 106
1.562435640056213 6.753114903950789 21.900802712771412 161 160 162
1.7840904154003874 6.670337793653895 21.823715110238485 104 103 103
1.8444774437893137 6.718858897127898 21.8331775626054 180 180 182
1.9166409613094708 6.652070221633289 21.66605402137916 183 182 182
2.6690247233068662 0.7031038594991812 24.32384034897644 165 171 169
2.4001152721110617 6.697752068104595 21.71329443649919 168 174 172
3.361904486366419 6.6146944604388365 21.461887121512376 172 174 180
3.826285991230541 6.514756208907122 21.48996698839404 102 101 101
3.826285991230541 6.514756208907122 21.48996698839404 102 101 101
4.177336723081451 6.477694666108436 21.42559903998616 97 96 96
4.191503307692845 6.4940149723680225 21.46511079218762 97 96 96
5.406556831634275 2.7835501641252427 22.78391444536244 20 23 22
5.38648528551707 2.7737606040597402 22.73386596153891 20 23 22
7.119917129926049 -4.4992209326623565 25.946048051457982 187 187 191
7.966175229471391 -1.7991300914843305 24.601623289680326 178 182 177
1.810978190709666 4.760134993490067 22.606674005379656 176 179 180
1.810978190709666 4.760134993490067 22.606674005379656 176 179 180
5.390692016658034 -1.6427263159067325 24.45883348023185 25 31 33
4.927080260232757 2.767461276201896 22.666442560424333 169 172 171
5.498484064370244 2.74856964731503 22.891178638281534 18 21 20
5.498484064370244 2.74856964731503 22.891178638281534 18 21 20
7.0186591531708595 0.13370919878286278 23.61421765436165 20 20 20
8.442053192103593 -6.03979443419783 27.09358476070625 35 40 47
7.00453729441411 3.3586652543468043 22.1145348440424 20 20 20
9.693047917401225 3.057920349133785 22.053871863273812 22 23 19
1.2394097429852051 0.29033337143978133 24.8196186435139 185 191 189
5.851880696541994 0.060411961593671605 23.843680840969697 27 30 31
7.461372063394256 -4.324798629551334 25.972465004973838 31 34 37
-4.63844152488809 5.359555861481359 23.022349181453606 27 30 29
-1.0466283343146547 6.774492408524984 22.065680390034938 178 181 184
-0.8989428632143528 6.850604735254902 22.015221653374493 112 112 114
2.632840046156728 6.635496203024311 21.62260384392206 150 149 158
3.598331634037511 6.501110037046454 21.528920024784146 99 95 100
3.785235062169201 6.579839489700181 21.477058357650446 165 161 164
8.36263805792366 -2.390067211803346 24.653769036615923 184 190 188
-8.236342003842143 7.083163022483087 22.80275476396174 198 197 199
-8.236342003842143 7.083163022483087 22.80275476396174 198 197 199
-6.629293543046943 -10.357392823458298 30.235961256631512 91 91 91
-6.569152797980701 -10.65250758147669 30.7262356783623 111 118 112
-4.1368916954046115 7.091777798827888 22.51213957896158 185 188 189
-3.4395294868694752 7.041609401914991 22.390658498378674 183 182 182
-2.170189337570065 3.536674846747949 23.802252704889995 176 182 182
-2.170189337570065 3.536674846747949 23.802252704889995 176 182 182
-1.8511800819130024 6.777642781213039 22.193508723419257 120 119 121
-1.499852901335408 6.836533570950693 22.204903673828166 126 125 127
-1.4428262851837759 -4.693931649675402 27.17616919821145 60 71 69
-0.5325875450215142 6.652120293859399 22.18467746028966 178 181 182
1.8305574761608234 6.682051580814783 21.733076456198404 169 172 175
2.6367922777470914 -1.549777887312909 25.070981187766492 32 38 36
2.2429858683993484 6.752247542825667 21.708051727346 165 168 167
2.6787804206591703 6.638663810290338 21.56080622824566 106 105 105
3.0102509232471 6.519735387569088 21.63887165843911 168 168 170
4.472147440208824 2.0259490240067572 23.1155556587817 152 160 157
4.472147440208824 2.0259490240067572 23.1155556587817 152 160 157
8.039543553955435 -5.782667437151571 26.094948685704818 38 41 44
7.259275195177175 3.4208798205161184 22.605915730143277 22 22 24
7.259275195177175 3.4208798205161184 22.605915730143277 22 22 24
7.499603078052716 2.757334718446074 22.758927933377137 21 24 23
8.131962584195964 5.04604248552365 22.204420352080287 18 21 20
9.659610612951571 1.2799032432373711 23.305196534300528 18 21 22
0.1511025124449485 6.6969911486334714 21.88754208594319 111 107 108
1.312744953452946 6.594540846823058 21.751882477613574 166 165 165
2.170335415596205 -0.04628145128953079 24.578408853803715 184 187 186
2.9527561545906944 6.6474118196520005 21.524390315248816 171 171 173
-6.38265579495669 -0.5942096511650163 26.16863557711131 34 40 38
-3.657911053814959 4.005179579555077 23.6473101857367 22 25 26
-1.6706174340436624 3.6158210831890756 23.923486022169335 27 30 29
-1.6706174340436624 3.6158210831890756 23.923486022169335 27 30 29
1.7345424101375806 -2.3420327748734517 25.63211034834246 27 33 31
3.0835847394537197 -3.324032317078199 25.660869003532074 185 191 189
3.680864386569058 -2.835107912265588 25.27675192489516 49 48 52
3.886026262926551 -2.610807504063121 25.160441953438564 45 44 46
3.886026262926551 -2.610807504063121 25.160441953438564 45 44 46
4.661512111267957 -2.0873971725743377 24.730740571819904 37 36 45
5.102747963775178 -3.851982774366112 25.528406726150592 40 51 49
4.925990976808482 -3.7808824363036795 25.02970149485795 33 39 37
7.480438103567715 -3.524888227839276 25.07763621877184 26 32 32
9.37118557299096 -3.1569059012082126 24.680773163240215 168 174 172
10.049637708169127 0.34051945585389004 23.66234670639795 16 22 22
2.634428694737911 3.3727037670550137 23.206534819959078 189 189 189
3.1735037434121733 -1.5898838955804349 25.421034802596573 192 195 194
6.755791946443863 -4.276136234677671 25.75847357433146 44 44 48
7.979355463860423 -5.676448937547772 25.844198804231997 39 44 49
7.776714272471164 -1.7824951140794385 24.228072929032408 191 194 197
-4.976509588639754 6.97352861473599 22.55834638681419 124 120 121
-4.83021651634098 6.951339292086056 22.51630352423262 113 109 110
-4.169233838033068 6.902390196962338 22.374708593321227 179 178 178
-4.1641069300977325 6.902637985274079 22.369004548795576 179 178 178
-1.755724129721497 -10.424613938384526 30.031686585923048 84 84 88
-1.1587598987545387 -5.253617413179186 27.404985400525934 47 55 54
-1.62818428254286 -10.53497928052642 30.31083850295609 107 103 108
-1.3127721849163467 -10.919974529566295 31.220242078145272 103 103 103
0.6629477921978532 1.188634470927285 24.473027290622923 21 24 23
1.5237231769255895 -4.593672883009335 26.839982626360744 70 73 76
1.5237231769255895 -4.593672883009335 26.839982626360744 70 73 76
2.1397546944359136 6.582158629219086 21.585471402678778 115 115 115
2.2066557271088687 6.468827494225471 21.480094503476796 166 169 170
3.1526542256322485 6.609820628784499 21.42813045340056 179 178 182
3.9608994203358066 6.508133857858435 21.38267618691469 170 176 178
3.9608994203358066 6.508133857858435 21.38267618691469 170 176 178
5.040002405379324 -5.553231895659229 26.378274205994906 42 50 49
5.133325624399789 -5.637012740339552 26.469022939288166 48 54 54
-5.7789559690817525 4.808920060740571 23.899934124228764 19 25 25
-5.7789559690817525 4.808920060740571 23.899934124228764 19 25 25
-6.549122698913848 -3.4478504561507592 27.480660033731976 40 46 46
-4.107706846245245 3.2143022268827823 23.957063206535263 29 32 33
-4.107706846245245 3.2143022268827823 23.957063206535263 29 32 33
-3.133390281590791 6.871286159833645 22.29362055187365 196 195 195
-2.463164585735031 5.924276063186608 22.715870116897953 193 193 193
-1.451812971841868 -5.288266352682598 27.401637684797862 60 66 66
0.7128756536353689 -1.4598993942270087 25.660912576203042 29 32 33
0.7128756536353689 -1.4598993942270087 25.660912576203042 29 32 33
0.7450196337333147 -3.2830088085269318 26.45563310941541 43 49 51
1.4467713933463342 6.553058975503223 21.660145723006853 177 176 178
1.656104039717804 2.0922606347983463 24.051305778670116 16 19 18
2.759988933662369 -3.810598274186549 26.269064051598466 169 175 173
2.759988933662369 -3.810598274186549 26.269064051598466 169 175 173
3.113778845811839 -1.1280013155556983 25.15955482557015 28 32 27
3.314293925743776 -5.526243698879824 26.915335612538474 62 68 68
4.003405833015769 4.414979564156214 22.574553857534383 16 19 18
3.9571806378538024 6.595538534924192 21.326888751809577 177 180 181
4.108547028821849 6.494702846162971 21.362432779311252 186 186 188
4.575543482032907 -5.5184114638983415 26.74352638274828 47 55 56
4.705744222703659 6.542854172677333 21.300411955216838 88 88 90
4.705744222703659 6.542854172677333 21.300411955216838 88 88 90
5.877557818388323 -5.441631917366155 26.275854945443964 55 60 65
7.891465038962996 -1.3417487649580602 24.292805521360513 27 30 29
-3.398703998829158 -0.08271514062361204 25.638698514311926 202 210 209
-7.691436573459516 7.11883403443367 23.007882176340228 135 131 134
-7.691436573459516 7.11883403443367 23.007882176340228 135 131 134
-7.203961507977005 7.062390836815472 22.933383976487388 195 198 199
-7.203961507977005 7.062390836815472 22.933383976487388 195 198 199
-5.478921497529589 6.957546258932205 22.573652414187244 203 199 202
-3.0632154756666243 6.804062880372549 22.227150425705492 109 108 110
-1.475703683800543 6.772672196886316 22.012038328001196 143 143 139
-0.2264139562106377 2.729291987165182 23.856651151865297 110 91 89
3.599793991821014 -5.268544735641346 26.82138171930243 56 64 63
4.225103760660334 -5.282158296152065 26.482029583165254 54 62 61
4.210911359514713 -2.6088389972760413 25.46492416983326 41 47 49
4.210911359514713 -2.6088389972760413 25.46492416983326 41 47 49
14.849113481765844 -5.340761395972061 25.467454808679438 12 12 12
-3.606024998479541 6.821452494589916 22.188864519843854 181 181 181
-3.0659423103153745 6.808488519369959 22.24272948985654 115 110 106
-2.7507990118310404 6.810353344045082 22.20731543745892 148 145 142
-1.064722038047451 6.6166902795779 21.913441668220692 133 133 135
1.5429677280971121 6.604717651038947 21.79697108454082 163 169 169
4.337896981017021 6.609027873581943 21.130967961592805 139 139 141
7.917550181671024 -3.998424368855076 25.26214740040167 29 37 38
14.300205437346953 -5.0773421434540245 25.470767607414814 36 42 40
14.300205437346953 -5.0773421434540245 25.470767607414814 36 42 40
1.0224090954758518 -4.01157535717273 26.64468965388163 61 67 69
-8.120038360528657 7.058079477751239 22.66372212195979 119 119 115
-7.990321431867892 7.033066946016031 22.590658456392816 119 115 116
-0.6960372149548096 -3.5976020700538385 26.21244811877075 71 79 80
2.9107882440832555 0.6627204308510624 23.47946149121667 33 33 33
-0.8914390515030948 6.826612929607237 21.973386193549505 110 110 112
-0.27825163161065386 6.759363623177949 21.93062132260411 174 177 178
-6.345562409705683 3.791088390721173 23.90037521757494 25 28 27
-5.692823090688034 7.0171269249843435 22.580894357744516 188 184 187
-5.692823090688034 7.0171269249843435 22.580894357744516 188 184 187
-4.891185104619289 6.967843712686972 22.526780655101188 201 201 201
-3.487501150519443 5.134806855072298 23.580946147138235 32 35 34
0.26986026018109444 0.8033117882191123 24.318410720638326 22 30 27
0.45916531693424195 6.715101046890803 21.950631874427856 106 105 109
1.411107306564541 4.1264416219158155 22.88976629594793 167 175 176
1.7726140004100508 6.639834335805518 21.741114011818308 104 103 103
2.201863281901408 6.647589754585521 21.60853478810381 177 180 181
2.6168941007510624 1.1322324916795967 24.053238944080412 21 27 25
2.745447278942856 6.751590860531851 21.493602093907292 172 178 178
3.306251043072427 6.556371991376762 21.592150940411862 176 175 177
4.540820204790831 6.576536736464366 21.272303736506643 88 88 90
5.760666851500735 -0.9640185663084697 24.40294180879701 25 28 27
6.435593416222919 4.133500284833746 22.37247617321154 182 178 181
-5.099636633895441 6.938615494063321 22.4334483860241 184 180 181
-4.689352484383086 6.960423549292595 22.395666195266852 172 172 166
-1.7918104916906774 6.690663393711802 22.148733735146156 186 186 188
0.41497885022455716 6.861438257642229 21.81679317977927 171 174 173
2.9906038650162823 6.628375359173829 21.39031481248623 94 94 94
-6.97291616606002 7.0918323811067 22.94215323516016 202 193 196
-2.583851364911226 3.94430799340953 23.662869220443877 31 34 33
0.14933536521411137 -4.219627372158968 26.322991364592344 80 86 88
0.14933536521411137 -4.219627372158968 26.322991364592344 80 86 88
-1.7059493374359933 0.8791359425995092 25.264117098025352 32 38 38
0.23235836636740617 0.7806774653483644 24.498642287668126 37 40 39
0.23235836636740617 0.7806774653483644 24.498642287668126 37 40 39
3.644769180369575 2.3600344592790568 23.292026946263693 42 36 38
5.719955699171339 3.479006116728929 22.780073283675566 26 25 25
7.687228795369201 2.8945872397510066 22.789137770399538 176 184 185
0.6997334640369121 -1.0249894099527548 25.393754119616357 178 181 180
8.710924109823562 1.5477265474746338 23.033267458141925 26 26 28
-2.986681825775393 4.5922267861225965 23.21208475419754 193 193 195
-3.8679760650997586 3.834782882212433 23.754958788080305 37 36 38
-3.8679760650997586 3.834782882212433 23.754958788080305 37 36 38
0.05125247212101274 -2.9901819669754914 26.269338734093587 60 66 66
2.083550948596475 0.2015931352715938 24.599762278805603 48 37 43
-8.521226242234338 7.1564302647494555 22.950690347250816 210 209 209
-8.394546260270838 7.134807751988674 22.935867736672904 188 181 175
-8.42634946847374 7.007567405739977 23.02777498457254 207 206 206
-6.327974002345947 6.89513235471842 22.74602032032607 194 193 193
-2.1124515714958836 -1.3544864509765575 25.967768216718675 45 56 54
-3.1950728259622148 -11.090649391034775 30.116824449909664 115 121 121
-0.06747150232013593 -1.776444116646575 25.87587287635948 46 54 53
-1.024471184698796 -10.845938639197644 29.634517438697788 117 123 123
0.11948158300238702 -4.510231582905316 26.841925367928507 72 83 81
-0.20106157883628234 -10.980885041053988 29.746867986144593 105 111 111
0.04617873212993306 -10.810375129805767 29.56503383339167 105 104 104
0.7416225379825786 -11.318033931078155 29.659876313037234 111 111 113
0.9137872488407122 -10.552660978177887 29.311881290588058 129 129 131
7.245955691796974 3.4328368024709306 22.652387812072533 23 26 25
-4.848664623712653 -1.6184719378202455 26.221924738914268 40 46 46
-4.848664623712653 -1.6184719378202455 26.221924738914268 40 46 46
-4.533697196200593 3.6041329092178502 23.987462767949754 25 29 24
-4.585872996624349 -5.117837429417146 27.641624390716903 67 75 74
-2.2147130803612773 3.001565001086397 23.68529576633083 25 28 27
-2.2147130803612773 3.001565001086397 23.68529576633083 25 28 27
-2.1811994558968766 3.124719977110931 24.051841612706795 22 28 26
0.2686685263850394 0.8022650647744051 24.43271843206489 25 31 29
0.2011506890102921 3.4326428690267483 23.461608421669656 25 31 29
0.2011506890102921 3.4326428690267483 23.461608421669656 25 31 29
6.603836242492023 -2.6018128099092506 25.182178017003036 25 32 26
7.252197146877887 -4.4900297421775 25.747045275533697 39 41 51
-5.5841493016690364 2.8050479553751755 24.438864993791714 32 31 31
6.252141325878754 -0.6176045545054218 24.421869290516675 167 170 171
-3.685289037131834 -0.362762192835815 25.804770072101864 195 201 201
-0.8818074838266338 -4.659002831110195 27.158608962853595 61 69 68
1.4682810792577317 -0.283367000483651 24.86309068459706 188 191 192
-1.8180276844698178 6.715064302569616 21.982493300943183 128 129 125
-1.066775358132222 6.6895771460611435 21.80994528061261 132 131 131
-0.3767825951968424 6.595767246175509 21.810304320470884 125 132 126
0.22856108400024522 6.8164410686192545 21.61826243942029 171 174 173
1.6439329289448703 4.443793193948981 22.884783473701102 163 169 169
2.708292105035737 6.540237994883632 21.277706479835828 179 179 181
2.708292105035737 6.540237994883632 21.277706479835828 179 179 181
4.466738726293517 -4.999170140085366 26.411044976111228 53 59 59
-5.940037930227611 2.0101666558151083 24.971307395946432 179 182 181
-1.7357544328403645 3.5292682384631573 23.782992810859547 26 26 26
3.0400450863178623 2.8969411238792935 23.373344863430763 177 180 179
7.092495266352479 3.3546092688267106 22.18815735471659 25 25 21
9.954774299109998 3.2046807027141093 22.64321864711069 20 23 22
-5.166200930754345 12.126338017109939 21.566855435783932 40 40 40
-7.275232021985066 7.099621519937827 23.0809665490431 181 177 178
-3.854306925220448 11.460850438199477 21.0960942347387 39 39 39
-6.540842639678482 6.9567915553444575 22.786543033462518 156 149 143
-4.680202241049814 11.122047155566165 21.230556917961458 46 47 43
-7.033438338220333 7.099522987571316 22.99914453830909 177 174 171
-3.089405098898956 11.289522689353085 20.7949657536801 54 54 54
-2.7917323045770335 11.52627511405763 20.605264738756656 48 45 42
-2.265594304732966 11.415915545806405 20.527694793298153 60 63 62
-2.265594304732966 11.415915545806405 20.527694793298153 60 63 62
-1.2279723912118143 11.299077646774672 20.472914605087226 65 65 61
-7.948156119538063 7.134951247560201 23.15812290286314 173 172 174
-3.2377078128015877 11.725972921299594 20.940114647070974 56 60 55
-2.684938589416174 11.521504048073004 20.61403345497694 62 63 59
-1.6129158853452628 11.343763039305248 20.465232834767807 51 46 42
-1.6129158853452628 11.343763039305248 20.465232834767807 51 46 42
-1.2947984300256106 11.72114931939541 20.306478671589016 67 67 67
-1.2805005805408587 11.649184068903986 20.43253576091797 30 27 24
-0.7235409176182757 12.248367530382465 20.222020411356674 67 68 64
-0.816925454617489 -2.5725948826211913 26.096746017891185 176 179 178
4.04435809835468 6.643869794651938 21.500737005543304 116 119 118
1.9434236085993157 -4.032107694865249 26.309015594992324 67 73 73
7.8547765042583295 0.46246766769930187 23.45237149851992 16 22 22
7.8547765042583295 0.46246766769930187 23.45237149851992 16 22 22
7.562631290961743 -3.555593182074648 25.337927789749067 29 37 34
-7.044623244941678 11.891845976493958 21.537423252032852 58 59 55
-6.27922776171283 11.810582986778893 21.457686996007702 42 42 36
-6.27922776171283 11.810582986778893 21.457686996007702 42 42 36
-5.720124377778027 12.31710272771115 20.96736611377762 37 38 34
-4.983300922214275 11.443372676262086 21.851922589996217 47 47 41
-4.340954501722211 12.147814511587034 20.793453691257575 45 45 45
-3.96804037167023 11.163777655167072 21.30333329645802 55 55 51
1.5208492582163364 6.663826228135208 21.684559495563853 151 157 159
1.3642967778373694 3.710152992604816 23.015314886726816 23 30 24
0.30365808821486956 -3.687062992152545 26.32140505860089 60 71 71
2.668331400248445 -1.540054583368104 25.153114771365814 27 33 31
5.840275445116465 3.6288863605108843 22.609030322709618 22 25 24
7.1391636792631825 3.4051524565057782 22.410714736047403 27 30 31
