ply
format ascii 1.0
element vertex 679
property float x
property float y
property float z
property uchar red
property uchar green
property uchar blue
end_header
0.8382753430646263 -0.01275141227035842 -0.3890971903010818 165 165 165
1.0940274778142514 -0.00996172246474941 -0.4007489128971949 96 96 96
0.8953328334545867 -0.01549739245194881 -0.38737369226023455 27 30 29
0.9600080637157966 -0.016465834528084516 -0.3905206916423716 161 172 168
0.9606224929480585 -0.016291635651322297 -0.3915917704884382 161 172 168
0.9654977458178841 -0.01633822230779883 -0.37849457459349617 47 47 49
1.093287294477221 -0.016755369759375693 -0.4005331622468531 100 103 104
1.093287294477221 -0.016755369759375693 -0.4005331622468531 100 103 104
0.8937229848115354 -0.020548780826609898 -0.3775103058531043 177 183 181
0.9017826828974839 -0.021952652561626824 -0.39065070682031455 31 30 30
0.9017742414147066 -0.021951953840144187 -0.3906517700347785 37 36 38
0.9715989530789552 -0.028851743243784908 -0.39548112054014484 185 191 191
0.9715989530789552 -0.028851743243784908 -0.39548112054014484 185 191 191
0.9606373028933343 -0.028812507416420764 -0.3905262605463937 173 184 180
0.9049759982169511 -0.028908161288460483 -0.39022156396214497 32 28 29
0.9103340438908762 -0.030523705355807226 -0.39066513862167507 27 30 29
0.9578705391148177 -0.032423998576348166 -0.39135257999322515 34 40 38
0.9488200235919174 -0.03388339453381062 -0.3789538965827149 186 189 188
0.8611555346262074 -0.035689904816330935 -0.3895360874707505 27 31 26
0.8595521094353391 -0.03672765107120065 -0.38544855295023883 28 32 27
0.8388461711821288 -0.03715821332625655 -0.3888077194035962 129 129 133
0.9576764017074739 -0.04150840955767787 -0.3971693065318094 36 39 42
0.8912926785193779 -0.0423689807940609 -0.39026878237426366 18 21 20
0.9924963273449624 -0.04791470254307686 -0.390775177955539 174 177 178
0.9365076911493966 -0.04781182084528206 -0.38987393853683294 148 159 155
0.9365624512666824 -0.04785814120005673 -0.39011179364945264 153 159 157
0.9418782989429323 -0.04811577594226865 -0.3906635245970041 168 181 176
0.9424240096895189 -0.04827707572601509 -0.3913579743809347 179 182 181
0.864959883235398 -0.047343582928841416 -0.38723344621137445 27 27 27
0.9421694484391274 -0.05116699420182969 -0.3967138611644295 174 180 178
0.9603085542417954 -0.05134997571513121 -0.3779095861072118 25 31 29
0.9302688858976065 -0.05308457177490595 -0.39094184011281186 154 155 151
0.9335034366490221 -0.05648096825730603 -0.3903831580035453 32 28 31
0.9293651796877609 -0.05687248818083382 -0.390589986469053 148 152 147
0.8781366312397278 -0.05673034353457668 -0.3906666044084868 30 29 29
0.8781366312397278 -0.05673034353457668 -0.3906666044084868 30 29 29
0.936596225651814 -0.060142034258523804 -0.3904032113528343 168 176 173
0.8672124414800957 -0.05748364327672341 -0.3907965696020367 24 23 25
0.8753437491187371 -0.058414395036125735 -0.3889525360817226 163 171 172
0.8700952459796494 -0.058299451674418044 -0.3898642193331939 158 164 164
0.9277251351271858 -0.0625139300543698 -0.3899961140540026 18 24 22
0.8708705894022992 -0.06096343385050007 -0.3872065471342622 29 28 35
0.8669166781706862 -0.06164449480880823 -0.3906381321672478 161 169 168
0.8748099895401968 -0.0639171496833106 -0.3950404776261941 23 26 27
0.9246690037938128 -0.06795415247517 -0.393587080634327 163 169 167
0.9246690037938128 -0.06795415247517 -0.393587080634327 163 169 167
0.8627846633197769 -0.06455395781984778 -0.3846422312679917 29 35 35
1.0160410117808263 -0.07635487308075575 -0.40188873704962647 36 44 45
0.9246158143292831 -0.07350500916609366 -0.392359177552344 28 31 32
0.8986353639411583 -0.08058261316722565 -0.3904596999993185 160 159 163
0.9762929531113136 -0.094681578181207 -0.39033854371252735 34 37 38
0.9169432044827094 -0.09731484478901088 -0.4034017230619101 24 27 26
1.003407327687043 -0.16188590623393972 -0.40950509479832853 28 31 30
0.8344750158899584 0.06950008414809268 -0.39069557865530247 187 187 187
0.838659980556196 0.048137120172680695 -0.38816827654518277 169 169 171
0.840024550061486 0.013534155600681738 -0.40281076454385456 163 166 167
1.0105011973748768 -0.15624653876058686 -0.3961286297476588 21 20 20
1.004656550653337 -0.15322047669174366 -0.38733699045090353 18 21 20
1.001608179170459 -0.1538515200890961 -0.39012660142218414 28 34 32
0.8370609447140113 0.092467814311383 -0.39112276060610235 140 140 142
1.0827270276695897 0.11663596050856563 -0.3927856935530656 94 90 91
0.8888958089021385 0.0874110314212119 -0.38747460057132865 190 196 198
1.0955496855658127 0.11000429686001006 -0.390542502711081 142 149 143
1.0831118614443964 0.10836766211323147 -0.39351005245810317 111 110 110
1.0831118614443964 0.10836766211323147 -0.39351005245810317 111 110 110
1.092663537739969 0.10785671117483533 -0.3941683059943789 142 145 144
0.9761219301576091 0.08855410056675399 -0.38691757407626365 189 200 198
0.9519120283653506 0.08293846354233032 -0.3880778338484299 40 46 46
1.0822012207028109 0.09907498532793806 -0.3910931853780572 153 156 155
1.0078216943707337 0.08934688677571014 -0.38777124950113906 68 78 81
1.0841024730324782 0.09872922256546739 -0.39148507662756055 158 158 158
1.0939502610223633 0.09713816788417919 -0.39311184562508494 149 152 153
1.0780113083853475 0.09008988417422006 -0.3951022346383065 192 193 187
0.8371932773425553 0.06009428106836143 -0.38689413861352695 189 189 191
0.8371932773425553 0.06009428106836143 -0.38689413861352695 189 189 191
0.9971323299778972 0.07277369947973253 -0.3872059276689946 187 198 196
0.9915191115887663 0.06981555056603903 -0.39056141768994723 191 197 195
0.9838477948492329 0.06417648766304657 -0.37679366156446414 49 41 38
0.9838477948492329 0.06417648766304657 -0.37679366156446414 49 41 38
1.075968569393193 0.07128813176070682 -0.38357790616716364 84 84 86
0.8607798297630938 0.047079105752953126 -0.3884599495244948 30 33 32
0.9148799581757165 0.05114281936981427 -0.38797675261241116 183 189 191
1.0080878903282233 0.05182818123682108 -0.38884525473901926 57 69 71
1.1012884279335184 0.05903856194886302 -0.39422211803543944 128 131 130
0.9558281919038709 0.04639314513661693 -0.3871260271057764 51 51 51
0.8375648493025982 0.03547436705650397 -0.387001167854546 140 139 141
1.093916579763889 0.05419746901158807 -0.39372077387913446 105 106 102
1.0869277337673884 0.05188683160826286 -0.3920521951781939 154 160 158
0.9550858930798971 0.03406215447786497 -0.3793663480027938 45 33 33
1.0942714947211858 0.04175404774321496 -0.39347533956052966 94 100 102
1.09798648531315 0.03569139589777288 -0.39230653979188795 133 141 140
0.9481665406334159 0.026635207576681617 -0.3792809163092939 189 197 196
1.0788775747990822 0.02861204185175403 -0.39234150464870404 116 116 120
1.0788775747990822 0.02861204185175403 -0.39234150464870404 116 116 120
0.9465527960139436 0.020761423961645143 -0.38797140825827625 187 195 192
1.0991031477537525 0.023726839293650694 -0.39261612844650173 136 142 140
0.8718635941685896 0.010092953581312762 -0.38081444597513353 191 194 195
0.9309250992460901 0.008688358695046193 -0.3868930862880122 176 184 181
0.9309250992460901 0.008688358695046193 -0.3868930862880122 176 184 181
1.0791110506922341 0.010720750533254409 -0.3924256011950926 106 109 112
1.0978411561932553 0.007150023078110649 -0.3940344255305386 100 103 106
0.9914815678678464 0.0034877487652925066 -0.3883558854766977 60 56 59
0.9221135629844984 -0.010905226200743095 -0.3883425645317704 31 31 33
0.8383519735970367 -0.014653722554773421 -0.39031830634225545 174 177 180
0.9521497015365009 -0.012216972349392105 -0.37923742364226676 39 41 47
0.9063837488396427 -0.026940959333452225 -0.3882503613223929 178 184 184
0.9063837488396427 -0.026940959333452225 -0.3882503613223929 178 184 184
0.8948502224103326 -0.027497012785826263 -0.3804701662544918 159 170 166
0.9025219346645829 -0.030571864494733564 -0.3904102903047022 150 158 157
0.9741585522519138 -0.032220302747211195 -0.3873160916756388 52 55 58
0.9224435198066351 -0.041782737726989844 -0.3902164248618323 160 164 159
0.8848564989284373 -0.04257776864409274 -0.3868922608920814 178 181 180
0.9030144255077444 -0.05447143505814572 -0.38587071483937335 20 27 21
0.9405774578438371 -0.06089893752754787 -0.3835050807266708 30 33 34
0.8856043791991464 -0.06804779213656159 -0.3876622699347247 180 180 182
0.8888819319896748 -0.069118114028084 -0.3991646855797019 161 167 165
0.9740916744819359 -0.07526403528366309 -0.38617312830076006 37 42 49
0.9123330228121068 -0.0781054960376106 -0.3909022695748202 23 24 20
0.89513275093737 -0.07686335609612475 -0.3879655950200672 29 32 31
0.8964484873002018 -0.07738528099108632 -0.3922559418736322 27 30 33
0.8985472343182489 -0.08043590040464393 -0.38824649954325624 177 180 181
0.9990972176321117 -0.15399322133502222 -0.38361312609145104 34 34 34
0.8370609447140113 0.092467814311383 -0.39112276060610235 140 140 142
1.0879000109138335 0.12388931579988213 -0.39640740005756575 161 167 165
1.0879000109138335 0.12388931579988213 -0.39640740005756575 161 167 165
0.9103785454662164 0.09359793625849132 -0.3916878873676192 44 50 52
1.0912489072424572 0.1157152435737857 -0.39672095516020195 94 100 100
1.101169264546781 0.1162216747542198 -0.39703452941342315 147 155 154
1.1036731380242841 0.11389018897955325 -0.3996523966508199 142 153 149
1.0070303168645847 0.08153739740188276 -0.3914645102958387 74 82 83
1.0070303168645847 0.08153739740188276 -0.3914645102958387 74 82 83
0.9297625413868855 0.06787990365869148 -0.3880023873193916 184 192 189
1.0802887797037866 0.08439410887064352 -0.38352679186498817 86 86 86
1.0890586643807794 0.08450942270714863 -0.39623398804289767 152 160 161
1.0819124377466058 0.07637565343549563 -0.39672599842929 121 127 127
1.0819124377466058 0.07637565343549563 -0.39672599842929 121 127 127
1.0878548179305356 0.0732145573509681 -0.39731229425988746 94 97 98
1.1009410425002972 0.07393627395747986 -0.39583932625649637 104 112 113
1.090853190056237 0.07169759927870957 -0.3974844691775567 154 162 161
0.9219613090702824 0.05219496636059124 -0.39126277240681784 30 36 36
1.107867058757498 0.06536625946835713 -0.3996147378030864 132 138 136
1.0845610003922321 0.0631876133659941 -0.402704579122644 190 197 191
1.1116218864317273 0.055932512838196335 -0.39862938371926887 122 125 124
1.0879808740118309 0.048038831846592654 -0.39715974978032614 151 154 155
0.8376337226443381 0.028586147621559185 -0.3903180243695675 118 117 124
1.0837039839157856 0.0400534975526106 -0.3961360418734669 154 162 161
1.1074101106677443 0.03864506359206224 -0.3994156881554651 97 96 96
1.1009720740969557 0.03550921498484374 -0.39978576803289684 102 105 106
1.1009720740969557 0.03550921498484374 -0.39978576803289684 102 105 106
1.0929204192977062 0.02979501680316398 -0.3955009854591545 107 107 107
1.0818575902990983 0.029569665193472577 -0.38303558051141173 102 105 108
0.8727991884175238 0.014819891437156476 -0.39254610488381975 27 30 31
1.1014125691518053 0.020470386288839904 -0.39623675884939813 136 142 140
1.0997349395675744 0.01910613236214835 -0.3970510696413298 101 101 103
1.103549186781507 0.018302827271472085 -0.39766933691749434 121 127 125
1.0971563849846826 0.017091297318335627 -0.3970081652771905 132 140 137
0.8756438398911922 0.006276616127133727 -0.39141501636206866 177 185 184
1.0888932323558347 0.013018167768853643 -0.397952415797381 157 157 157
1.0829604919153681 0.011347713252352553 -0.3971468676577396 92 91 93
1.0797757593732122 0.009178818940820059 -0.39302241151870426 97 97 97
1.1054271809513088 0.009266183606682292 -0.39459173053423185 87 90 91
0.8378684732098235 -0.0018086648012543372 -0.3900206470204811 186 186 190
0.9549338973292542 -0.00457675698029955 -0.39229885045930435 38 46 47
0.8987007460884959 -0.020414542495400954 -0.37994494920377253 56 47 54
0.9800918541751568 -0.03583875336409094 -0.39132177505824906 190 196 194
0.8384073729120214 -0.0343681378762494 -0.38764367324764837 74 74 76
0.8385666358756807 -0.034735508168290755 -0.3903457521196762 103 102 102
0.9903213250660301 -0.04450712246460049 -0.39185445497299837 46 51 56
0.9984161452121987 -0.05205733388911258 -0.3928399388272177 47 55 56
0.9984161452121987 -0.05205733388911258 -0.3928399388272177 47 55 56
0.9823064071147183 -0.05991641270270186 -0.3779291836911745 40 45 52
0.8926575813982721 -0.07387914464501413 -0.392326662188584 174 177 178
0.8619150219631878 -0.07523774841599924 -0.39353051527092475 28 31 30
0.8619150219631878 -0.07523774841599924 -0.39353051527092475 28 31 30
0.979496899260476 -0.08605649575132095 -0.3975719180122706 28 34 36
0.979496899260476 -0.08605649575132095 -0.3975719180122706 28 34 36
0.8367523750917971 0.10986768808192618 -0.38990213369221716 118 112 118
0.8367523750917971 0.10986768808192618 -0.38990213369221716 118 112 118
0.8365566153535331 0.09623618194561967 -0.3882904019883255 141 135 137
0.8380272874578728 0.03738699132618635 -0.38677113080690406 128 124 129
0.8839590655157276 0.019449330408371327 -0.3869135544288653 182 188 188
0.9032362353977178 0.007220179914395012 -0.38916184974201434 20 26 24
0.8380882843777824 -0.021397572146635846 -0.3848908356425315 192 192 196
0.836135973407525 -0.022982524912083246 -0.3869936421226892 181 187 189
0.8851838677642287 -0.011073940359423006 -0.3912446123815024 17 20 19
0.8948072216391882 -0.03317783951150425 -0.390394831485039 21 24 23
0.8950247541182733 -0.03311029706845365 -0.3912610045041989 21 24 23
0.8911250280912012 -0.03688381195776832 -0.39091416126417555 155 163 162
0.9226532058440822 -0.041885554802732705 -0.39076895218424995 160 164 159
0.8903217346483469 -0.04232534848500684 -0.3868219096584186 21 25 20
0.8803804408197614 -0.0475489588125212 -0.39172665817475577 20 23 22
0.8803804408197614 -0.0475489588125212 -0.39172665817475577 20 23 22
0.8370370917106584 0.09251614399172882 -0.3912307087479758 111 100 106
0.9890350378326112 0.062471817572008786 -0.3790280745177466 183 186 185
0.8984318409566342 0.0960518096934026 -0.3771820057783836 30 33 34
0.8984318409566342 0.0960518096934026 -0.3771820057783836 30 33 34
0.9652748484907182 0.10450028169998032 -0.3807912137950681 187 186 186
0.9262317260029007 0.06484520603880248 -0.3784067529493224 181 184 183
0.9422889105608605 0.05519073775064473 -0.3801922451496474 182 182 184
0.8808746250883108 0.047783094454132716 -0.3779424088522644 30 30 32
0.9418914054582037 0.04915203479087829 -0.38034496735580875 41 47 49
1.0009113788867618 0.02571330988212256 -0.37724020969360744 77 87 90
0.8349280756833418 0.051025130850411965 -0.3916244003726616 181 184 185
0.9895031585764388 -0.035618550422470814 -0.3965104433868516 40 46 46
0.9488176137271587 -0.045443487906773855 -0.3989049999096979 34 37 40
0.9488176137271587 -0.045443487906773855 -0.3989049999096979 34 37 40
0.9523535114997044 -0.06794788430642598 -0.3977002167751148 186 189 188
0.952271805576227 -0.07319798036627187 -0.39737753453410773 29 32 35
0.9144377312012274 -0.07023468878656419 -0.38486593564368937 183 182 182
0.988758480602387 -0.15316089070354996 -0.398559121449505 18 21 22
0.9874076626693503 -0.15124770956736588 -0.3890020652259091 17 20 19
0.880864543004832 0.1121725303972285 -0.39021075974467934 35 38 39
0.946685493763167 0.058120177696951554 -0.3907671053754474 178 186 183
0.8373542516340453 0.04955199220699579 -0.3888834217257353 139 138 140
0.8368070171844519 0.031983027512415566 -0.3888073315821142 136 136 140
0.8388275084784423 0.009025494508037015 -0.38864656605719244 124 124 126
0.8373514001574422 -0.002930023432603315 -0.38892396182299405 118 118 122
0.839230417636294 -0.007297820604111342 -0.38858143066731926 97 92 100
0.8410931454504235 -0.025347792030951968 -0.4012510069936303 169 174 179
0.842064248228002 -0.028340394981518503 -0.40363453204410926 117 120 121
0.9997312066050853 -0.1549233913875866 -0.4018426248084087 23 22 22
0.8339162346309065 0.12121332320640352 -0.3916476264331806 202 205 206
0.8353469725476359 0.11384075787380478 -0.3824579286160049 198 197 197
0.837218058898386 0.10522564152296204 -0.3887397722258475 199 199 201
0.8357069920708076 0.09261556550248698 -0.39476262502262116 195 198 199
0.9796002474152655 0.10767516903630898 -0.4051463621200391 48 56 55
0.8358508917619434 0.08178637259145806 -0.3807748594102455 139 138 145
0.8357448647669485 0.07967059439034332 -0.3805448718357017 200 199 201
0.8370421284354398 0.08180787586778294 -0.3893544128241133 190 190 192
0.8691521119791533 0.07128649530926699 -0.388583518256833 40 32 31
0.8628732268562607 0.016406843153763003 -0.3901731556947401 38 41 44
0.8385839647440892 0.009044373523238475 -0.386975554550148 112 111 113
0.8984732538266207 -0.01871809512984487 -0.3908111708824452 27 23 16
0.9027425944890696 -0.019119328454254354 -0.402544876132648 34 34 36
0.9604580698636186 -0.019337999846944846 -0.3807997467769015 183 191 192
0.9030045476443865 -0.022024173390726796 -0.3860537604312505 186 193 187
0.9867926066723613 -0.156531662355668 -0.3880619654556969 25 26 22
0.9681932254286932 0.09119341880568795 -0.3790385194375868 40 39 39
1.0125495734619403 0.08156226494360835 -0.40551314356080803 179 182 183
0.835901637639144 0.06495431062886659 -0.3955539343300179 184 187 188
0.9493345293121705 0.06411253311096157 -0.40354680873506943 44 50 52
0.9493345293121705 0.06411253311096157 -0.40354680873506943 44 50 52
0.8948647560981524 0.04649769763416658 -0.3890806680422188 29 32 35
1.0783389168631006 0.04255066084235058 -0.38233976869849057 131 137 137
1.0783389168631006 0.04255066084235058 -0.38233976869849057 131 137 137
0.9828533916802769 0.03207879211498941 -0.4043738119146349 61 69 70
0.8901982141485795 0.025798601547044275 -0.38889720801693706 180 188 187
0.9155373704375959 0.02612160530876669 -0.38916108873886995 178 186 185
0.8903155149009768 0.020219646973466045 -0.3880032839331778 30 33 34
0.8790655752578395 0.016975121190562784 -0.3812262519457994 35 34 34
0.8790655752578395 0.016975121190562784 -0.3812262519457994 35 34 34
0.9364770092332435 0.014994460348837918 -0.3798341376737182 185 198 195
0.8385839647440892 0.009044373523238475 -0.386975554550148 112 111 113
0.8903809591576591 -0.004935715641115804 -0.38700509953455825 29 35 33
0.8905368085318262 -0.01066007678961049 -0.38813835315461137 173 181 180
0.9112285680070982 -0.015470891509135122 -0.38995789337786363 27 33 33
0.9594971272262748 -0.021209311017326607 -0.3889443383683073 179 190 188
0.8383887308200769 -0.018708258982429428 -0.38809154713631655 177 180 181
0.979026740120964 -0.032892563669063735 -0.37806365007626447 42 48 50
0.89408289789551 -0.032454042524331435 -0.3866555431104642 34 37 36
0.8382129407569625 -0.0374893383848279 -0.38862361086153946 104 100 103
0.8843134644659626 -0.04165590283554157 -0.38604090359980714 176 176 176
0.8843134644659626 -0.04165590283554157 -0.38604090359980714 176 176 176
1.0057891029175932 -0.05443997566383716 -0.3918677906351867 176 179 178
0.9580820071468606 -0.07400151170966107 -0.3971989191941641 182 182 182
0.9533044071328697 -0.07355622146575878 -0.37229379742446206 174 177 178
0.9025728656548586 -0.0771375023295066 -0.39125382172548195 20 26 26
0.9703227332238036 0.10585311396850458 -0.38988892797729763 44 45 41
0.9692899285915693 0.07720566699744127 -0.37753141388249417 35 38 39
0.8389159165852299 0.02900758115716774 -0.3892640843955285 131 127 128
0.998082317486906 0.003585101894740027 -0.3903230447424049 183 189 187
0.8381647102216422 -0.02061486665690359 -0.38892195381134015 187 187 189
0.8381647102216422 -0.02061486665690359 -0.38892195381134015 187 187 189
0.9053745008803253 -0.024982730152561233 -0.38985537340203325 158 164 162
0.9053745008803253 -0.024982730152561233 -0.38985537340203325 158 164 162
0.8387113421387329 -0.02240067572289648 -0.388717539930554 113 115 121
0.943954155453555 -0.04503670642214939 -0.3900708921411017 25 28 27
0.8822692313945079 -0.06433354980124548 -0.3891265173205334 27 30 29
0.8848543207482246 -0.07001122399038007 -0.3895165760435573 183 186 187
0.9429725451528839 -0.057612277551004884 -0.38958721725304435 27 33 31
1.0002479411493435 -0.15770698014132897 -0.39615042630303493 24 24 18
0.8356600351354386 0.11337441282712832 -0.3971400823098488 189 189 189
0.9744669730689822 0.11048873765850135 -0.405462366139919 53 53 55
0.8868075347441496 0.08540015321128815 -0.4001616542700182 178 184 182
0.9908229615341745 0.09294466502107929 -0.4035155288644746 57 63 61
0.8390143031613555 0.0777016325166903 -0.400751814481609 175 181 181
0.927557146086186 0.027898071153452747 -0.40369853995221633 27 35 32
0.9533626371252232 0.0282910340270134 -0.40388152957405077 43 54 54
0.9924052565344619 0.022993746944733662 -0.4030489047255867 181 184 185
0.9968235730467239 0.019409444606574167 -0.40379358238326896 66 73 77
0.9336719807006769 0.006536277810118054 -0.40188210076693776 176 182 182
0.9343055513785862 0.0032828678900722135 -0.40138534949855303 46 46 50
0.950231475470758 -0.000813316830016134 -0.403681407651129 46 53 57
0.9961219757986365 -0.001561740004558595 -0.40504324719902757 71 71 75
0.9614921149977307 -0.003918711172041365 -0.4050565198600308 41 49 48
0.9583730205878225 -0.006158908439257292 -0.40337025517263075 54 48 50
0.8539377637565455 -0.024832856228891285 -0.40569496911394914 169 175 175
0.9835985687375385 -0.03303871821352813 -0.4048862504748108 51 56 63
0.9856169029513285 -0.04239215576885805 -0.40242004382709773 46 51 56
0.8865711036802006 -0.06704349239072499 -0.4043288653238965 27 30 29
0.9510008584756507 -0.06439307393059296 -0.38451467683029306 26 34 33
0.8979530762744862 0.10907638456687131 -0.3935461890244627 40 31 24
0.9408938226015835 0.08450817151330667 -0.380040180728427 44 44 44
0.8355641994646663 0.0809169501361085 -0.3926247514747078 184 192 193
0.8524589957592952 0.0812994865903673 -0.3945594221570842 187 190 191
0.8693213449989815 0.07683548965579942 -0.39256421998121355 175 186 186
0.8693213449989815 0.07683548965579942 -0.39256421998121355 175 186 186
0.8358382231885034 0.07105177036479204 -0.38731397414596724 141 140 144
0.9031540626574847 0.07170785174131847 -0.39339212465997964 24 27 26
0.8695728659774539 0.06908844540047623 -0.3927654388544378 177 185 184
1.018648314726212 0.07067477005568541 -0.3702440170675302 193 196 195
0.9309525344452081 0.06937280600142974 -0.3915379732514047 181 189 186
1.0066761712208832 0.06379858278494367 -0.3928399748343201 72 79 83
0.9646725129642806 0.03490825569004466 -0.3927965260132848 181 189 188
0.8381367071425048 0.030052325051517784 -0.392559213813933 107 107 109
1.0123603614899952 0.026972192620106823 -0.392353968299666 71 76 81
1.0123603614899952 0.026972192620106823 -0.392353968299666 71 76 81
0.9858422844335816 0.02300924376521506 -0.3932862011715876 185 191 191
0.9858422844335816 0.02300924376521506 -0.3932862011715876 185 191 191
0.9480410420418869 0.02246733216741264 -0.3928981027830789 181 187 187
0.837950854667581 0.019720024725311276 -0.3924401540778755 172 178 178
1.0257167060484293 0.011944464227699677 -0.3824131202238532 193 196 195
0.9290113152387449 0.01013250872418559 -0.39077498077800227 39 38 38
0.9991190980708946 0.004783774491855514 -0.39294450653066393 185 191 189
1.005523776949092 0.0026660692403155345 -0.39209893157319375 57 65 66
0.9908100536722696 0.0018790253010646139 -0.39318124612225963 49 56 60
0.9908100536722696 0.0018790253010646139 -0.39318124612225963 49 56 60
0.9908100536722696 0.0018790253010646139 -0.39318124612225963 49 56 60
0.8655274402346496 0.005050310954028086 -0.3921890335057687 165 171 169
0.8734959478353327 0.0018954651612598157 -0.3904991567628433 33 32 34
1.009587056645839 -0.010684605924274598 -0.39409254051740855 47 53 55
0.8961087041782985 -0.016042356290226184 -0.39129497866647306 23 26 25
0.9066810833280645 -0.026696652502895227 -0.390789741665607 154 162 159
0.9067186222550407 -0.026704716504460713 -0.3907934998493166 174 186 188
0.839136198118662 -0.021994379992470333 -0.39316131303296264 110 111 107
0.9095149995334136 -0.030611110717927444 -0.3898339125069561 21 25 20
0.8958178606926374 -0.032160785016992634 -0.3873350973491572 181 184 187
0.9864312892341461 -0.03987520901112466 -0.39305913655295127 192 192 192
0.8391261706600868 -0.033784473063732154 -0.3923623914507752 109 109 109
0.9968411948070727 -0.050543888616702705 -0.39186374734797713 40 45 50
0.9926814180744001 -0.05052599625546715 -0.39232556511283284 183 189 189
0.9930120764650868 -0.058843810801969744 -0.39278505581405376 184 191 185
0.9930120764650868 -0.058843810801969744 -0.39278505581405376 184 191 185
0.9709503012860065 -0.08189989659903044 -0.3879517996852344 37 35 44
0.9741261710539114 -0.09036755714359986 -0.3931803632239013 184 192 193
0.9369945332597976 -0.08797038325589118 -0.3935102101767321 21 29 26
0.9835143420499608 -0.1538661774255499 -0.387379853819829 29 29 29
0.8356957946787417 0.10121753634388751 -0.3985898624631451 188 188 188
0.8381176964562 0.0949510769483776 -0.39898917750771346 111 111 111
0.8379154724209789 0.08254969387815382 -0.39854013487462325 180 182 188
0.8386650547473774 0.07520583443517974 -0.39895768935200204 176 181 186
0.8389482449717608 0.06996699429008514 -0.3992362591577832 124 127 128
0.9975148693498835 0.07492631612894769 -0.40249917046335837 64 68 63
0.8628555424536198 0.028301842831804723 -0.4026958114858428 22 28 26
0.8395765648042213 -0.0013537658836945583 -0.400045080304698 181 187 189
0.8884079659691465 -0.005306512145115735 -0.40224681016746344 169 175 175
0.9005566151269867 -0.02827711554460939 -0.40032208793163293 158 169 167
0.8414995262275144 -0.03290716818866802 -0.4012779388974397 84 84 84
0.9787139892799813 0.11490256426673554 -0.38329566998144854 72 78 78
1.0018793895278488 0.09129621695896338 -0.3826845372689502 83 91 92
0.981892853126615 0.06958626386299878 -0.3807904018410583 71 74 75
0.9731188644521584 -0.038372812468408 -0.38178197384138657 33 39 41
0.9819269564143953 -0.06925174252320401 -0.38444642368891446 27 37 40
0.9836437195772302 -0.07004009143442945 -0.387098234015259 29 34 39
0.8659473814225328 -0.0651340839400156 -0.39693564831055755 21 24 23
0.9803602672527985 -0.09296750534905131 -0.38163257170899356 34 42 43
0.912456502480505 0.0886750158067324 -0.3847022701187136 179 190 186
0.8820204308227767 0.08278354243811333 -0.38572883324753765 193 198 203
0.8820204308227767 0.08278354243811333 -0.38572883324753765 193 198 203
0.9431085070032417 0.0836311031085485 -0.3842443131618588 195 201 203
0.8761448376064181 0.07645668074442935 -0.3854167742234511 34 37 38
0.9232380992313763 0.06279197763930357 -0.38420390596507475 30 33 34
0.9130662762589149 0.052436895770632985 -0.3855030674905204 190 196 198
0.9949552757974767 0.041218500606472405 -0.38483280023926697 52 63 61
0.9098876005623291 0.03058707648683909 -0.38539403486236046 36 39 40
0.9436887854551922 0.028030773906583217 -0.38490769584244156 35 38 37
0.9134899357701413 0.027196788087092926 -0.3851927540962276 189 195 195
0.8827186346539462 0.027131663914487226 -0.3859595981839553 34 38 33
0.9874950161751705 0.008625113645781548 -0.3850331145836272 188 196 195
0.8395079862359192 0.0120466029817378 -0.38445344172128926 195 198 199
0.9410684475779098 0.0006574829491008203 -0.3854320136339455 44 44 46
0.8768463096215909 0.0010552282527206442 -0.386653110650749 30 33 32
0.9139951850208586 -0.002990018084899744 -0.3869112381302983 34 37 36
0.9750962292307002 -0.007683290707983959 -0.3852189142460366 188 194 194
0.9444974566269796 -0.008444342221032668 -0.3860209676354369 32 35 36
0.9704909818516811 -0.012680548197227621 -0.38555755865131 38 41 42
0.8834779506508086 -0.009327258540495261 -0.38640756003056487 31 31 33
0.9559900558908115 -0.013107083144157487 -0.38448803419870764 113 121 120
0.9559900558908115 -0.013107083144157487 -0.38448803419870764 113 121 120
0.8964103203674945 -0.01695105448875989 -0.3855153503642233 51 40 44
0.8964103203674945 -0.01695105448875989 -0.3855153503642233 51 40 44
0.9542726680266999 -0.030135989469623037 -0.38539231494724624 39 41 47
0.950689147258389 -0.03376267981226888 -0.38458778860941156 186 189 188
0.9201290961433769 -0.03398668268419176 -0.38529451063900905 35 38 39
0.9749305542087345 -0.038977080695355104 -0.38517603926324223 36 36 38
0.9449598619939505 -0.03900976523028562 -0.38535997430945984 185 188 189
0.9849102507178388 -0.04182304980069189 -0.38473158191888457 40 45 50
0.9986485742155711 -0.04540045618884536 -0.38469296706647194 36 44 43
0.8837264133044039 -0.04027968428818776 -0.3863151871977076 187 187 187
0.9387995377281324 -0.04567104329021059 -0.3856563268860757 183 191 190
0.9387995377281324 -0.04567104329021059 -0.3856563268860757 183 191 190
0.9307237440207461 -0.046698914616806454 -0.3847449112001184 48 47 47
1.0027326638795144 -0.059868511578172814 -0.38478888179343596 45 47 53
0.9145495664969251 -0.06483368044333465 -0.38591565868977995 29 29 29
0.9723909942736427 -0.0727147153415148 -0.38545455944500717 39 39 43
0.9723909942736427 -0.0727147153415148 -0.38545455944500717 39 39 43
0.9547498402802075 -0.07292770743738439 -0.3853276277301175 32 37 42
0.8934712908818515 -0.07400350597670918 -0.38592735080872076 29 32 35
0.9074622673083065 -0.07742571783351963 -0.3857539406942329 38 37 37
0.9729651928353159 -0.09109835505253144 -0.38569925162208984 39 39 41
0.8358382231887754 0.07105177036477925 -0.3873139741456666 141 140 144
0.8355030833596132 0.021048073777093834 -0.38695341090695273 185 188 189
0.8740588291546284 0.005914496375267417 -0.3844951736052755 170 178 179
0.9640311118213172 -0.05361843484165764 -0.38438884568652243 28 34 32
0.9940560378428045 -0.06186974903522012 -0.3843393316524986 46 52 54
0.9598410092224318 -0.07664968003507747 -0.38380921805045237 175 186 184
0.909364831360178 -0.080397058572756 -0.3801644189486924 22 25 24
0.8697404159424927 -0.08597552735556153 -0.3804473885665 16 20 15
0.9239807786185203 -0.09583187840204067 -0.38388799067599355 26 32 30
0.997586463139089 -0.15092540598391588 -0.3830724007270919 27 30 29
0.9578221429999593 0.09360780342463196 -0.3778103323229824 43 32 25
1.0864337480545951 0.10054903807309831 -0.3816326125623047 98 95 92
0.8870262579947416 0.08031568328629235 -0.37954452891480084 34 37 38
0.9109400585815172 0.08047484270968003 -0.3791934440999613 34 34 36
0.9766391208151608 0.08137128883372315 -0.37652963501262676 193 199 199
1.0923962325644037 0.08542432492051202 -0.38258556278693684 106 102 103
0.9907406488082402 0.06722378671291636 -0.37645808686357735 59 51 50
1.0851370598739338 0.06086754312959352 -0.3797556239501285 147 150 149
1.0853887447140051 0.05992030372045319 -0.37826059376516824 171 174 175
0.9469963421243764 0.05086389425354118 -0.37720841573227953 192 200 199
0.9766206563588649 0.0512296894403412 -0.37622589059008477 35 43 42
0.9412572671740124 0.050564040111537575 -0.378177662583943 28 31 30
1.076588671813813 0.04845839232814341 -0.3797434939242853 137 145 144
1.076138145825127 0.03746990922073387 -0.38133348163620745 94 93 95
1.07587974415073 0.017102676948257903 -0.38046773317267524 85 88 89
0.9774776530076509 -0.003466310564634662 -0.3757572362665341 188 194 194
0.97705401649477 -0.008850749633759048 -0.374417728465822 36 42 44
0.9308244096676112 -0.05806303331301262 -0.3846297146750819 183 183 183
0.9938487831398778 -0.14491651457845847 -0.3780479174177686 18 21 20
0.9392077428805009 0.11073052938278563 -0.3810651981693507 38 46 47
1.08788467534356 0.10138740325856646 -0.38355154431038374 98 95 92
0.9422108242029191 0.08768664080254461 -0.38089151562430257 40 46 44
1.078226815107876 0.09212241130945997 -0.3819533339161322 98 104 102
1.073048703549937 0.07205657970277231 -0.38180241331446196 138 144 144
0.8875045178484641 0.05627878078312748 -0.38012992647987776 34 40 42
1.0862532898705308 0.04494832221407472 -0.38493331100030487 97 96 96
0.8880749670682205 0.020256227126994163 -0.38051205370740104 34 37 38
0.9836272210660494 0.01909953745670279 -0.38326838842870875 67 74 80
1.0873650032705793 0.01655167178763284 -0.38332885177569487 105 105 107
0.9390990766334263 0.017842678543860964 -0.37997550486072545 41 44 45
0.8718635941685896 0.010092953581312762 -0.38081444597513353 191 194 195
0.8718635941685896 0.010092953581312762 -0.38081444597513353 191 194 195
0.9854819636318523 0.004555748792018059 -0.3789496554095879 50 46 51
0.9185600235818107 -0.009423950823956539 -0.37947533937145156 32 35 36
0.979026740120964 -0.032892563669063735 -0.37806365007626447 42 48 50
0.9186423658010942 -0.034119486948572156 -0.3791455517329337 35 38 39
0.8696369121343688 -0.08491506098971062 -0.3806955276667396 22 25 24
0.8901958495591736 0.02579838615486637 -0.3904599826595967 167 173 175
0.998795388934429 0.023363136853470683 -0.3754715081321678 66 74 73
0.8713349395742861 0.012976915751558548 -0.391643218801574 34 37 40
0.9154498406008504 -0.006423635249455507 -0.3911356823663704 35 38 37
0.9154498406008504 -0.006423635249455507 -0.3911356823663704 35 38 37
0.9017742414147066 -0.021951953840144187 -0.3906517700347785 37 36 38
0.9045488036066711 -0.02688964700482258 -0.38886503639356934 188 191 194
0.9045488036066711 -0.02688964700482258 -0.38886503639356934 188 191 194
0.9168763430895698 -0.03706136089514497 -0.37674092790477315 35 38 39
0.9163002201468176 -0.03658488130673838 -0.39006575775680813 169 180 178
0.890645423552821 -0.04444741552617582 -0.3893380383189011 29 32 31
0.8846139075564398 -0.04448722624164193 -0.39027796548403726 187 190 193
0.8649865880046497 -0.04809595179264432 -0.39035297749597236 20 21 17
0.870505516333494 -0.060878480271371195 -0.39032242363707914 27 30 31
0.9151214457139155 -0.06898077933518991 -0.3882288971162632 31 34 33
0.909942889419524 -0.0835637594684271 -0.38520091698405284 30 30 30
1.0014386476434671 0.08675725018580915 -0.38091179393953817 57 63 65
0.8588903950572345 0.025142558080461522 -0.3880658705506232 34 40 40
0.9161779673466717 -0.010583631389692597 -0.39053412095068485 158 164 164
1.0093483666767 -0.03547981112045367 -0.3922456230897477 56 64 65
0.9224352553135974 -0.07520558425074185 -0.3891493703154541 27 30 31
1.0007069055443976 -0.15078463102594 -0.3954120093409398 26 25 25
0.8823273666007729 0.04829073482464984 -0.3849623477249893 26 26 26
0.8793899588713012 -0.04953049236875138 -0.3895612410380988 29 29 29
0.8793899588713012 -0.04953049236875138 -0.3895612410380988 29 29 29
0.964246025197499 -0.07816931063591918 -0.38997561921211726 42 47 54
0.9927539026877836 -0.1581969042644523 -0.3938594836906768 34 33 33
0.9537881251876758 0.09907539643709565 -0.3740193050654264 49 44 42
0.9602154829010516 0.09998906016116964 -0.38012334147020516 48 42 46
0.9602154829010516 0.09998906016116964 -0.38012334147020516 48 42 46
0.9025268030916292 0.08482356115272653 -0.37336547320474095 46 46 50
0.967357393905712 0.08822994651330791 -0.37968921476038614 50 50 50
0.9103974239902507 0.07804113770883415 -0.3806219128830479 37 37 39
0.9103974239902507 0.07804113770883415 -0.3806219128830479 37 37 39
0.9756844400779174 0.08401303311549131 -0.3775104281380657 41 49 48
0.8738497349225097 0.06096924719755004 -0.3805579048358041 36 38 44
0.9910360760743473 0.06920504423747315 -0.3794871015472852 194 194 194
0.993636879861453 0.06642438065390266 -0.37328986550403526 67 70 73
0.880823750803841 0.05337438410401512 -0.380304376478676 197 200 203
0.937397403447144 0.057274695794954436 -0.3794030074789403 44 44 46
0.9772001564212105 0.05426705336740246 -0.37952916054892927 195 195 195
0.9073410492167356 0.0263863428548459 -0.37869835359863774 40 40 44
0.9706304355812206 0.023616144251909665 -0.37777092130886286 189 195 193
0.9310528923875089 0.00801666394056146 -0.37897268620802055 190 196 198
0.9230615738184568 0.0035847649353284087 -0.37830463781536106 185 193 194
0.9346464963162575 0.07249439237924005 -0.3737932955092957 48 44 47
0.9759202516591114 0.07229405936064678 -0.3725588301201501 47 47 49
1.0726546475376957 0.07408550007946793 -0.37716292868466683 83 79 82
0.9345457036353185 0.054194110011279814 -0.37271504335598066 43 46 45
0.9345457036353185 0.054194110011279814 -0.37271504335598066 43 46 45
1.067008589834395 0.05203185307978226 -0.37427770320741344 126 126 126
0.8845117694204183 0.015066791436785862 -0.37190053059074013 35 37 43
0.9341863517304376 0.012713908859678248 -0.3717529009263663 53 59 61
0.9651893338589551 0.008216711726224528 -0.3906989728078436 25 31 29
0.9142060609756291 -0.014172068357356755 -0.3707984573927422 34 40 42
0.9142060609756291 -0.014172068357356755 -0.3707984573927422 34 40 42
0.9561524996927755 -0.05506945848354806 -0.3723442525114612 33 41 40
0.9995052119145905 -0.060481870730092854 -0.39045203587344324 181 187 185
0.9609109923729103 -0.08178732060964036 -0.36990099857109815 44 39 47
0.987586318467956 -0.08598604850217148 -0.37290688900205926 39 50 50
0.9106364556352925 -0.09396573920089671 -0.388439511962839 18 21 22
0.9637773029744058 0.10223551375729731 -0.3923239879801338 201 213 215
0.9637773029744058 0.10223551375729731 -0.3923239879801338 201 213 215
1.0083659576713586 0.090242782576975 -0.39283244030074793 68 76 77
1.0825666759888581 0.0879459875803686 -0.3923228926406206 164 170 172
1.089308730336735 0.039770234992333585 -0.3946211952058086 108 114 116
0.9399317654333716 0.01276464288099819 -0.3902638969355892 192 199 203
0.9358997092364949 0.008769688560602621 -0.3910679692298152 196 202 204
0.9938891116981303 0.008655724898885985 -0.3908471961054172 75 75 79
0.9319353580476656 0.004316033219755741 -0.3905884086030236 56 50 56
0.9889274025881153 -0.0012645985663673602 -0.3906001480788874 56 69 68
1.0919168701916244 0.0016603236807860955 -0.3958100941894658 96 99 102
1.1015068430619814 -0.012114006660429248 -0.398406249624942 102 110 111
1.1015068430619814 -0.012114006660429248 -0.398406249624942 102 110 111
1.0910111499077924 -0.014588926608398839 -0.3973760961343963 157 168 166
1.08801578912333 -0.019078314904520288 -0.3966604312721543 121 124 123
0.8969094022225221 -0.02343520839550639 -0.39103265122588654 187 195 196
1.0827579551828241 -0.025240782946549908 -0.39935131373292077 163 171 172
0.9575740271882143 -0.0266077518211294 -0.39228952574237186 43 48 53
1.084713494804695 -0.029077429267036166 -0.3977043538653376 178 188 191
1.112457246774255 -0.02960130205343072 -0.3997782657157682 114 114 114
1.0891580927629743 -0.039851092834409615 -0.3980105208872101 96 96 96
1.0853300197147007 -0.04897910114279561 -0.3996058751510646 93 99 101
0.994694140631149 -0.05459318006454379 -0.3906520075263267 57 62 67
0.994694140631149 -0.05459318006454379 -0.3906520075263267 57 62 67
0.9407344162925039 -0.055871094936875115 -0.3900416209016076 29 29 31
0.8777596345031051 -0.055200205306313754 -0.3898205968404117 186 189 192
0.8656433715069435 -0.055364310716165974 -0.38964849093123294 189 189 191
0.8631435287547872 -0.05930979558519101 -0.3907112681416535 34 33 40
1.001545665332508 -0.15408586366757576 -0.393845554399549 27 27 29
0.9339837659542325 0.10274569157323102 -0.3718833042452857 41 44 47
0.9381180828302729 0.07639674044712062 -0.3741261741297708 193 196 195
0.9868459223539562 0.062214990730859204 -0.37293887515014185 74 74 70
0.9462312922590715 0.05279631710268282 -0.37776010562156426 28 34 34
0.9475137871266748 0.04278424224898266 -0.3738337317649273 46 49 52
0.9079551040243243 0.02083220905150837 -0.3713180722475862 195 203 204
0.9081199768651113 0.015468180927066894 -0.3727777459361271 36 36 38
0.9081199768651113 0.015468180927066894 -0.3727777459361271 36 36 38
0.8733134553781395 -0.0042724855945919515 -0.37158799983204854 31 34 37
0.8733134553781395 -0.0042724855945919515 -0.37158799983204854 31 34 37
0.9679146242359806 -0.009698762264358939 -0.36949142315261385 69 72 73
0.8666251675830644 -0.06350870023341727 -0.367098903003061 28 31 32
1.0673152689909513 0.06356255636777113 -0.3756782979063928 100 96 99
1.0609890509658986 0.05001830123019602 -0.3766377621320553 188 185 182
1.0690359089159982 0.049535066058130614 -0.37664059230268615 126 125 125
0.8769347128164918 0.003080442684707787 -0.38943016710392897 194 201 205
0.8588976400109235 -0.014386318722877055 -0.39007703379757147 35 38 41
0.8899364413599923 -0.013148367756473748 -0.3898865668816803 196 196 200
0.8899364413599923 -0.013148367756473748 -0.3898865668816803 196 196 200
0.8834906013838648 -0.03878576410610159 -0.3871527416839156 32 35 36
0.8900563007794254 -0.0387379954483381 -0.389723905675681 189 195 197
0.8900563007794254 -0.0387379954483381 -0.389723905675681 189 195 197
0.8907529458418302 -0.04452063422116697 -0.3903279217336845 34 37 40
0.9431140695304592 -0.04786664056247699 -0.3936545503517841 137 150 149
0.9335034366501738 -0.056480968257720844 -0.39038315800644086 32 28 31
0.868793130530758 -0.06016002287637325 -0.3878537695259753 185 188 191
0.8842303853731622 -0.06995033339685428 -0.3881649732944204 184 190 192
0.9224212525823077 -0.07523294872665974 -0.38970992603818433 32 35 38
0.8973488983385678 -0.08245071411910558 -0.38897738692899636 186 189 188
0.9020216683365446 -0.0861984963472168 -0.3888156233135345 34 33 35
0.9497242804796442 0.0593875720048477 -0.3637660770618364 32 40 39
0.9826283947755399 0.059313928580937134 -0.3663090543663107 74 74 70
0.9315930673514503 0.0523099260007928 -0.3673433110745366 41 44 43
0.9446089511741397 0.024005418228465115 -0.36588818285890246 40 47 51
0.9930255752004501 -0.02727959024132074 -0.36791835702793646 61 73 75
0.973870519534547 0.08154962783910714 -0.3738438848330555 33 39 39
1.0765187853456601 0.04472317934823793 -0.3764266891717832 94 94 96
1.0765187853456601 0.04472317934823793 -0.3764266891717832 94 94 96
1.074278571403389 0.043100636755087414 -0.379549353820734 131 130 130
1.06274609139063 0.022738139122866402 -0.3756437369361565 113 112 112
0.9970205794831196 -0.013365950132478752 -0.37242991498900546 67 75 76
0.9905754011600888 -0.05925618615000003 -0.3880030875588139 179 185 183
0.9584544548698838 -0.07992140126140498 -0.3630891076926213 189 195 195
0.991271537551564 0.0774926354800447 -0.38984439297289386 53 64 62
0.970692272815051 0.04269891689053252 -0.3687827205850641 42 48 50
0.8382021063521797 -0.007261875125318572 -0.38872054605700873 150 149 158
0.8372188709842228 0.11283696149890551 -0.3876430350328739 185 185 185
0.8368733961114058 0.07243341844993614 -0.3887779827582413 173 176 179
0.8365755981578361 0.06964826626302309 -0.38820557489409485 179 179 181
0.9035543968790273 0.035993044239678605 -0.3882283505419083 40 31 26
0.8379972899038745 0.020784819511044755 -0.3891039337450559 149 149 149
0.9731596624534412 -0.014212671573064094 -0.38988352702847345 27 38 38
0.9590775810347086 -0.028464412430365415 -0.38816815334675075 151 162 158
0.9211413440350548 -0.03580165749523386 -0.3870055004222458 28 36 35
0.9379205042413297 -0.050315102175064914 -0.38902728719172663 141 149 148
0.930387282899071 -0.05973775578761064 -0.3908358408422409 33 22 30
0.8349355307686295 0.025261950016116932 -0.3914035178992655 170 176 176
0.9842842121312636 0.021985863687203934 -0.38972155362859134 184 190 190
0.9841593939092107 0.021963833999871157 -0.38965471142405367 184 187 188
0.9913204129016032 0.003929467780893756 -0.38936727208464667 58 57 59
0.9265072497731287 0.0001676053160965591 -0.3894813333359639 28 34 34
0.8512306957524576 0.06123165457573794 -0.3941997596892651 171 174 175
0.8356741680188468 0.11006204498919094 -0.3917760788713729 185 188 189
0.8937756158466856 0.11062366088122978 -0.3917051994041156 30 36 34
0.9106047194927227 0.11223616302226903 -0.39192952735088243 41 44 45
0.9067088749295096 0.10813683478847154 -0.3919966965969832 182 188 186
0.895716416994609 0.10377140403808031 -0.3924936359312994 29 32 31
0.9702393007732537 0.11022382741767786 -0.39345503503018664 188 188 188
0.9021189738195489 0.10269602757299343 -0.3921278452770497 31 34 33
0.9021189738195489 0.10269602757299343 -0.3921278452770497 31 34 33
0.9713974330670053 0.10433497120857751 -0.39291495464380805 48 56 57
0.8962357048687302 0.09683786759100693 -0.39195948763999644 181 187 185
0.906655292430908 0.09759467946454073 -0.3917381020575747 182 190 187
0.8925056856940368 0.09315616991098934 -0.3919541810932644 29 33 26
0.9106903713137744 0.09356870540471084 -0.39172800104697064 31 35 30
0.9106903713137744 0.09356870540471084 -0.39172800104697064 31 35 30
0.8888840027576791 0.0895162316768045 -0.39190565361419194 181 187 187
0.9199926436534492 0.08980844028170505 -0.3910691650646245 26 32 30
0.8832724992803398 0.08396663406781223 -0.39216877133179573 178 184 184
0.8340673510618775 0.07028663993869107 -0.3915717701084061 183 186 187
0.8682691654322185 0.06841697830535709 -0.3907101188603613 173 184 182
0.9293298175721303 0.0686373382045701 -0.39000173052159837 179 185 183
0.935909419456251 0.06958361786682654 -0.3922622599966681 34 37 36
0.935909419456251 0.06958361786682654 -0.3922622599966681 34 37 36
0.8778385601224179 0.06278993959918995 -0.3914914242013617 20 26 24
0.8383519346078675 0.049250682552845704 -0.3909473293941624 176 179 180
0.8999604004154426 0.041504462946632965 -0.39128588972772144 28 31 32
0.9004948811923583 0.03785533249174334 -0.39104956933825197 168 176 173
0.9033343643240234 0.03695201412881975 -0.3904186959997855 29 35 33
0.9001662019915673 0.03407079511424081 -0.39130826821681686 30 29 29
0.9112509032928694 0.030573614608182757 -0.3910451278217499 26 32 30
0.8374809708929558 0.02628794970173544 -0.39059264117560405 149 152 153
0.8713590280777525 0.015610846484514022 -0.39149174379992346 23 26 25
0.8380440996849977 0.009852480700947387 -0.3901760293020609 85 84 84
0.8371107561029185 0.00789659169567264 -0.3902253854349574 138 139 135
0.9027320701712137 0.008468879999370476 -0.3918119220602247 18 21 20
0.8772295358756899 0.0061124779849247085 -0.39099273487066816 161 167 165
0.835269223869509 0.0040516282176846575 -0.3907612690420942 169 172 173
0.8371204202523416 0.0012475152668325548 -0.39026591285846196 85 84 84
0.8371204202523416 0.0012475152668325548 -0.39026591285846196 85 84 84
0.8372631027255434 -0.011751322338122814 -0.3903616505469192 155 155 155
0.895139767288144 -0.014989928924349223 -0.39140825731551104 20 23 22
0.9103573513167599 -0.01482916129877527 -0.39180548019562667 21 24 23
0.8966023000531272 -0.020573506449212117 -0.3908575717087595 157 165 162
0.904458461713914 -0.02394349613495668 -0.39047913363014475 158 164 162
0.904458461713914 -0.02394349613495668 -0.39047913363014475 158 164 162
0.8391069911631664 -0.02645375999081905 -0.39020919690269684 95 86 89
0.905712321353842 -0.02551171024433838 -0.39119320459812823 149 157 154
0.905712321353842 -0.02551171024433838 -0.39119320459812823 149 157 154
0.8957590854639562 -0.02661199080053654 -0.3888789951603137 157 163 161
0.8383498183659486 -0.028688510798467143 -0.39043386779768374 164 164 164
0.904113747411166 -0.02783339396478589 -0.39074470910516446 26 26 28
0.904113747411166 -0.02783339396478589 -0.39074470910516446 26 26 28
0.9017079991087412 -0.029540857791296195 -0.3908619425272282 153 159 157
0.8389987759957784 -0.031229554550157718 -0.3904793246306565 99 95 96
0.8389987759957784 -0.031229554550157718 -0.3904793246306565 99 95 96
0.8380213478671256 -0.03237832783622203 -0.390158547960209 158 164 162
0.8381527838538038 -0.03457847219067089 -0.39034019073873677 159 159 159
0.8788727725644947 -0.046431483478768014 -0.3905387139849107 20 23 22
0.8788727725644947 -0.046431483478768014 -0.3905387139849107 20 23 22
0.8641989796892198 -0.046822444668283274 -0.39068526280616883 20 23 22
0.8777721951320169 -0.05204931846866117 -0.39064552104904937 160 161 157
0.8659371215923799 -0.052202098507064316 -0.39061773504050185 160 160 160
0.9409517973494392 -0.05217429281580127 -0.3909149603349362 162 165 166
0.8720129899104498 -0.05396562887843397 -0.39074922197998024 160 160 160
0.8720129899104498 -0.05396562887843397 -0.39074922197998024 160 160 160
0.8771947294724253 -0.05534421240009336 -0.3907151219917674 29 29 33
0.8771947294724253 -0.05534421240009336 -0.3907151219917674 29 29 33
0.8633279467715044 -0.05623311725656262 -0.3915337528330097 24 24 24
0.8780743117573018 -0.060539922358997716 -0.3904489180341713 17 20 19
0.862948828862417 -0.06363988969494419 -0.39093816909770707 26 26 26
0.862948828862417 -0.06363988969494419 -0.39093816909770707 26 26 26
