ply
format ascii 1.0
element vertex 713
property float x
property float y
property float z
property uchar red
property uchar green
property uchar blue
end_header
3.8246098091634666 -2.3215686943300233 26.969581114821167 54 59 64
-7.531481106991499 6.948532605754763 24.360857885340295 133 127 131
-7.1377753683664285 6.829649132712207 23.644210049210027 164 164 166
-5.740792020975697 2.4233932845357464 25.12173384550709 45 26 22
-5.875976152596833 2.3584219248134977 25.781162659532548 195 201 203
-4.642672123917524 2.711888937163593 25.343908997207507 37 40 43
-3.9309701261492496 6.463468509483566 22.619923941539906 194 194 198
-4.368511702983378 0.6880700147113575 26.034238877313463 31 39 38
-4.317702556135477 -1.0800133058673995 27.001723368383892 40 46 44
-4.26702902552344 -3.3042350488160173 27.87493057911081 191 199 198
-3.671295018201889 -4.979243055748005 28.52105035501675 63 68 73
-2.661313174250542 6.784894528700174 23.297592814854557 192 195 198
-2.398172238837752 6.416919609065638 22.417047199378803 187 187 189
-2.398172238837752 6.416919609065638 22.417047199378803 187 187 189
-1.852975801776461 -1.5743518934906082 26.751395374014614 41 49 48
-1.852975801776461 -1.5743518934906082 26.751395374014614 41 49 48
-1.5537065934309335 2.835180290817318 24.75849555028514 183 189 189
-1.202968699136248 -1.853858703750332 26.094911957169167 38 41 44
-1.2531627236426228 -12.460607026920174 32.118600358817936 129 135 133
-0.8619202547244931 -2.6532438261348235 27.001557206387837 48 51 52
-0.06648568473238514 6.487049163806184 22.812252419051646 189 188 190
0.4583175530917399 -5.678337825253627 28.425744114073 59 72 71
1.0205010572252164 -12.741102345706217 31.94998759425416 124 130 130
1.3145549212893224 -0.8352863910483295 25.310233034833303 185 198 195
3.0686050961684175 -3.7549390649912286 26.99614404530942 53 53 55
2.698496493463164 3.1325858172890615 23.62576487779544 169 175 175
3.3363678181464964 0.871638718015659 25.364160306615897 168 179 177
3.32548194476306 0.8657399447821462 25.25535218613258 168 179 177
4.061619810022486 -2.243602313155081 25.41519069747444 183 189 189
5.261441024413121 -5.833070229874659 27.96042019888052 43 51 52
5.281920322421264 -1.4345329303010104 25.76529599953257 36 39 40
5.281920322421264 -1.4345329303010104 25.76529599953257 36 39 40
6.045723446045977 -1.029989408173222 25.32091547921155 44 47 46
6.774578300716018 -5.512476235016363 26.861615664635444 190 196 194
7.039123964331059 -5.062014437556084 26.08537856411572 191 194 195
7.818528125806186 0.6553667829078759 23.71021857470752 183 182 182
7.818528125806186 0.6553667829078759 23.71021857470752 183 182 182
10.097947276006355 -4.359604101756599 26.013729554484538 41 44 45
9.994477369442778 0.06654636737679558 24.19482696677968 28 31 30
10.000378846077332 3.0608680248840536 23.348327897731533 23 26 25
-6.898662234195124 6.942337044301034 24.347987005682572 163 160 157
-6.13072424452073 -3.0612865119901826 28.97549276170256 57 60 63
-4.794294869977837 -1.9822913625267555 28.31435497005017 44 47 48
-3.843411232186958 -3.618059685077033 27.668427234945607 185 191 189
-3.4371817707711334 -0.5451068044115094 26.58290828791039 178 189 187
-3.229420517914227 0.3581455509651507 26.924643963091114 30 36 36
-3.1808124554531805 0.4426688910285208 25.876703341890618 24 27 26
-3.384177442346008 -5.09577081370922 28.764710925979024 178 181 180
-3.0627155264510204 0.2510648610284399 26.21261342378904 46 39 31
-3.062432397418124 0.24911669505029835 26.11500944162901 45 31 23
-2.747248577307064 -4.190063500493325 27.837773940145652 192 200 199
-2.1533137619634872 5.588461440203225 23.05449013229186 187 187 187
-2.488508818791556 -0.657224285885965 27.151063692051203 39 45 47
-1.2989439075136384 -5.668844375376771 28.98246598329994 64 70 72
-0.947676023690823 2.346912509025421 25.403292415380314 45 40 36
-0.8584153108023151 1.6362526837722768 24.994277844140893 20 26 24
0.23210999731279086 -3.159882599025818 27.123211501272426 41 44 43
0.9907815382044391 -4.029408228501434 27.809517491566606 180 183 182
1.3517690167832461 3.656227792494519 24.524558456152683 22 25 24
1.9797585500841406 0.12502154847724556 25.28872700507638 167 175 174
2.1635869398996235 3.9793047573360334 23.5429090389276 48 42 46
2.6768000910540266 -0.615141647589395 26.44016795126924 39 45 45
2.883925017154303 -5.776916297100903 28.346059175225978 76 84 85
3.6382859134333736 1.2952971901077244 24.71531421261629 18 22 17
5.333573607467214 6.447168641184818 23.085506542586643 82 82 82
5.020693289340573 6.159278260460375 21.61569780476549 82 82 82
5.028080056538082 6.259383102069993 21.537183726733186 86 86 88
5.778225811062045 3.0483430296201424 24.196386420412118 159 167 166
6.432389826411962 5.679795981382234 22.074988494298214 166 169 168
6.982671613320633 4.622147799676386 23.680155371516943 25 26 22
-6.111665512404433 0.6829200451741432 25.827676000102848 36 42 44
-2.1511799226857735 -4.070590219565223 28.480925259001744 70 78 79
-1.514515758572516 4.94244182785206 23.34241886162321 42 45 48
-1.0306445686599053 2.017569451586108 24.526526028386503 189 195 197
-1.0019229018273696 2.1552209397176187 25.12062385590028 178 186 185
0.00853276613030504 2.498100871711388 25.088722982253742 174 182 179
-0.06105723511745676 -2.932644711773013 26.401808199111784 190 198 195
0.24073924321374893 2.5284016227181003 22.02530406414353 171 182 182
0.28378972519697293 0.8916661906444918 22.831940878208922 172 183 181
0.6213279517875278 2.9021738211868895 21.936591814138513 174 180 180
1.150184284147463 -0.9476159213386836 26.005212414785934 31 34 35
1.4174160200900614 -4.3725416700850275 26.723013003602787 189 197 196
1.386686562520619 3.8309948410463845 21.42691632015802 34 34 36
1.386686562520619 3.8309948410463845 21.42691632015802 34 34 36
2.557606044499209 -4.897331518790278 28.22598239941478 188 191 190
2.721633227484536 -5.384825274669123 28.304046005187203 72 82 85
2.719639254169276 -4.2556858574074585 27.69224388952955 62 70 71
2.116475477280217 4.4301675357474535 23.239237749414222 41 28 32
1.9591027028490546 3.810121635858641 21.389534892150614 166 174 173
1.9591027028490546 3.810121635858641 21.389534892150614 166 174 173
2.2021540899980407 -0.9785543893289301 23.103430790862788 31 34 35
2.2021540899980407 -0.9785543893289301 23.103430790862788 31 34 35
3.0236188106914517 -1.6627762262395505 26.50144734212558 39 47 46
3.044344007414086 -1.2175308667426068 26.344115505650127 184 190 188
3.1745055543526077 -1.7682325558609229 25.363035768252374 185 191 191
3.3551545375958356 2.8332987262972114 24.400317882291972 165 171 169
2.823209499998883 4.420396368917745 20.894531464947324 22 28 28
3.992393416575009 -2.1525744055101628 26.594031881516933 185 191 191
3.992393416575009 -2.1525744055101628 26.594031881516933 185 191 191
4.06014620349634 -3.103897433560004 25.869564088079 186 192 192
4.06014620349634 -3.103897433560004 25.869564088079 186 192 192
4.424924726359258 -2.544497520525045 26.666869562909714 194 197 200
3.9560106400685067 1.6436876106437697 23.829777833340373 190 193 194
4.2434618254232115 2.033492811347282 24.642169331823528 39 39 41
4.2434618254232115 2.033492811347282 24.642169331823528 39 39 41
4.2434618254232115 2.033492811347282 24.642169331823528 39 39 41
3.9658018039078726 -2.6683879889306676 23.554811147710623 44 44 44
3.9658018039078726 -2.6683879889306676 23.554811147710623 44 44 44
4.945691150570449 -2.9590298969460527 26.84448864695818 188 191 192
4.142820885356993 -2.3581763442993005 23.293325807661756 34 37 38
4.142820885356993 -2.3581763442993005 23.293325807661756 34 37 38
4.947477985482933 -2.2206798344936582 26.46681775488182 183 189 187
4.578667163868687 1.661785230115385 24.568430064588664 159 167 164
4.810531024053452 1.7892714965423508 24.76799632989905 24 15 18
5.276815959542083 -3.3129419516923653 27.0258305020779 40 45 50
5.205571638190561 -1.9957968127047634 26.294675092958457 39 42 41
4.205229303143863 1.1651063574807545 22.10522614363651 19 25 23
4.2043002955164965 1.6341742345872086 21.931376094542912 155 166 162
4.2043002955164965 1.6341742345872086 21.931376094542912 155 166 162
4.519970165908831 -3.6912611960901263 23.432790228480176 36 42 42
4.519970165908831 -3.6912611960901263 23.432790228480176 36 42 42
5.55631137364008 -3.585535158885632 27.033371774798272 188 191 190
5.467580952951137 -1.7546452045264305 26.07362278882578 186 189 190
4.601839866641869 0.3195055776195363 22.288805286666786 26 32 30
4.689143405076878 0.728794123750089 22.390606299287704 158 169 165
5.543462382119847 -4.042500046472311 25.907871090067474 186 189 188
5.065701337821228 -3.301885646032097 23.68543607541312 32 37 42
5.58517437217696 -3.5699348508229054 25.775153049532793 36 36 38
5.029888252002171 0.7121566504706955 22.186413525051442 20 23 24
4.958062261764605 2.3048000953609487 21.31300106755221 27 27 27
5.85944853154746 2.763091265464198 24.28280280707002 21 24 25
5.638074501400902 -0.7702316181653471 22.55762168953396 169 172 171
5.638074501400902 -0.7702316181653471 22.55762168953396 169 172 171
6.500733232244795 -2.7509218237530195 25.214883836243352 25 31 29
6.991093383122402 -0.8619100149006481 25.517831464492446 44 38 44
6.991093383122402 -0.8619100149006481 25.517831464492446 44 38 44
6.040915716316664 -0.5974963343512065 22.42416909833151 163 166 165
6.043386957321906 -0.4286332398973137 22.40474550311829 44 43 45
6.043386957321906 -0.4286332398973137 22.40474550311829 44 43 45
6.043386957321906 -0.4286332398973137 22.40474550311829 44 43 45
6.043386957321906 -0.4286332398973137 22.40474550311829 44 43 45
7.014748922224042 -0.028255242837163536 25.061502996171683 181 187 187
7.222188560326318 -4.363041106037632 25.78067002370086 40 45 52
7.314578956453923 -0.5620111266254552 25.33785762978108 184 190 190
7.244834983992671 -0.10269270436811 25.09364675861581 44 39 47
7.244834983992671 -0.10269270436811 25.09364675861581 44 39 47
5.906312921616615 3.5419739198323597 21.000901093512603 174 177 178
5.906312921616615 3.5419739198323597 21.000901093512603 174 177 178
7.981246265088582 -4.1364147694763815 26.81140265705598 187 190 193
7.438738770140151 0.062393676504039944 24.937980379843555 29 32 33
6.9092696824594535 4.175690074122662 23.060411278013706 155 161 161
6.70686934454865 -1.804472726487723 22.56459994210294 22 28 26
6.70686934454865 -1.804472726487723 22.56459994210294 22 28 26
6.816791918688048 -1.4044280034225751 22.6626928057647 159 163 158
7.259114874048136 -3.445684982754438 23.57076270067412 184 187 186
8.295328736537602 -1.8749730231988926 25.687055708725453 186 189 188
8.295328736537602 -1.8749730231988926 25.687055708725453 186 189 188
8.65958853193378 -2.6651403230765096 26.077856356498458 29 36 40
8.940334986190598 -3.080715592066273 26.20251601976443 184 190 188
8.597809052746568 1.1516370962891185 24.312844081209256 23 26 27
8.597809052746568 1.1516370962891185 24.312844081209256 23 26 27
9.173984420586496 -2.6761138200130663 25.905461521041683 41 40 42
9.173984420586496 -2.6761138200130663 25.905461521041683 41 40 42
8.74440025046494 1.5535563977345428 24.023129576666218 155 161 159
8.694844056934825 -2.8626349999330696 23.52462361798557 35 33 42
10.111984197008654 -3.5195516457237983 26.199049863657233 41 46 51
8.242376843652382 1.1318520482177774 21.513312445275634 178 179 175
8.533074855377915 1.7655381586243943 21.303674115370082 163 169 167
14.489826865439554 -5.2965059516859885 26.791101085222653 26 25 25
-5.887647705519512 2.6237049139593958 25.03724265403922 36 42 42
-6.129726351313657 1.582872438104224 26.13854699418189 38 37 37
-5.433341032374772 -0.08693153744417384 26.198632521858954 32 38 38
-5.359635501375138 -4.592872900456056 28.292850338509442 55 63 60
-3.578333176466523 -0.8306879502285094 26.145662771814983 38 38 40
-4.123409870461352 -11.666464257519461 31.265001016674592 159 162 163
-3.4118764673776534 0.3436657066974891 25.683960194280484 29 35 37
-3.125321924039998 4.020096834104695 24.02231900904278 193 199 201
-3.125321924039998 4.020096834104695 24.02231900904278 193 199 201
-3.859396806993892 -11.720494361558305 31.21765523435339 146 152 152
-2.8164060648398626 4.0273383281755795 23.991865187050724 56 49 58
-2.897580410225402 -4.492141346481451 27.464705831106468 49 42 36
-2.6535616583851467 -4.739359714319324 27.578503858201547 59 51 50
-1.5365933596897734 1.0411378726516418 25.10141865322669 190 196 198
-1.470989022315115 -3.3336217812259124 26.898538271670894 192 200 199
-1.446004611147282 -3.754378345308673 26.912859356731058 35 43 42
-1.1734817369863582 2.4451350476051545 24.38003755284538 34 37 40
-1.1734817369863582 2.4451350476051545 24.38003755284538 34 37 40
-0.7506893322440894 2.307102701763583 24.367202462967697 189 195 197
-0.42164199073062586 -10.981024192614997 30.34721241595653 131 137 137
-0.42164199073062586 -10.981024192614997 30.34721241595653 131 137 137
1.1255962482333608 -10.504624124300477 29.959885288377237 89 95 95
1.0210472731903772 4.629395878002243 23.06739709108282 45 45 49
1.0210472731903772 4.629395878002243 23.06739709108282 45 45 49
1.5485118323489824 -11.826191233906945 30.400226879252916 165 171 171
2.097761122425526 -11.002978321546406 30.048986154777616 103 103 105
2.0011353712914555 -0.5073507036858138 25.033264417248873 190 196 194
2.6490159146636354 -4.083461555958849 26.420283336867794 52 55 58
3.2724244391289146 -11.34802066736215 29.893389417864697 91 94 95
2.6804516105528013 2.5979343058648032 23.595816756340422 35 38 37
3.5755507636444572 -11.073301915329203 29.71721848676708 95 95 99
3.1745055543526077 -1.7682325558609229 25.363035768252374 185 191 191
4.962794394946164 4.689171754662308 22.389979378545128 30 36 34
6.105006010130485 -4.544902256621724 26.120203672772647 183 191 190
6.663434545856181 -4.364672677090989 25.902379468941568 37 39 45
6.87654798684372 -0.5245836322998483 24.094689414589975 183 183 183
-8.436313425236515 6.911170025686744 23.837774352713353 156 155 157
-5.729517510472052 6.541413717638445 23.010773153348282 190 193 194
-7.165922138780897 -10.584826680953238 31.889351250941136 143 147 142
-5.363587163589076 6.514239191877687 22.82938948314469 186 189 190
-4.612650088339314 1.551151774263664 25.12677208924608 31 33 39
-4.085458468360109 6.456405678599715 22.620214505725343 151 150 157
-3.9861876290439167 6.700281381906397 23.202636242923862 194 194 198
-3.092302943518221 6.670649223143598 23.083723947859554 186 189 192
-2.9804100497220056 6.627315261563468 22.407639862262947 188 191 192
-2.14744538495823 6.580373011268064 23.11709744402794 113 105 104
-1.9747100131230348 6.56542499192163 23.09301670732364 115 111 112
-1.9683144852153163 6.337502705169684 22.45822483528647 106 105 107
-1.9575584262706776 6.811362561131741 22.99751427322967 188 188 188
-1.6335928968024676 6.419506728892552 22.41586890002136 190 190 194
-1.54740680997686 6.63372045182543 22.99113817969302 115 114 114
-1.372349399895108 6.36534026660816 22.358976710575163 138 137 137
-1.3022893914334857 1.2172516573101084 24.29349584111084 27 27 27
-0.7677865738557357 6.5823168895682675 22.81526656481996 188 191 194
-0.013453124693284305 6.253533924360163 22.20891771363537 110 110 112
0.1460069258224418 6.55849435219529 22.875543591482817 184 187 188
0.30661834075462147 -10.289876932733959 29.334916724621323 141 149 148
1.3339554035101522 -11.146503616723377 29.579192148117393 146 152 152
2.0959696001533294 6.2566570713733975 21.86519619769849 98 98 100
7.751145299749375 2.797454724062651 22.75830712805538 25 31 33
8.609940338054434 3.6977513901910233 21.72821092846799 20 24 19
13.818673258770028 -5.012635752020326 24.92749204429017 20 24 19
7.751145299749375 2.797454724062651 22.75830712805538 25 31 33
-6.0944545520006415 2.796554187093415 25.753169874059335 29 32 33
-5.493615686044866 4.56889302880931 24.722190900625183 25 25 25
-5.493615686044866 4.56889302880931 24.722190900625183 25 25 25
-5.140012324055819 6.80149525621795 23.590479028896663 139 133 135
-4.703949780524168 6.7569561908435745 23.847681037064007 190 193 196
-3.832017192168587 6.945211345172008 23.63676865935212 184 192 193
-3.7991721168029686 5.8062244550385245 24.307307311699013 187 190 191
-3.640634805075851 -0.26914998172489896 26.570567547028105 35 38 39
-3.439666434923501 4.513230057837852 24.51618026393458 184 187 188
-3.4397044756794175 4.5338589500678115 24.619769229289187 175 186 186
-3.4350024028002046 4.451991887773029 24.10611453946602 179 185 187
-3.2463064852328283 6.734853261934814 23.074804629701788 134 130 135
-2.8444038752814405 4.501982286761059 24.534461588536523 177 185 184
-2.7797918550441 4.698509896229873 24.286216416452415 44 36 33
-2.7797918550441 4.698509896229873 24.286216416452415 44 36 33
-2.7409709886502487 0.09925671956490992 25.94004728834537 181 189 188
-2.7409709886502487 0.09925671956490992 25.94004728834537 181 189 188
-2.3656902932625368 3.8070005361411003 24.706628382922197 23 29 27
-2.2935666620260293 4.893881851792568 23.733197443354058 39 39 43
-2.0525969495189065 6.621277856560116 23.259487371877427 195 194 196
-2.2260585410208806 6.763509162401243 23.595017687712993 189 185 188
-1.7732301586866024 6.73134634089951 23.290708241208552 101 104 105
-1.5274400780039366 6.703342542984545 23.260831728167588 108 111 110
1.0136715236872234 -3.8013408241845177 27.19566478277509 187 190 189
0.852971950912131 -1.1673012758291381 25.942234478360113 175 183 182
0.8123851016660188 0.6242243684274053 25.05690617469984 173 181 180
1.1735199944458832 0.3591172040995772 25.694692226750426 30 36 38
0.8358386349493924 6.601473143491855 22.85592047165375 172 178 178
1.524039864065432 -4.915826200841031 27.900502008871847 180 183 182
1.316019394230403 3.722687709340063 24.16324182385801 24 27 26
1.3206752220325566 4.547644749764974 23.47882258842484 171 177 179
2.100195876361685 -4.638387490422498 27.434234297171265 58 69 69
1.5695976275462098 3.9805397238853386 23.681048491594154 164 172 173
1.5705387757529645 3.979174886838382 23.685034288078832 179 182 183
1.618205442732183 4.256074205306539 23.513653640973473 31 31 31
2.3652437584609927 -4.44549765987875 27.629894665591525 52 52 56
2.3652437584609927 -4.44549765987875 27.629894665591525 52 52 56
1.9561516951405349 4.55569911866582 23.228237353904778 167 170 171
2.026823262609131 6.681677998118992 22.636572338985605 172 178 178
3.628188667599253 -5.62697693981173 28.03476326197467 47 53 55
3.331426028309497 -1.716366757358042 26.257322345579905 186 189 190
2.7649952369716373 6.337398510418558 22.32222801656827 106 105 105
3.87473759921666 -2.7789846208316122 26.591982026960135 188 195 189
4.177045701011913 -2.7885928144867043 26.542521988216148 51 46 54
4.177045701011913 -2.7885928144867043 26.542521988216148 51 46 54
4.014262306576286 6.442472363187285 22.45859696921575 110 111 107
4.538203131746389 1.6541175283606153 24.24743727889181 34 34 34
4.538203131746389 1.6541175283606153 24.24743727889181 34 34 34
5.064734510331868 -2.0354272457166864 26.11638080071583 44 50 50
5.786464109769326 -4.074301094424582 26.882543946164386 192 192 192
6.347547435039192 -4.574247330983195 27.035155990071353 187 190 189
5.996737195822718 -1.1112198222243599 25.510822172948938 33 32 39
6.621765208767709 -4.876582841581585 27.006220525137795 40 45 50
6.188896798683622 -0.5805022791631295 25.243842206303725 168 179 175
6.308621590693733 -0.38270586078302743 25.161377654042592 42 39 36
6.920375427390157 -4.879051893653253 26.983228969371954 187 190 189
6.95205070703463 -4.400971516953156 26.852958975272404 33 38 43
7.084719975064998 -5.256442407716635 27.171638192136545 190 196 196
7.225105404343588 -4.8818795105896 26.995507149755063 49 47 58
7.261019273268485 -4.601266858911328 26.83363354095034 186 192 192
7.261019273268485 -4.601266858911328 26.83363354095034 186 192 192
7.319244665026061 -5.129885731440805 27.018951118439183 188 194 194
6.846476328638867 -0.5707809370328745 25.104080928622682 176 182 180
6.836220754535297 -0.3824309965103442 25.030340568739973 37 36 43
8.962250729519665 -3.236769307149523 25.890845325158057 55 54 58
9.35853781117849 -3.2540840342390864 25.897745007975267 41 40 47
9.40444456506624 -3.245291553353256 25.956163405346366 38 37 46
9.631074082913942 -3.3075268100229764 25.92164122948528 184 192 193
-6.313061184334409 3.672220622978088 25.534892045822545 32 35 34
-4.482374734117211 -5.320085473054376 29.305603603862675 42 50 49
-3.9983194457953393 6.788217487173512 23.588586875490176 190 190 192
-3.5031493669509186 0.4344266735912667 26.304191060060052 23 29 27
-3.375103377146096 -0.25874725110706637 26.532347757849536 40 39 39
-3.419792771647317 -0.26164815142976455 26.65849869704311 41 38 35
-3.1514758226202053 -0.4568760406451544 26.454362637719402 182 190 189
-2.812485719367278 -0.30105951780525503 26.487315163576582 33 39 39
-2.6139433279134163 4.496821657701461 24.05682299896759 177 185 184
-2.5901048148892674 6.702790415303765 23.38619120341003 188 188 190
-2.517649825249178 -0.5562537641766583 26.52099582599298 29 35 33
-2.3060772896395285 0.41242880286725847 26.197002967922305 30 33 36
-2.3830002934858707 0.4063405541668971 26.15243669733172 26 32 30
-1.1170308513197529 -2.8412296802360446 26.984197799949953 37 48 46
-0.04138829780958466 -2.8673595194010146 26.918631210700326 144 159 156
-0.07489603479658667 2.4105721635752473 24.851233042580507 176 187 185
-0.22358592974134664 6.641223369311891 22.73648028274117 124 123 130
0.14846074552658303 2.632455284784834 24.711660571371713 34 34 34
0.5121251264065495 -3.894837614959099 27.636510577217337 48 56 55
1.0828894872093056 4.8122407228638195 23.591632447686678 38 41 44
1.8187639094846832 -4.631812826245834 27.51955774918421 60 68 69
1.924398063645623 -2.5113327264834298 26.601909483551548 27 33 31
2.380254947214621 -4.880915071822744 27.73191599677768 185 191 189
1.8187874402075783 4.452643269237754 23.245420966825797 172 175 176
3.460502977906436 -5.728114418592285 27.985596082227904 67 75 76
2.427066890535047 6.487189707985349 22.2912929611079 100 100 102
2.427066890535047 6.487189707985349 22.2912929611079 100 100 102
3.3401180193040925 -3.507277405652988 26.953008990356143 185 191 191
3.681302899348803 -2.139536317561076 26.128656320708853 147 151 144
3.838849450233957 2.196620053754272 24.270842612328536 50 45 43
4.43741089943247 -2.7743622475886767 26.570863378592776 40 47 51
4.134715616922161 6.3630684005493965 22.309375225214083 184 187 190
4.341044342768069 6.314229431090676 22.310920067562733 128 128 132
4.558299410113973 6.448352040353276 22.249644234444478 185 188 191
6.410637554232277 3.529443181278113 23.247653164504033 144 152 149
-5.3672218974998485 -1.9308443510346642 27.571431771092616 188 188 184
-5.3672218974998485 -1.9308443510346642 27.571431771092616 188 188 184
-5.198566853539495 -2.0854168965397477 27.59052022695014 41 36 34
-5.198566853539495 -2.0854168965397477 27.59052022695014 41 36 34
-4.35007120261026 6.761996452077823 23.49052935405432 190 189 189
-4.433635230383627 3.0889827694683594 25.13315872380817 186 186 186
-2.984002480494679 -5.010614868307865 28.487572472288605 54 50 51
-2.984002480494679 -5.010614868307865 28.487572472288605 54 50 51
-2.812485719367278 -0.30105951780525503 26.487315163576582 33 39 39
-2.492076165783121 -0.02255538384467743 26.23802234280727 179 185 183
-2.487584172355911 -0.02262184803536605 26.226150823128417 178 186 183
-2.3263504632379632 0.40351313440327974 25.6640001597425 31 34 35
-1.6416094612394359 6.792447212983749 22.967398192547567 189 189 189
-1.0220760080646227 1.9382640636611705 24.976224623970086 33 33 29
-0.9470096265276666 2.3648996392251873 24.770962055322396 36 27 20
-0.9805496926089581 2.388174065350099 24.871154225829734 33 26 18
-8.128804281750602 6.821384878130819 23.538308262588576 143 138 136
-7.714224368259713 6.789122267383243 23.44100602983459 184 184 180
-5.856970412188667 -1.7537696567733818 27.144709498603547 33 39 41
-5.356800158960552 -4.431256569504995 27.95546861659037 52 60 57
-5.154305713617957 -2.0439452903419797 27.017425769038965 55 55 57
-4.617828319642541 2.7660089144720144 24.84184409343628 34 35 31
-4.617828319642541 2.7660089144720144 24.84184409343628 34 35 31
-4.660386960973554 -1.771929286083563 26.839239985514318 28 34 34
-4.660386960973554 -1.771929286083563 26.839239985514318 28 34 34
-4.659613239279709 -4.939706251458317 28.31270586255713 69 77 76
-4.285838640143422 -1.3852443387410251 26.62779942168389 179 185 183
-4.250625040477741 -3.1374167708354737 27.410613876705924 181 184 183
-3.9432656667726405 3.389874028964039 24.445238848019937 178 184 182
-3.8602999394388653 6.637774696514259 22.850834460901083 180 182 188
-3.8933881117391715 -0.9757926367478356 26.39791116652487 178 184 182
-3.6005139639900783 -3.8344393387651445 27.686297916272675 65 70 75
-3.5985638596798615 -3.8167253200270497 27.605489902199917 65 70 75
-3.384879071219581 0.044719856147959716 25.795293607821407 175 183 180
-3.3190981405862323 6.583617536301885 22.823279254644994 176 181 186
-3.219494104182033 -4.714484416144594 27.971258900065877 50 56 56
-2.921176584866259 -4.434469804522163 27.733802043149755 62 68 70
-2.921176584866259 -4.434469804522163 27.733802043149755 62 68 70
-2.9013589286657306 -4.072853206337014 27.559384984035965 64 68 63
-2.4806466067663107 -4.1640904350016505 27.4995697493227 70 75 80
-1.9585314145557842 0.7200389534863045 25.33175153838175 174 185 183
-1.9261528651397635 -1.046508403487423 26.225387514920726 182 190 187
-1.8746973660804531 -3.6909625985706866 27.285485863091175 179 185 183
-1.60493440177792 -3.4115795471305983 27.672374414662407 183 189 189
-1.5547453043257848 1.121061383613376 25.093465116091306 178 184 182
-1.5547453043257848 1.121061383613376 25.093465116091306 178 184 182
-0.9189198076227264 -2.5050035437445044 26.48845479708912 56 62 60
0.43482104967256535 -1.5813801638666973 25.980020159675764 179 185 183
0.19196303381355037 4.946523110431179 23.248684955598648 22 28 26
1.0500177100850974 6.40129432508889 22.242497477341562 181 187 187
1.2175283533938317 6.467028043025576 22.443975109395996 163 166 167
1.4895119999571165 6.368594902407773 22.34202305736786 97 97 99
2.3028904546743507 3.616822889122271 23.48374295797158 22 28 26
2.7118765703562646 6.444284190817885 22.04613689232423 176 182 184
3.4973122284316056 2.3345456561754867 23.80810818192985 22 28 28
4.144769663434193 -2.6549803580711138 26.52167987898767 198 201 200
3.449773232599199 6.370092378198955 22.074556879189036 174 177 180
3.449773232599199 6.370092378198955 22.074556879189036 174 177 180
4.299967912206542 -1.9898366051066263 25.521562518210505 30 30 30
4.905979990592969 -2.528268199925548 25.77891699736147 32 35 36
4.033918056174512 6.274026982714675 21.979069762915227 169 174 179
4.791851474560876 2.368140508718174 23.60710463376498 30 34 29
6.5130179962315955 -0.614053364283431 25.0477842949337 171 174 173
-5.983859573026076 -2.8477436562231135 28.57997544452565 72 75 78
-4.523832891565794 -2.9050319785292813 28.357553922911666 71 74 73
-4.285915833453164 -3.8428059715407152 30.131609028433065 71 74 75
-3.920951862728855 -1.50141814940814 28.691179000265254 51 57 59
-3.886137924155797 -3.409304914070289 29.701529468793943 65 71 71
-1.8569420612987442 0.8082828615163964 26.178930313140288 183 189 187
-1.797332675436417 -1.6072611605686962 28.727115648814628 49 57 56
-1.1417924997269957 1.443073975075942 27.630846007070474 37 40 41
-1.1417924997269957 1.443073975075942 27.630846007070474 37 40 41
0.7845108258391063 -3.618881163366118 29.065274548845395 188 191 190
0.7158614507244003 -1.226636362675013 28.101486632710383 46 54 55
1.0879305519224016 -3.4491896826457276 27.938339582407917 63 71 72
1.1053210657352632 3.0460802866394237 26.340778856402782 24 27 26
1.1053210657352632 3.0460802866394237 26.340778856402782 24 27 26
-7.904416182754667 6.881103083471082 23.745672993074066 138 134 135
-7.904416182754667 6.881103083471082 23.745672993074066 138 134 135
-7.60499243900762 -10.566892697665665 31.921008379582254 147 147 147
-6.19099757959497 3.68941944167848 24.974456060079387 29 32 33
-6.186457902334098 -0.7690380728644391 26.960825950319684 39 44 49
-6.258075329634581 -3.558654212343995 28.47789351403464 40 48 49
-5.166688927934072 -2.056445308459039 27.208358853021142 42 36 40
-4.771797247553982 6.743435811857043 23.31923306707073 130 129 131
-4.771797247553982 6.743435811857043 23.31923306707073 130 129 131
-4.620825353374227 1.5181808262392544 25.60598777016482 33 33 33
-4.620825353374227 1.5181808262392544 25.60598777016482 33 33 33
-4.3364388676876064 6.70980309657673 23.24205074676454 187 190 193
-4.308692612653593 -0.9557859293945836 26.795371252287943 30 34 29
-4.308692612653593 -0.9557859293945836 26.795371252287943 30 34 29
-4.372309715353274 -5.297531506080295 28.70230248511935 46 54 55
-3.963899153580521 7.000286043669189 24.0748857844411 133 129 132
-3.963899153580521 7.000286043669189 24.0748857844411 133 129 132
-3.947172925555755 3.425145408966691 24.61744950594247 182 188 190
-3.6894994758734154 3.654143043554324 24.549959905846386 34 33 33
-3.6894994758734154 3.654143043554324 24.549959905846386 34 33 33
-3.5588823348348777 -3.8739010918665002 27.74866823390774 61 67 69
-3.5588823348348777 -3.8739010918665002 27.74866823390774 61 67 69
-3.4799975743277725 3.8580277728954617 24.499175856510202 28 31 30
-3.488011708470695 -4.98447688178779 28.29126311104929 42 41 43
-2.67648081607301 -10.771366345817679 31.3110834370765 88 86 93
-2.5384404862514773 4.661920931583292 23.786334671977148 180 183 184
-1.9354205803213327 1.1490298425920944 25.41821654851022 24 28 23
-1.5672414752947192 2.913149353734965 24.46639163520992 180 183 184
-1.32491022811464 -5.41188004826325 28.224902152376636 40 51 51
-1.1822291157998457 2.561949595334695 24.589401143613873 23 29 29
-0.11442303436448041 -2.063128689954688 26.474012196427648 37 31 35
-0.11442303436448041 -2.063128689954688 26.474012196427648 37 31 35
-0.1019469248825501 2.492644691105547 24.161121357422413 40 29 24
-0.1019469248825501 2.492644691105547 24.161121357422413 40 29 24
0.4143031222974937 -5.4833415449612435 27.919102780761776 44 55 55
0.2665502367623206 4.993263184132349 23.2587118333979 29 35 33
0.3710895568748678 2.834759173588511 24.186447191562813 171 182 180
0.8356437001027198 -1.5751226869628572 25.981744503583762 23 29 29
0.8356437001027198 -1.5751226869628572 25.981744503583762 23 29 29
0.5682648929573965 6.687651738267761 22.593207631133023 176 182 182
0.7834072985976903 3.234401032966387 24.006124775275318 171 179 178
1.716956746984102 -4.088225094458452 26.966335287974225 36 41 46
1.305505756538794 4.514464755222509 23.366171430252418 171 177 179
1.2381003847479595 6.655637039706641 22.479797095924653 174 180 180
2.49414702981343 -4.210558969719699 26.973688629410415 35 41 43
2.49414702981343 -4.210558969719699 26.973688629410415 35 41 43
2.277559158793351 -0.1899966299262274 25.260080156233926 164 175 173
1.879714555030203 6.457530985761174 22.41341490217384 134 137 138
2.3963029407624155 0.21619436935607328 25.027770177424557 28 31 30
2.539679747624331 -0.9795149864146234 25.624619665641692 32 35 36
2.816473471923698 -3.4290735133832824 26.44975679331674 30 36 34
2.770432482032931 -1.6868860630094396 25.75116969195411 28 34 32
2.770432482032931 -1.6868860630094396 25.75116969195411 28 34 32
2.7743427384658004 0.5429516637454601 24.84664459429513 166 174 173
3.2420587403969128 -3.8772566582000767 26.635127214932954 28 34 36
3.2962642164101217 -3.4663927058106028 26.70340403711503 169 175 175
3.265169633627508 -1.2327334225732294 25.72458718098551 27 27 31
3.647492130442554 -3.1198558203075053 26.406883134392732 28 34 36
3.7426838954004973 -2.1525967439380977 25.89997882863181 165 176 174
3.7426838954004973 -2.1525967439380977 25.89997882863181 165 176 174
3.142493926277505 4.859909596932172 22.79413375885209 25 28 29
3.1011678368949354 6.270582997767663 22.218820738071898 175 175 175
4.112015470440453 -2.1696060257161793 25.794759714008055 163 169 167
4.112015470440453 -2.1696060257161793 25.794759714008055 163 169 167
4.1354189248956885 -2.14643407708509 25.786035848800655 164 172 169
4.1354189248956885 -2.14643407708509 25.786035848800655 164 172 169
3.7734208079556213 2.180044085964536 24.021984506540228 42 38 41
4.684094524309276 -2.9322310609507607 26.195925322073858 167 173 173
4.915017534986384 -1.9948362153185921 25.59519974622214 34 34 34
5.191981652435221 -3.9970990027091777 26.38125689587299 27 33 31
5.16125707112615 -1.77133038907019 25.348465534146865 164 170 168
5.113783909599002 0.43184744096913913 24.461689512756834 27 30 29
5.693817268207027 -3.540328021012614 26.329833066202504 27 27 29
5.693817268207027 -3.540328021012614 26.329833066202504 27 27 29
5.0951425827485615 2.6326330035902634 23.5333847660026 163 171 168
5.586797660611126 -1.7897330631758468 25.37243289414353 24 27 28
5.594885381987624 -1.3522514955555642 25.270353486937154 163 171 168
5.594885381987624 -1.3522514955555642 25.270353486937154 163 171 168
5.9091593658294155 -4.249669773166103 26.436559650917793 29 34 39
6.271048797143693 -5.269990793484532 26.964676826968745 28 36 37
5.5057393126906415 2.6035585592341257 23.462152453627716 25 25 27
5.5057393126906415 2.6035585592341257 23.462152453627716 25 25 27
5.537919469376117 3.0589993652367604 23.40315429726581 169 172 171
5.537919469376117 3.0589993652367604 23.40315429726581 169 172 171
6.454211505301047 -4.839699676867953 26.6037325802125 32 38 38
6.097108111035981 -0.919837735437188 25.03886555735217 165 171 169
6.097108111035981 -0.919837735437188 25.03886555735217 165 171 169
6.166473955053028 -0.3708372370542659 24.767255502325213 41 37 40
6.847091612183242 -4.517307083424635 26.62373532990578 40 39 46
6.847091612183242 -4.517307083424635 26.62373532990578 40 39 46
7.1095744106443055 -4.522521719017085 26.434234026563416 167 170 171
7.382561220734439 -5.58422332384245 26.8562247518144 43 46 49
7.346828363226016 -4.315507631748044 26.253392147976825 32 35 36
6.936166315033573 -0.14124235042640232 24.509470584891805 38 27 31
6.664993179519706 4.0444974368971245 22.709116873307643 166 169 168
8.285684282900904 -3.4015614232376183 25.76024102753939 31 31 35
7.444718002958265 2.534232262660926 23.180048611319126 24 27 26
7.985004144317635 0.7829024992654757 24.11748860216168 165 168 167
7.827464844377809 4.665243121057791 22.109554566825775 25 25 29
7.827464844377809 4.665243121057791 22.109554566825775 25 25 29
9.114404776919809 -2.90009821195883 25.448197246663437 167 170 171
8.62314473495276 1.0567439605669007 23.708372762290395 21 24 23
9.724703487347757 -3.475899679976833 25.591515136940103 33 32 32
9.584790220080459 1.1504888165606677 23.72096069264829 27 27 29
6.860703088637862 -4.866605410998472 27.599033663140304 174 180 178
7.574088779682987 -5.806061704699748 27.88180030883719 175 181 179
7.574088779682987 -5.806061704699748 27.88180030883719 175 181 179
10.434607387881762 -1.5932183490530527 25.895649601580526 27 33 31
7.088260750773513 -4.87522658062016 27.198645839429226 190 190 190
-5.700431166486924 -2.671817012471022 27.492509270026403 191 199 198
-4.530943042311486 -2.9886259307376073 27.21841417572289 54 60 58
-4.530943042311486 -2.9886259307376073 27.21841417572289 54 60 58
-4.328605764031879 1.126447247611992 25.456882069311675 189 197 196
-4.300168369741668 -1.0652554333909554 26.488347836219205 40 46 44
-3.1958496519103017 4.652095721950002 23.561703117704113 29 37 36
-3.12447582206777 -0.5922570033031181 25.966812509570612 193 199 201
-3.0266211143659647 0.14965828309189155 25.566407251785247 48 38 38
-3.0266211143659647 0.14965828309189155 25.566407251785247 48 38 38
-1.9373628677309962 -1.1562562199263398 26.0179089133022 192 200 201
0.37399711192764606 0.9315405348581846 24.77420569202983 189 195 195
1.483980125382983 6.272281488648094 22.3284748275034 125 125 129
1.483980125382983 6.272281488648094 22.3284748275034 125 125 129
1.7248133951716016 6.3324093195080415 22.260601427869283 189 188 195
2.286478909800147 3.5001049093530647 23.397933704567855 30 33 32
2.129282833549034 6.323317067783335 22.2094098253179 130 129 133
2.7107955972113533 6.260771569134066 22.13629851536672 182 177 185
3.102117987610615 6.276437947378182 22.050491592659366 178 174 179
3.429471857991011 6.257896339458943 22.018702180628946 190 189 196
3.8519104625916714 6.225716170564258 22.009125511474853 125 125 127
4.821146467974303 6.150720048765294 21.78262910300947 183 183 185
4.967214187813837 6.095809390937595 21.82401433566641 106 99 108
4.983572379114615 6.213720902836016 21.77977354892779 114 108 114
4.983572379114615 6.213720902836016 21.77977354892779 114 108 114
-6.205381249387294 3.5838611888528122 25.47667511260081 31 34 35
-5.411788113818932 -2.4869697424860324 27.95338065578981 201 213 215
-5.411788113818932 -2.4869697424860324 27.95338065578981 201 213 215
-5.148339257239813 -2.123963192850286 27.7037497511625 193 204 204
-5.4289354160545695 -4.8519046233197844 28.816521174406006 53 64 64
-5.4289354160545695 -4.8519046233197844 28.816521174406006 53 64 64
-5.165745773551762 -11.246316671995006 30.702055480786253 147 153 153
-3.4569983323721476 4.288166650470715 24.528478662411494 199 202 205
-4.381058187491967 -5.715313285149461 29.18204328218671 68 76 77
-3.6400090958981117 -1.0112006215281115 26.95625552280192 48 48 52
-3.1537094963317074 3.9633768297187277 24.564588600047703 195 202 206
-3.1537094963317074 3.9633768297187277 24.564588600047703 195 202 206
-3.0809633083918255 3.7190588187594376 24.55802731164613 44 44 48
-2.629936914949587 4.314164045797834 24.33435194465654 198 201 204
-3.3288361634894583 -5.332915289252891 28.782950566542336 191 199 198
-3.028919565884391 -5.043189357869655 28.59580806761765 191 199 198
-3.021799285097974 -5.027274714860239 28.51689925786142 194 202 203
-3.457322946795305 -11.052530330493942 31.809161959074572 169 177 178
-2.4588197802846268 -0.2597383984894869 26.321429501418365 195 203 204
-2.9606047679919767 -10.86206209433214 31.62241314681001 120 123 126
-2.008108230007622 3.1553628412955312 24.721694045479314 197 200 203
-2.008108230007622 3.1553628412955312 24.721694045479314 197 200 203
-2.0132297968547834 2.6958906256561392 24.832656802306182 32 38 38
-2.044201641632112 -12.014405534884045 31.902681347717795 144 155 153
-1.3679848126584693 -5.86173123265016 28.92632169085779 62 72 77
-1.5566371092722142 -10.691715409884669 31.074054100920865 185 188 189
-1.2022188046450153 -2.069641224923063 27.025518570288078 52 52 56
-1.5187010248202983 -10.873584086419806 31.297422307222003 101 104 105
-1.412900027793147 -10.286357248086434 29.843820398008152 192 198 196
-1.3453711960670998 -10.881318245064579 31.303594221115873 107 110 111
-0.9065840196310085 -2.391004778570269 27.136540678110432 197 203 203
-1.062274484668409 -12.581368530195098 31.793752052079764 140 151 149
-1.062274484668409 -12.581368530195098 31.793752052079764 140 151 149
-0.4584444573484783 -11.862634478279613 31.718337034170727 103 106 107
-0.09216073323131731 2.183881018139627 24.882729896772396 192 195 198
-0.09197233827212573 2.179971016861529 24.929848927056614 195 201 203
-0.32814113846519216 -12.027957820562419 32.363420775333 100 104 99
-0.07048333950892237 -10.901017410358968 30.98387700947235 121 124 125
0.14059081139654614 -11.744778856957957 31.377506510166153 119 122 125
0.14059081139654614 -11.744778856957957 31.377506510166153 119 122 125
0.25597838488432545 -3.412122254100961 27.23469288101022 56 59 58
0.18408007351892072 -11.823883116999902 31.14393289616684 150 158 159
0.27379365590692434 -12.163993960902658 31.71500622389739 101 107 107
0.5117929198300498 -5.879262702964223 28.2598751125271 65 75 78
0.8930164004605778 0.8408162777760715 25.4895994251064 31 34 35
0.9685084335208628 -12.876599125440142 31.758111139866223 131 139 136
1.058778660930798 -11.377144470404557 30.939985334319008 124 127 126
1.2188014336271495 -13.124737789976011 31.935141242541015 93 99 97
1.2129493945259702 3.9717035319884735 24.007254668012116 34 37 40
1.5924583231780631 3.7715106462723478 23.81087136357857 186 191 196
1.5386604944473896 3.8943846540524576 22.600196202091336 49 48 52
2.0136067288989894 -0.4358482740062868 25.688753257363555 53 48 56
2.0136067288989894 -0.4358482740062868 25.688753257363555 53 48 56
2.01465386950184 -0.4401204107062299 25.70279026581818 56 50 56
2.451172132435101 -11.751054596133377 31.036949778599894 158 169 167
2.199180158415243 3.786867568386074 23.81416881009789 54 47 56
2.5893958670154826 -4.5792654878463335 27.522332555270204 57 67 70
3.0743919740112085 -12.111897277468197 30.97625836421468 149 157 156
3.151783124944516 -12.446757594121104 31.349893578283226 106 109 112
3.2503715939978712 -12.899798548959392 30.973079193665388 133 136 135
2.930357086873647 -3.764688465103249 27.06646173672913 50 61 61
2.9120554014367435 -1.9647239127128973 26.35684685438771 41 52 52
2.80226781067672 0.7653234137792474 25.096167777117476 35 38 37
2.80226781067672 0.7653234137792474 25.096167777117476 35 38 37
2.769188480295527 2.958175282803654 23.938193106450054 188 191 194
3.7567369861603104 -11.653769721579785 30.788583757891374 106 109 108
3.459028718504191 -6.016364996433901 28.024533509447483 61 71 74
3.330167591183849 -3.754132779939612 26.825960742094583 192 200 201
3.9411898060409416 -11.772459127107659 30.755679495458224 144 152 151
3.043413187992477 2.826391764971301 22.84643488858986 31 31 33
4.271361663932187 -11.586268989259636 30.566627549333344 109 112 113
4.4773386872912955 -12.627047925920833 30.981197548310224 141 149 150
4.751529856650501 -11.068266424871638 30.30907718780859 148 154 154
4.198747794786678 -3.3422044048071933 26.568209717930845 190 201 201
4.925000716304273 -11.57657964726169 30.358753616282794 119 122 123
5.106594023158135 -12.131238370581851 30.967461681866325 94 97 98
4.282241549482965 -0.6511258498080656 25.445896680707737 27 33 31
4.247785703163564 -2.936913688982398 24.74055429066883 64 59 57
4.247785703163564 -2.936913688982398 24.74055429066883 64 59 57
4.1007104508842325 1.381181889590781 23.207949197463872 181 189 188
4.319309689331247 1.439186219617582 24.39995978745956 188 191 194
5.510924316867867 -11.835638949734452 30.504213257813415 153 161 160
4.51533154867673 2.015619514682351 24.058836070363718 184 187 190
4.382967595835954 1.3901642810756565 23.10212862513758 45 45 49
5.28238477172779 -1.5774761844119622 25.862093393685317 41 44 43
6.38287589262922 -12.869697912837541 30.86269409214988 94 100 102
5.150842228988789 2.889172275638532 23.655460450963535 29 32 31
5.632144568996158 2.4108325595537257 23.82389068580138 29 32 31
7.007294432950906 -5.075109158380891 26.882268746836193 197 205 206
7.007294432950906 -5.075109158380891 26.882268746836193 197 205 206
7.836226703164627 -12.31114411769841 29.87580741215371 68 74 72
6.5654722052293435 -1.225712691537448 25.09277251106027 182 190 191
5.699044856457831 4.118764764574351 21.886671566269452 28 34 36
6.816257533143853 3.5395352097955874 23.26305033088341 180 183 186
6.782951927159105 3.517506416081078 23.13690081000368 188 191 192
6.372679161659011 4.1785401913985165 21.752565880505433 36 36 38
7.2162774181595415 -2.0566805519205427 23.972435938575973 27 35 34
6.638650558439027 3.679674888895195 21.82803859836721 37 36 40
8.233354489078168 -4.493353157710693 26.540354132249455 40 45 50
7.648181097289363 0.11059470017508466 24.569727408950577 177 180 179
7.57614093245523 0.5738824168981277 24.249280895552747 31 34 33
7.857623255764966 1.9776039312566935 22.32240721242168 29 32 35
9.214047998183618 1.9023119380490674 22.12561291506812 32 32 36
14.955157738196643 -6.247852468474729 27.015278144704688 25 24 24
14.958629560955947 -5.9084664150302535 26.58238972435247 34 34 34
14.958629560955947 -5.9084664150302535 26.58238972435247 34 34 34
14.750216173320256 -4.872305283021457 26.107463310990386 26 26 26
14.738077597764056 -4.779110094917893 25.945205307962755 31 31 27
14.948223768825557 -5.220674615750142 26.182005341511022 23 23 19
15.01589526432949 -4.63452396100153 25.876234825048456 21 21 17
-5.959024322200738 -11.431338221885607 32.22868261698878 119 119 119
-4.582324837105665 -3.203766889769978 27.974961482451157 61 61 61
-5.260883357856262 -10.941908679101642 32.04073501925779 163 169 169
-5.008732010510494 -12.107464952850087 32.137457871958645 145 151 149
-3.0457386683377066 0.009254776206760738 26.370572433536495 56 42 38
-3.94342540339945 -12.66721762384337 32.45392442866921 137 145 142
-2.5539112048156056 4.54707770168351 24.32008980798928 199 198 205
-3.720826875010372 -12.685957606493584 32.44880072790093 141 149 146
-2.3057369110164205 4.757090072376609 24.193725737447693 42 41 45
-3.4735766902103937 -12.812863087151785 32.53204929858077 149 156 150
-2.730734041703353 -4.491629256094403 28.256025294617185 192 200 199
-2.6969172770354612 -5.054527676905623 28.50327751824362 74 70 73
-2.1962137517349913 -1.046842390949467 26.543328836493412 44 44 46
-2.7608017124356756 -11.16418974162502 31.677044684837835 162 170 171
-2.6455449904853947 -10.837054070970987 31.33209245994761 132 139 143
-1.9657436705897853 0.5010999054109536 26.02110957283443 197 202 207
-1.7494347726101396 -12.513227084686573 31.87248546519045 137 145 144
-1.0220110835217784 1.927969418510802 25.18671420121243 193 199 201
-1.5047757939389674 -11.35840801281465 31.541482413581775 139 145 147
-1.255740709620098 -11.357312676586679 31.531519169575027 163 171 170
-1.2046516376980605 -11.231338445668305 31.602026475131048 156 164 163
-1.0701964268719553 -12.29989384387798 32.10205196195859 140 148 147
-0.901323673544782 -11.559368463095414 31.482382178954342 159 167 166
-0.6864299487606107 -11.891494691749989 31.357520482732358 106 112 110
-0.4577102844717861 -11.048743107766287 31.224906453897802 169 180 178
-0.3123411841190964 -11.920736219076415 31.64116949320266 154 165 163
-0.3123411841190964 -11.920736219076415 31.64116949320266 154 165 163
0.14907639901264633 -12.380089948571516 31.70002618243664 140 148 145
0.14938996115794315 -12.413980001514858 31.781230761395545 140 148 145
0.2362986532164356 -2.880030762676323 27.01334830739849 50 53 56
0.24728822730336422 -10.749338329658356 30.815308930414787 185 188 189
0.3120810473542742 -13.017346474468251 31.922511257420023 124 128 121
0.3120810473542742 -13.017346474468251 31.922511257420023 124 128 121
0.42075151728109306 -11.046798634568434 30.968347949206844 168 179 177
0.4883051141522882 -1.851477072846563 26.39388221282129 195 203 204
0.46515890443142827 -3.473026335458986 25.732497119595855 190 198 197
0.6706095585701953 -10.935763395420162 30.858251334433067 115 121 121
0.8874131008624895 -1.4346335190938317 26.316495963429087 193 199 201
1.1430827934606274 0.09660474255770969 25.668061800173508 41 43 51
1.345709397142158 -12.746200334684312 31.677866014040248 93 99 99
1.4559039225604722 -11.766235242281775 31.27171369939842 160 166 166
1.670402622843547 -12.060827767364213 31.31943710321698 152 160 159
1.6613377260533255 -0.7394406013863494 25.967286470311468 197 202 207
2.0322100103001195 -11.5226881708429 31.009207725490295 110 113 112
2.0148297476142982 -0.13103919651495372 25.553506953568238 185 193 194
1.956974196586691 3.4704474171630357 23.998202849841757 194 201 205
1.9555447435144706 3.4745194515465205 23.980464776342714 191 194 197
2.0834135310592172 -0.6605367839617485 25.716137282367356 187 195 194
1.9864670841175833 4.379657405218136 23.513035849734557 187 190 193
3.0742501537658744 -11.640552386517403 31.007048508218183 113 113 109
3.3860377812131306 -11.844271987163854 30.69159480490431 104 104 104
3.720296266237248 -11.767997448134984 30.723557906066905 154 162 159
3.256976088286797 0.7203523114688208 24.984859963279565 191 197 199
3.256976088286797 0.7203523114688208 24.984859963279565 191 197 199
3.2371883515817186 2.523629315114056 24.243395658561415 196 196 200
4.1452188630312685 -12.501410401010277 31.029426241010224 98 101 102
3.255724336042614 4.751692049464153 23.34411792185013 35 38 41
3.06478440950814 4.541583238910823 22.09400278242639 36 36 38
