ply
format ascii 1.0
element vertex 677
property float x
property float y
property float z
property uchar red
property uchar green
property uchar blue
end_header
0.8352927894876746 0.013904381425224595 -0.3913819400463119 174 180 180
0.8368252667587343 -0.0019826993336526026 -0.3911084972337422 95 95 97
0.8368252667587343 -0.0019826993336526026 -0.3911084972337422 95 95 97
0.8373974225739421 -0.011584982651929797 -0.39125607340795654 153 153 155
0.8379649412720633 -0.02175595550929463 -0.3909412924841114 110 111 107
0.8382451806439392 -0.02863740766685287 -0.39054065755581574 171 171 171
1.0030090275590464 0.10891141383491726 -0.3998822372661741 52 60 57
1.015194068984899 -0.009583656616941438 -0.3993715703572487 67 77 82
0.9794337973514881 -0.014668513544360658 -0.4016270563984995 46 56 59
0.9701856525599156 -0.021204481445215164 -0.40085174379634475 178 181 182
0.899148419475575 -0.027915023790554397 -0.39765776242617457 158 169 167
0.9911949406488113 -0.04179794079108641 -0.4006003881003082 180 183 184
1.0040051243552557 -0.05298912681521957 -0.40163807661391077 49 57 58
1.0040051243552557 -0.05298912681521957 -0.40163807661391077 49 57 58
0.9398796813618167 -0.055219308895205675 -0.38504824705286467 27 33 31
0.9590032978569306 -0.015097738073634806 -0.3899382693707133 185 191 191
0.9086422133218647 -0.013689836124569118 -0.38627388641744614 21 27 27
0.9028590930256258 -0.016439682253106904 -0.38725109222366977 162 168 166
0.9563817031271857 -0.019528668701571435 -0.38523204827820823 183 189 189
0.9563817031271857 -0.019528668701571435 -0.38523204827820823 183 189 189
0.9696160224272248 -0.02142899564568804 -0.39799689813163786 165 171 169
0.899764840550832 -0.01992424489529547 -0.3867256295477283 39 39 41
0.899764840550832 -0.01992424489529547 -0.3867256295477283 39 39 41
0.899764840550832 -0.01992424489529547 -0.3867256295477283 39 39 41
0.9030695554400243 -0.022841627543605882 -0.3857034620421056 158 164 162
0.9030695554400243 -0.022841627543605882 -0.3857034620421056 158 164 162
0.9043929255504405 -0.02461510877247276 -0.38619712491809066 159 167 164
0.9043929255504405 -0.02461510877247276 -0.38619712491809066 159 167 164
0.9361249365891959 0.06548029965865992 -0.38440769159678867 30 36 36
0.9284397296991317 0.0647405429881416 -0.38359828480047375 177 185 182
0.9284397296991317 0.0647405429881416 -0.38359828480047375 177 185 182
0.9905009734376472 0.06617175089207206 -0.38340256810630713 188 191 190
0.8764380637150914 0.06223473213597689 -0.38406407768411815 32 35 36
0.9226010591245 0.06289562609109353 -0.38344215714929897 31 34 35
0.9226010591245 0.06289562609109353 -0.38344215714929897 31 34 35
0.9226010591245 0.06289562609109353 -0.38344215714929897 31 34 35
0.9567187612583924 0.03559611079770005 -0.3851560629131161 45 33 33
0.9567187612583924 0.03559611079770005 -0.3851560629131161 45 33 33
0.9676402961758376 0.03514351648742261 -0.38476528874892973 182 190 189
0.9676402961758376 0.03514351648742261 -0.38476528874892973 182 190 189
0.9637604440955256 0.03493175305231103 -0.3847221660657065 39 39 39
0.9637604440955256 0.03493175305231103 -0.3847221660657065 39 39 39
0.9600708525839581 0.034882403360575305 -0.3848726485535571 190 198 197
0.909337372388925 0.030812089996691522 -0.3850207811334978 36 39 40
0.9344629533848418 0.012514006130449506 -0.3878541708634573 189 195 195
0.9868000901841757 0.008772024112751077 -0.3841668336806923 188 196 195
0.9868000901841757 0.008772024112751077 -0.3841668336806923 188 196 195
0.9297055369156073 0.007914221933658717 -0.3853740803013196 51 50 54
0.9297055369156073 0.007914221933658717 -0.3853740803013196 51 50 54
0.9374837133805068 0.0036844275698202757 -0.3853571084272711 185 193 192
0.9374837133805068 0.0036844275698202757 -0.3853571084272711 185 193 192
0.9296356748812858 0.0037258397046715263 -0.3853306117729709 182 190 189
0.9296356748812858 0.0037258397046715263 -0.3853306117729709 182 190 189
0.9240322436288343 0.0018824166101927674 -0.3856313918052992 33 39 39
0.9240322436288343 0.0018824166101927674 -0.3856313918052992 33 39 39
0.9134810227532307 -0.0027966502411703054 -0.3868111529467284 34 37 36
0.9672325782274624 -0.015746779709017226 -0.38413203747287006 47 47 49
0.9536208153608811 -0.0300136677039394 -0.38470111922719497 39 41 47
0.9071114506318956 -0.028357482854825818 -0.38577526192111194 30 33 32
0.9806464541283602 -0.03271625312919958 -0.38300187072820585 42 48 50
0.9500375032175554 -0.03364296536242313 -0.3839100218626786 186 189 188
0.9500375032175554 -0.03364296536242313 -0.3839100218626786 186 189 188
0.950224763038687 -0.03887406023042764 -0.3841831693445587 31 34 37
0.950224763038687 -0.03887406023042764 -0.3841831693445587 31 34 37
0.9839085709714092 -0.04171621493646 -0.3831902594676334 40 45 50
0.8364967711859385 -0.03563745913575276 -0.3848582265572531 114 108 114
0.9381016435373583 -0.045606292006879524 -0.3849279853864139 183 191 190
0.9381016435373583 -0.045606292006879524 -0.3849279853864139 183 191 190
0.933328697928862 -0.04537054479221455 -0.3850722452346354 179 185 183
0.933328697928862 -0.04537054479221455 -0.3850722452346354 179 185 183
0.9300509077808604 -0.046635770594209855 -0.3841233253932213 48 47 47
0.9300509077808604 -0.046635770594209855 -0.3841233253932213 48 47 47
0.9357546036051506 -0.04815885717585522 -0.3851164819665465 186 189 188
0.984575160540183 -0.052823899950072854 -0.3834633073174788 37 39 45
0.9923304440394324 -0.056463141774995285 -0.3859588496465222 51 46 58
0.9842716935274691 -0.06026940952402884 -0.38336411316619257 40 45 52
0.9269092819973949 -0.056982908012474985 -0.38481653384360887 41 36 44
0.9822837349044129 -0.06939475900576329 -0.3860941441738277 29 34 39
0.9538611199747644 -0.07283049880026109 -0.38407357410451354 32 37 42
0.9538611199747644 -0.07283049880026109 -0.38407357410451354 32 37 42
0.9682049944545464 -0.07946603858948038 -0.38374228731051996 41 43 51
0.9581865216297742 -0.08366534454936668 -0.38424074132252334 183 183 183
0.957780009020554 -0.08959871701349006 -0.3840361939506727 28 34 36
0.9741923462038508 0.08831716979236676 -0.3839455192119987 193 197 192
0.9741923462038508 0.08831716979236676 -0.3839455192119987 193 197 192
0.8672838931698925 0.07451575185943378 -0.38527103392971773 185 191 193
0.9991833171798085 0.07661345506262973 -0.38436337523134323 191 194 195
1.001791965142199 0.07252299735094972 -0.3839757957959637 67 70 73
0.902700216659098 0.035514678374245844 -0.3860946191439981 35 38 41
0.8772043429271097 0.013211207604761452 -0.38686251730348337 23 29 29
0.8763613966547366 0.004616154313774369 -0.385819652039545 175 183 184
0.8319430902287144 0.0024115841729601814 -0.3516503899655359 108 104 109
0.8943796715656428 -0.027926489187780307 -0.3819432490810716 179 182 181
0.8631150830858412 -0.04769874261400043 -0.38379689936395567 24 27 26
0.8767542295843388 -0.061083364274046655 -0.3826938115625504 24 24 24
0.894634182522778 0.09314341973678769 -0.396286343967748 37 37 37
0.8649192488694305 0.01211094452909448 -0.38779478055713673 170 178 179
0.8688612626226078 0.008190343103996271 -0.3883313277262612 30 33 32
0.8651388038385643 0.0051200847659113495 -0.3873327566954957 171 179 180
0.8651388038385643 0.0051200847659113495 -0.3873327566954957 171 179 180
0.8639828761254997 0.003530755477266825 -0.3871797049946698 173 181 180
0.8639828761254997 0.003530755477266825 -0.3871797049946698 173 181 180
0.8628830929652302 -0.0009768332213875054 -0.3874192968120331 24 28 23
0.9823586867758868 -0.009947801892190897 -0.3842459341901723 57 65 66
0.9612531086894017 -0.031771550011204824 -0.38318349845854904 41 47 49
0.9747078962256036 -0.03541109018343336 -0.3826061112199054 177 183 181
0.9372983435394182 -0.05596168107596495 -0.3776767554039324 29 35 35
0.930839116865986 -0.0582118884310633 -0.37771643647375347 174 182 181
0.922157442209676 -0.06027099732305197 -0.37678839556291205 28 31 32
0.9059585198647935 -0.07860064156824391 -0.3734644741371832 22 25 24
0.9203087606247448 -0.093830315699965 -0.3773613456947263 26 32 30
0.9170200312532745 0.11031447324489765 -0.3775369886850988 35 41 43
0.977057291758978 0.11171221967400169 -0.37701697252647703 57 65 66
0.8558298326023741 0.0870144121259277 -0.37504537347739003 30 36 34
1.087202760876824 0.10119724413422675 -0.38125115475712773 98 95 92
0.8859877047317428 0.08023686276825767 -0.3777959025013087 34 37 38
0.9764039358947671 0.08168750170485939 -0.376542197637249 193 199 199
1.0784071345758173 0.0809423373100523 -0.3801831854956647 71 71 71
1.0855124091347084 0.06007023506768091 -0.3774859205838422 171 174 175
0.9467227391446711 0.05115516851777322 -0.37729753468805705 192 200 199
0.976387763656766 0.05153020764039938 -0.37636116958077054 35 43 42
0.8561161282340601 0.048542598657488695 -0.3775178781987591 30 36 38
1.0764511523505464 0.04853189223363454 -0.37889020995524625 137 145 144
1.0758255485007728 0.037463298089487534 -0.3802872653896619 94 93 95
0.8563890761980136 0.025602646480426334 -0.37782224124387553 41 47 49
0.9523676320342864 -0.07315863116839727 -0.3707303254257029 174 177 178
0.9618815994894556 0.09440406012637872 -0.37771323263878787 190 198 195
1.0782895206199357 0.09241200773308336 -0.3808324027532095 98 104 102
0.9989201670359267 0.07975358580237953 -0.37923372362028834 52 52 52
0.9989201670359267 0.07975358580237953 -0.37923372362028834 52 52 52
0.8598845271754549 0.07004767509800057 -0.37509426347725877 29 37 36
0.9917780368764322 0.07494401674403156 -0.3777773721894138 51 43 40
1.0728350505063313 0.07218060864900257 -0.38063419711318197 138 144 144
1.0757618257542196 0.07140407278757795 -0.3823431442195561 84 84 86
0.886651908706012 0.05626256940208094 -0.3786297756863949 34 40 42
1.0777017241624332 0.042462087405930694 -0.380670399886949 131 137 137
1.0777017241624332 0.042462087405930694 -0.380670399886949 131 137 137
0.9814798227337126 0.01875993728805823 -0.3786188215688929 40 50 55
0.9846448789557438 0.015407646825609599 -0.378385052524024 189 197 196
0.9846448789557438 0.015407646825609599 -0.378385052524024 189 197 196
0.9239932863004564 0.014599534118873474 -0.37955619829697845 184 192 191
0.866964673801881 0.009432249902169686 -0.3791459352751455 49 48 52
0.8750586910145892 0.005778278645638104 -0.3799529456039007 189 195 195
0.8623905044993988 0.0047387220354155315 -0.37954382844909723 186 192 192
0.8709395496553213 0.002393595885585367 -0.3799662112576765 45 44 48
0.8709395496553213 0.002393595885585367 -0.3799662112576765 45 44 48
0.8639885651645475 0.002533966905069968 -0.37991869040207155 52 39 47
0.8639885651645475 0.002533966905069968 -0.37991869040207155 52 39 47
0.8614196598403541 0.0003063735507254191 -0.37996687596000667 38 41 42
0.9292770538319315 0.06957815301966816 -0.38552181983850525 197 205 206
0.9292770538319315 0.06957815301966816 -0.38552181983850525 197 205 206
0.9079649918501373 0.04513985237152614 -0.3839356659695598 38 37 39
0.9027527015140733 -0.02686393398300298 -0.38649752500407525 188 191 194
0.9027527015140733 -0.02686393398300298 -0.38649752500407525 188 191 194
0.9036549862338231 -0.028540474127195455 -0.3861852628062737 192 200 201
0.9036549862338231 -0.028540474127195455 -0.3861852628062737 192 200 201
0.8937090582007357 -0.029786900004858143 -0.3837848696842167 193 198 203
0.8945595988153261 -0.03222014318470772 -0.3869182529385168 181 184 187
0.8945595988153261 -0.03222014318470772 -0.3869182529385168 181 184 187
0.9456679831442767 -0.03730924982442817 -0.3898243032795461 41 44 43
0.8921862620154182 -0.03499721834722473 -0.38720232479236166 38 38 42
0.8819623759090249 -0.038479685074611004 -0.38630126071856724 29 32 31
0.8885566977371786 -0.04443546191765214 -0.38644187843279626 29 32 31
0.8826300455024638 -0.044524872758876344 -0.3877037917527985 183 186 187
0.8623741649083407 -0.05005918621035401 -0.3881196480667412 30 29 29
0.8729863096460097 -0.060404452787798 -0.38886354526386757 180 183 186
0.8725975953280979 -0.06020866046210184 -0.38731643597872456 180 183 186
0.9498157976663836 -0.06798084909598749 -0.38287581822096284 41 47 49
0.9195283488136945 -0.06921923868217066 -0.38573016404992605 177 180 179
0.9075716146130091 -0.08339428834691982 -0.38183677977044783 30 30 30
1.0018213506465463 -0.011593574509819566 -0.38009477473451336 67 75 76
0.9000921144643024 -0.03244059368902161 -0.3880869043900057 181 187 189
0.9340487197316991 -0.04968024598649403 -0.38796464201000147 181 189 190
0.9340487197316991 -0.04968024598649403 -0.38796464201000147 181 189 190
0.9997407879963787 -0.0564284877551552 -0.38486991039833407 192 200 201
0.9198808750300651 -0.07502657902577886 -0.3853449637268629 27 30 31
0.8773740535446262 -0.04957815434107853 -0.3869603875337766 29 29 29
0.8773740535446262 -0.04957815434107853 -0.3869603875337766 29 29 29
0.868109980241549 -0.06304827534311797 -0.3877834717305699 39 38 45
0.9615358940109243 -0.07802285243795982 -0.38618016346754275 42 47 54
0.8956996727894615 -0.08249459630783573 -0.38733649860643293 185 192 196
0.9003150491183277 -0.08618962213891163 -0.38690564049989 34 33 35
0.9052035589167073 -0.08995767734923069 -0.3861776938377018 186 189 190
0.9936875606666145 -0.16451313783801708 -0.3966792907173371 20 19 19
0.9607599138855777 0.0418019771433175 -0.3790608485829162 56 48 45
0.9573341857637881 0.035302277496169016 -0.3789180126577318 46 53 57
0.9592977076200357 0.03216164015194948 -0.39423069392499616 33 39 39
0.9820122039483314 0.0035685471072152922 -0.3763465462517439 178 186 183
0.9857968539577409 0.0033127429953502324 -0.37612516638374155 73 76 79
0.9409603201507742 -0.006597602171451059 -0.3785930719085882 187 195 192
0.9376094561740567 -0.008084664738587261 -0.37192573714722765 187 195 192
0.9551919129014728 -0.009412786515935885 -0.3945686594502516 164 170 168
0.9144542144856088 -0.01387067369752045 -0.37247221418102033 34 40 42
0.9284934537399088 -0.024634140332798888 -0.3781442349792949 30 36 34
0.9281953286440965 -0.05360168834357701 -0.3757849397409263 184 190 190
0.9580017870190407 0.026860493175694687 -0.36737920430791715 186 192 192
0.9282216784332777 0.0066468646269448005 -0.3738000916958981 193 196 195
0.8681264186124954 -0.001565543694264145 -0.3751824741666417 52 50 57
0.9278209656422087 -0.0011015083583688415 -0.3724778970192496 55 54 54
0.9240983125706613 -0.0017124315786917262 -0.3727112719042019 182 193 189
0.9941812272666084 -0.001986701939225988 -0.37503158396366076 65 76 76
0.9345032782356315 -0.004596588392663347 -0.37262992329520467 48 48 50
0.913853865943068 -0.008332190327259256 -0.3721888824438096 189 197 198
0.9035892511708801 -0.01870601410598003 -0.3722977904229325 32 38 40
0.9053995828883595 -0.027944946371320327 -0.3922750055193875 24 23 25
0.9053995828883595 -0.027944946371320327 -0.3922750055193875 24 23 25
0.8536432323953984 -0.03924405042176045 -0.3689672126569638 35 41 43
1.0805314358621476 0.12031805541251733 -0.3887392583448457 140 143 144
0.9918309849807719 0.10168343118249379 -0.38387870783623124 53 61 62
0.9918309849807719 0.10168343118249379 -0.38387870783623124 53 61 62
1.0734070415347838 0.08783654495624946 -0.386639523324442 164 172 171
1.0767044077884782 0.0864857558030112 -0.38418045211081076 164 170 172
1.0781904916645817 0.0860193928569487 -0.3908812919589778 170 178 175
1.0781904916645817 0.0860193928569487 -0.3908812919589778 170 178 175
0.9585489970593746 0.04336741501965147 -0.38885586769062674 197 203 205
1.0857071631662616 0.03944299181497273 -0.38953580454373354 108 114 116
0.9993670015319688 -0.0362403166938128 -0.37616256781700247 64 74 77
0.992773896847362 -0.05449501340313755 -0.38830830591369747 57 62 67
0.992773896847362 -0.05449501340313755 -0.38830830591369747 57 62 67
0.8757894627374736 -0.055240602571619266 -0.38728481989435665 186 189 192
0.8636035409374756 -0.05541903092072894 -0.38710331030343825 189 189 191
0.8572312806645059 -0.05800420207401565 -0.3684471102865235 34 33 40
1.0103145757000085 0.12257980038489343 -0.3606855946903419 200 199 199
0.9736511142731284 0.022470289536387054 -0.37284079765125255 55 66 64
0.976587011404836 0.01803151705096809 -0.3778478502879172 184 187 188
0.976587011404836 0.01803151705096809 -0.3778478502879172 184 187 188
0.9772247605304841 0.013888302217585764 -0.3731606813709678 65 70 75
0.9194855644284503 -0.003187645558800962 -0.3748507244533655 34 37 38
0.9194855644284503 -0.003187645558800962 -0.3748507244533655 34 37 38
0.9684851394648681 -0.00931204693640489 -0.3711170504619232 69 72 73
0.9144542144883235 -0.013870673696547117 -0.37247221418788673 34 40 42
0.8940945712307952 0.04745379085677673 -0.39127762051068016 21 27 25
0.8681264186124954 -0.001565543694264145 -0.3751824741666417 52 50 57
0.9580017870190407 0.026860493175694687 -0.36737920430791715 186 192 192
0.9182483914490835 0.023868654841539952 -0.38450379331494244 35 41 41
0.8881745347654221 -0.013172606374304565 -0.38753927361338786 196 196 200
0.8881745347654221 -0.013172606374304565 -0.38753927361338786 196 196 200
0.8954271914689462 -0.020712222904487463 -0.3871757405843654 45 34 38
0.9567328703615083 -0.023771382387826855 -0.3869902106935957 196 204 205
0.9567328703615083 -0.023771382387826855 -0.3869902106935957 196 204 205
0.9627821774632113 -0.023727619340032615 -0.3889705635376301 191 199 200
0.9627821774632113 -0.023727619340032615 -0.3889705635376301 191 199 200
0.9036910634787065 -0.02847330853578923 -0.3870409136092188 187 194 198
0.9036910634787065 -0.02847330853578923 -0.3870409136092188 187 194 198
0.9564160750334078 -0.03171117392168092 -0.3698681112521071 178 189 187
0.9564160750334078 -0.03171117392168092 -0.3698681112521071 178 189 187
0.946401580531976 -0.03772279703767703 -0.39071467350138334 40 46 46
0.946401580531976 -0.03772279703767703 -0.39071467350138334 40 46 46
0.8818123893510016 -0.03879023616022038 -0.3850863940327028 32 35 36
0.8818123893510016 -0.03879023616022038 -0.3850863940327028 32 35 36
0.8883417402160402 -0.03873883477182564 -0.38759900728557084 189 195 197
0.8883417402160402 -0.03873883477182564 -0.38759900728557084 189 195 197
0.9522434547587317 -0.04316861237811167 -0.38979205448825077 40 46 48
0.9522434547587317 -0.04316861237811167 -0.38979205448825077 40 46 48
0.9458327829339618 -0.0432454828273762 -0.38926085337729854 192 198 200
0.8889922178450302 -0.04452641213442305 -0.38812565967336254 34 37 40
0.9391926131062168 -0.049837319116597854 -0.3882741195612142 183 194 192
0.9786028638273151 -0.05300828318325207 -0.36297174752303274 57 68 68
0.9786028638273151 -0.05300828318325207 -0.36297174752303274 57 68 68
0.9385654453563169 -0.057876318687595074 -0.3884275162795271 45 44 48
0.930928811162575 -0.05829659931258195 -0.3880444848469064 57 51 57
0.8668543470420089 -0.06020182296800771 -0.38541855950744525 185 188 191
0.8698620710097595 -0.06530068685479033 -0.38659840549517954 29 29 29
0.88229541956509 -0.06996255378117605 -0.3855982291664947 184 190 192
0.9204415079200893 -0.07516056848856129 -0.38697690932381723 32 35 38
0.8577113552323402 -0.07668298195474182 -0.38855058901779593 28 31 34
0.969634849489051 -0.0845309212643315 -0.38781456140811743 61 57 60
0.969634849489051 -0.0845309212643315 -0.38781456140811743 61 57 60
0.9643523353016149 -0.08847842258618506 -0.3859470458552632 193 199 201
0.9691379710673468 -0.09537488144685251 -0.3858106395294302 49 51 57
0.9718965147181031 -0.09618345996126805 -0.3852033028020955 59 59 61
0.9258150140032702 0.005312633612149521 -0.36767841014669955 193 196 195
0.9258150140032702 0.005312633612149521 -0.36767841014669955 193 196 195
0.9331121400139406 0.004785775622546236 -0.38540398384743063 133 151 147
0.9331121400139406 0.004785775622546236 -0.38540398384743063 133 151 147
0.9114431213479849 -0.00967235076819631 -0.3662334057721727 188 196 195
0.9055702995916215 -0.015032811254976733 -0.3652870781100029 191 197 199
0.9934843862923021 -0.026982337903128085 -0.3690670250222365 61 73 75
0.9657825374069763 0.08117113036741419 -0.37167257478375837 203 203 203
0.9139015661609781 0.05182891795991644 -0.3757907381828999 202 202 202
0.8842397487268573 0.021362384049494896 -0.37618098761647906 197 203 205
0.9984398931701547 -0.012780367770969319 -0.37514984868421014 67 75 76
1.058342431372545 -0.03547606565461798 -0.37023917148578595 152 160 159
0.965472720089203 -0.03837455508408931 -0.3685287539199039 178 186 183
1.0624704326346168 -0.041139570280679584 -0.37231519221421683 107 110 111
1.0571082096388253 -0.044124715213937814 -0.36884437481760085 161 167 169
1.0593974441296197 -0.05464700477945137 -0.3709409784963648 155 161 163
1.058710805668472 -0.05641765660482428 -0.3702861315711581 148 154 154
0.9393452711661415 0.07345623618293859 -0.3916165585393875 180 188 185
0.9355535014763221 0.039236246437566784 -0.3944873643506237 22 28 26
0.9323488902533889 0.037983791518947416 -0.3871135869144064 23 30 24
0.923043243021104 0.016384151727712615 -0.38550616246085956 15 23 20
0.9255945338683584 0.013064440334341275 -0.3846719342241818 134 157 153
0.928795070669465 0.010849821772183438 -0.39101587965117524 39 35 38
0.929226671792845 0.008611879567243326 -0.38539888926644067 132 155 149
0.929226671792845 0.008611879567243326 -0.38539888926644067 132 155 149
0.9263910456209472 0.005688588913588118 -0.3865108557950072 132 152 147
0.9582518183625135 -0.014531394544094526 -0.3904186636714611 130 144 148
0.9222656739185805 -0.03520985409368774 -0.39069022547539345 15 21 19
0.9222656739185805 -0.03520985409368774 -0.39069022547539345 15 21 19
0.9476846084153977 -0.040415549008169675 -0.3916449303597813 146 157 157
0.9366744903849756 -0.04680388844303564 -0.3920278984649261 135 148 145
0.9337569335860693 -0.04836396851736455 -0.39153415821485504 48 54 54
0.9337569335860693 -0.04836396851736455 -0.39153415821485504 48 54 54
0.9385547907323616 -0.04978040791498407 -0.3913622834093131 186 192 192
0.9385547907323616 -0.04978040791498407 -0.3913622834093131 186 192 192
0.9964859492596287 -0.05044273625517419 -0.3912968884953309 43 51 50
0.9479486538626747 -0.06619680518339936 -0.391492300874194 153 161 160
0.9479486538626747 -0.06619680518339936 -0.391492300874194 153 161 160
0.9631230608201873 -0.09257367145189706 -0.3934302946405738 30 33 34
0.9032546404558448 0.009145547760830843 -0.3942088415133397 18 21 20
0.8958431833953578 -0.01435407676048192 -0.39452408282222956 20 23 22
0.897320167036813 -0.01996006678324037 -0.3940651619123038 157 165 162
0.9051817974215498 -0.02334182717879643 -0.3937105355536469 158 164 162
0.9051817974215498 -0.02334182717879643 -0.3937105355536469 158 164 162
0.9048353662245147 -0.02725179004204155 -0.39399255015738505 26 26 28
0.9048353662245147 -0.02725179004204155 -0.39399255015738505 26 26 28
0.8795746333671063 -0.045925524168674244 -0.39396882570179537 20 23 22
0.8795746333671063 -0.045925524168674244 -0.39396882570179537 20 23 22
0.8784931268876476 -0.05155613656405626 -0.3941948538567044 160 161 157
0.8727343799371352 -0.05347408592646506 -0.39436246670853514 160 160 160
0.8727343799371352 -0.05347408592646506 -0.39436246670853514 160 160 160
0.9331107752294948 -0.05469698826135245 -0.3940789844547397 24 27 28
0.9331107752294948 -0.05469698826135245 -0.3940789844547397 24 27 28
0.9331107752294948 -0.05469698826135245 -0.3940789844547397 24 27 28
0.929020175151554 -0.05511664453601339 -0.39432669303034185 151 151 151
0.9361736372340168 -0.058248697047204395 -0.3940349051860071 154 160 160
0.9424245439770985 -0.0599516848905135 -0.39370646883200044 22 25 24
0.9094282459796247 -0.0783695066272474 -0.39511511650908926 32 31 31
0.9057136967459163 0.040288237603250183 -0.38379341792611044 13 19 17
0.9101801099261029 0.028281653835738496 -0.38536293710992253 17 20 19
0.8781477004063528 -0.0004775270573658476 -0.38836602380632085 13 19 19
0.9051755063751122 -0.017629067550212575 -0.3915100139131744 176 187 187
0.9021365842848478 -0.021209378202390224 -0.39149238231719063 33 29 30
0.9021365842848478 -0.021209378202390224 -0.39149238231719063 33 29 30
0.8953546550913729 -0.03225831641446783 -0.39172849979006275 16 22 22
0.865502250554063 -0.04723858437033116 -0.39110443956349794 21 27 27
0.8673248878819142 -0.0525725350693638 -0.39204207151359394 146 152 152
0.8674076065703209 -0.05257758881178964 -0.39229956230288604 146 152 152
0.8792902122412147 -0.052367057329453105 -0.39205498874455774 161 161 161
0.8648034647867522 -0.05649443014966481 -0.3935467007986818 22 22 22
0.8763128148537263 -0.05742756452760192 -0.3927547411793585 138 149 147
0.8920038506034103 -0.07266411092187863 -0.3916213559125563 154 155 151
0.8618454603056862 -0.07450707260803863 -0.39295973004228507 16 20 15
0.9038261907743025 -0.08335344709884808 -0.39265188764488484 16 22 20
0.9298811053111824 0.014477628929771188 -0.3941521841522154 168 176 175
0.9276168064105546 0.01052931520578145 -0.39514994095167816 24 28 23
0.9329013287999748 0.0026043561623573875 -0.3914927180944532 178 186 183
0.9058322564281197 -0.024282855248603758 -0.3912577501448933 158 164 162
0.9058322564281197 -0.024282855248603758 -0.3912577501448933 158 164 162
0.9679376374967665 -0.02335097816274374 -0.392044257663554 38 41 42
0.9028683598432493 -0.02980595007538034 -0.3915333811914243 150 158 157
0.9894874916524894 -0.05496106790470256 -0.39156017441300645 42 45 46
0.9335764693642014 -0.05559617146649496 -0.3914281262908252 32 28 31
0.969058350290112 -0.08590216772700557 -0.39291756158257996 185 191 193
0.9532779728851558 0.052348575654080305 -0.3916761784464277 171 174 173
0.957130844570075 0.04873205653055746 -0.39205351587489196 34 37 40
0.8346185939139933 0.09862527596297578 -0.39088727008953383 186 189 190
0.8387187534130542 0.045468101974095815 -0.3914825412820422 119 115 116
0.837349065717731 0.06764687103431949 -0.3926535731329108 186 189 190
0.836013454862907 0.1311743099597654 -0.3886974632301342 189 189 191
0.8364093833549543 0.12023420134859608 -0.38832589223866104 190 190 192
0.8364093833549543 0.12023420134859608 -0.38832589223866104 190 190 192
0.9598044095980742 0.1030691561898112 -0.39029736124756376 186 189 188
0.9598044095980742 0.1030691561898112 -0.39029736124756376 186 189 188
0.9615679438285715 0.10064536621826763 -0.38975765303944865 55 54 54
0.9615679438285715 0.10064536621826763 -0.38975765303944865 55 54 54
0.958394656922302 0.09965394738899562 -0.3900628348616217 183 189 187
0.9581615638290264 0.09431720070395279 -0.3905222826089264 39 45 45
0.9465340897274576 0.08905258886192223 -0.3912564136626319 34 41 35
0.9436676552263294 0.08033392457314566 -0.3925816034616971 28 31 32
1.0022686615627718 0.07378022373245766 -0.39119272872893723 70 77 81
1.0022759277409279 0.07374282255588388 -0.39121754628247063 70 77 81
0.8370663769109525 0.056514687180913466 -0.3911335836438166 102 102 102
0.839039665883665 0.05535422278488112 -0.3911676104074997 94 94 94
1.0029203673610418 0.07035423810173985 -0.3916641984039767 183 189 187
0.9987310219803011 0.06967706874595556 -0.391710850160759 71 78 82
0.9987310219803011 0.06967706874595556 -0.391710850160759 71 78 82
0.9987310219803011 0.06967706874595556 -0.391710850160759 71 78 82
0.9918629169968449 0.06679626511462038 -0.3921314850044243 72 78 80
0.9918629169968449 0.06679626511462038 -0.3921314850044243 72 78 80
0.8379326616199205 0.049798138369453196 -0.3914808798095722 115 115 119
0.8379046774813534 0.049770062930943736 -0.391506460030675 101 100 100
0.9894753455129414 0.06371144137402955 -0.3923577414428671 54 65 63
0.8387187534130542 0.045468101974095815 -0.3914825412820422 119 115 116
0.8381705569760319 0.03949350388531074 -0.39136770765488105 178 181 182
0.8381705569760319 0.03949350388531074 -0.39136770765488105 178 181 182
1.0010486094708742 0.04643635256207775 -0.3931260103678482 63 71 70
1.0010486094708742 0.04643635256207775 -0.3931260103678482 63 71 70
0.9052590979855928 0.0365307325653543 -0.3929439030694744 32 35 34
0.9052590979855928 0.0365307325653543 -0.3929439030694744 32 35 34
0.9749168057433557 0.038475432270637204 -0.39246325950803074 41 52 52
0.8729378465926134 0.015086991506998394 -0.3934250208449103 23 26 25
0.8797242086848597 0.014288740516991019 -0.3938826845495885 21 24 23
0.8792002394003978 0.005550132431042627 -0.3936829987791562 165 171 171
0.8966313435330826 -0.01537786599053437 -0.3925666511321338 20 23 22
0.8389366754889575 -0.016485348080034535 -0.3918729816163661 159 159 161
0.8389366754889575 -0.016485348080034535 -0.3918729816163661 159 159 161
0.8979877845221766 -0.02092203443935074 -0.3914043113281929 159 167 164
0.9021247562849076 -0.021199498835617926 -0.39140110013700713 37 36 38
0.8394949462106849 -0.024467299732167155 -0.39232706956312213 164 167 166
0.8394949462106849 -0.024467299732167155 -0.39232706956312213 164 167 166
0.9068155359828369 -0.025829597657982227 -0.3912160257977222 127 145 143
0.9068155359828369 -0.025829597657982227 -0.3912160257977222 127 145 143
0.8377868623157897 -0.029420447926501427 -0.3908831268514455 134 130 135
0.9041902589710639 -0.05399541953125899 -0.39191520839261784 15 19 14
0.8679693381159476 -0.056579250732165444 -0.39295612863457896 24 23 25
0.977803356214819 -0.09443916359221644 -0.3946309284196925 37 37 39
0.9893226237165578 -0.09704173342118397 -0.39467272542685505 30 36 36
0.8361089521878954 0.11150056547778675 -0.38833088304096086 196 195 197
0.8342319286406963 0.10950720088957204 -0.38780431020294 193 193 193
0.9794990149025371 0.11276170106542559 -0.38457079699325847 36 38 44
0.9794990149025371 0.11276170106542559 -0.38457079699325847 36 38 44
0.9565530367046554 0.10829313616755476 -0.38683749675980866 33 39 41
0.836767700474062 0.09050090359671152 -0.3887641198274083 188 188 188
0.930432149056428 0.10161865755504834 -0.3847562246845209 26 32 30
0.9655516881218841 0.10453168579249646 -0.38959490803196783 54 54 58
0.9614232529474632 0.10135294003204147 -0.3866237208312328 170 178 177
0.9614232529474632 0.10135294003204147 -0.3866237208312328 170 178 177
0.8365842132931336 0.08375642297455406 -0.3883584868478313 193 193 195
0.9671577247386174 0.09568080286828606 -0.3887377482297956 166 170 165
0.9465340897277297 0.08905258886212317 -0.39125641366318553 34 41 35
0.8375054950869503 0.07264950722810788 -0.3897604489592289 183 183 185
0.8374450293832155 0.07204878942505262 -0.3890526333162475 182 182 184
0.9759084057671128 0.08860193110593545 -0.3885449476027204 165 171 169
0.9759084057671128 0.08860193110593545 -0.3885449476027204 165 171 169
0.8729149384419738 0.0746563187982984 -0.39093991451830357 38 38 38
0.9528887313075787 0.08405291957926689 -0.39231124256705835 38 41 44
0.9528887313075787 0.08405291957926689 -0.39231124256705835 38 41 44
0.8380262056719701 0.06733062402142796 -0.39023608504483526 122 118 119
0.869909045525776 0.071350215874721 -0.3912859464942242 33 30 25
0.869909045525776 0.071350215874721 -0.3912859464942242 33 30 25
0.9431962642671894 0.0799242921335558 -0.3915358580498294 34 40 38
0.9831343762478426 0.08383798977744948 -0.3899082102089844 167 170 169
0.8374979262730293 0.06408495881902827 -0.38999374105339507 187 186 186
0.8374979262730293 0.06408495881902827 -0.38999374105339507 187 186 186
0.987384090511339 0.0813234817858823 -0.39185992448337925 58 64 66
0.8375988273292191 0.06267980975375478 -0.39005258374057017 186 185 187
0.9916967095889146 0.07752530325141516 -0.3915629915086782 60 68 67
0.8388730902013323 0.05749071569461694 -0.3905764364358355 101 95 97
0.9972287297854321 0.07320233461044132 -0.38958175438165343 170 173 172
0.9972287297854321 0.07320233461044132 -0.38958175438165343 170 173 172
0.837025976511814 0.056389378946364976 -0.39071430078094793 114 110 111
0.9901838337762112 0.06941392977506612 -0.3904087991614967 166 169 168
1.0015079990640543 0.0663023091174018 -0.3911794395984533 185 191 189
0.8377763478366804 0.05059200306534995 -0.3903279888490406 185 185 187
0.8377763478366804 0.05059200306534995 -0.3903279888490406 185 185 187
0.9162971741364709 0.05730593574607701 -0.3925071259875579 23 30 24
0.8605756021709047 0.04915191250152569 -0.3923074961793402 25 28 27
0.8962469315511006 0.04695038945108323 -0.394186164769995 26 26 26
1.0071910569124407 0.016987278812710796 -0.39499467473069355 53 63 66
0.8660117955440564 0.004552973253400063 -0.39127629798784447 161 169 168
0.8680925676568546 0.0023170395088303376 -0.3944220917680975 41 27 23
0.8964603955552846 -0.015380939029010289 -0.3919247757378158 21 24 23
0.8394070056648473 -0.03498534514071043 -0.3895497960882549 157 160 159
0.8405048272215767 -0.03733096371486432 -0.3932003956713534 84 78 82
0.8405004435833819 -0.03734199866753018 -0.3932145298515311 84 78 82
0.8914859940305343 -0.041338514118421654 -0.39048390380368536 18 21 20
0.8776656374083888 -0.05507507287990709 -0.3873592066389403 27 26 28
0.8776656374083888 -0.05507507287990709 -0.3873592066389403 27 26 28
0.868198172429999 -0.06145269400790794 -0.39523606292222674 159 159 161
0.8669374950501311 -0.060136146381707285 -0.3887487115190703 158 159 155
0.8917879510484554 -0.06688739769579506 -0.391355013151288 21 24 23
0.8365293340874219 0.15419554889258005 -0.41372417525866817 112 108 109
0.8956119330943011 0.04637140965564291 -0.3921075934213062 12 20 19
0.8747751787585334 0.0022766305949627735 -0.3938429810059286 33 32 34
0.8374145060144297 -0.02443878172960194 -0.39459772111756425 154 165 165
0.8408373687111173 -0.0333746791952082 -0.39515918654660126 109 112 113
0.838983239637883 -0.037348491535740325 -0.3951348282650572 85 82 77
0.838983239637883 -0.037348491535740325 -0.3951348282650572 85 82 77
1.0057240549596085 -0.04761794220109537 -0.3960842895612073 37 48 48
0.9981802894076386 -0.05877125712421474 -0.39498828761189764 44 43 50
1.0000746756410765 -0.060141937224084306 -0.39258309661086066 181 187 185
1.0015157641391925 -0.06007555390125939 -0.39489500280945167 169 175 175
1.0086158642077265 -0.06255640653376204 -0.39433607968793294 50 53 54
0.9908570980302887 -0.06292141485017397 -0.39472162609006745 34 40 42
0.9561387503110533 -0.06699725704326417 -0.39580890070824076 21 27 27
0.9772654611087449 -0.07536843526545377 -0.39461643638386057 24 35 35
0.9724264437251 -0.07949056989179754 -0.3951690701870979 174 177 176
0.9734978293199901 -0.082186315613011 -0.39381909996887504 37 35 44
0.9708032052958434 -0.09044219255656655 -0.39492272279279816 39 38 45
0.8384498534679915 0.01907685181888411 -0.38158854426496586 147 152 159
0.8395870350544247 0.014040418003413576 -0.3822682961006331 106 109 108
0.8380881321435297 0.009559382748034338 -0.38146445131601486 161 167 167
0.8732443835473694 0.0017758283326606238 -0.3868591627295759 31 31 25
0.9213982646582775 -0.009717297035948343 -0.3904915267463274 29 32 35
0.9612759092307085 -0.01843855677116843 -0.3897881163556762 171 177 177
0.9698772612747661 -0.025207150929591037 -0.3929337538887555 54 54 54
0.9698772612747661 -0.025207150929591037 -0.3929337538887555 54 54 54
0.9851096044379113 -0.04004340013024686 -0.3911157521331952 173 176 175
0.9851096044379113 -0.04004340013024686 -0.3911157521331952 173 176 175
0.9879171391573125 -0.04420030974811094 -0.38560409462545786 57 57 59
0.9915327180001828 -0.04705757488593067 -0.3906638390995996 170 176 174
0.9976279654697385 -0.05580856048409776 -0.38712861031051987 174 180 178
0.9269873484649849 -0.06102922554016531 -0.3896339573687163 18 24 22
0.9156804903373482 -0.06588503087863451 -0.3888458217792199 20 23 22
0.9520587937775131 -0.07052808510639608 -0.3875580173789 167 170 171
0.9653416368857082 -0.07808816001176999 -0.39611648005357986 165 168 167
0.9648010699939235 -0.08241622676049215 -0.3908050481374858 37 37 39
0.9648010699939235 -0.08241622676049215 -0.3908050481374858 37 37 39
0.9689710397907139 -0.08565749785370728 -0.38635965377811776 38 37 39
0.8362488486903953 0.10180483574386158 -0.39053134417124946 188 184 187
0.836957967306635 0.10162970057255172 -0.39131864960590945 186 186 190
0.8367835477108134 0.09908565348906208 -0.39016393660176496 203 199 202
0.8367023078087388 0.09666217745918691 -0.38972654271545637 139 133 135
0.8367005312872821 0.09477086108700968 -0.3918582921542588 187 186 190
0.8364929906170303 0.08945171110462463 -0.3925395423943311 186 186 186
0.8364929906170303 0.08945171110462463 -0.3925395423943311 186 186 186
0.8358262980174495 0.0806732619172295 -0.39389832553331594 189 189 191
0.8409074432509388 0.03586483287898303 -0.40251194053069883 178 181 182
0.8367600398208267 0.09242750519465552 -0.39059779789941634 116 116 116
0.8373987529028881 0.07550320867471848 -0.3912271133516307 187 190 193
0.8373114627451752 0.0731240370222527 -0.3912501970535522 188 194 196
0.8378943287030807 0.0683450909291609 -0.3926252857292192 105 104 111
0.8378943287030807 0.0683450909291609 -0.3926252857292192 105 104 111
0.8378474145266256 0.06425632022550866 -0.392921826501905 162 162 166
0.8369268110419797 0.057518041944900386 -0.3936579682618599 101 104 103
0.8388417081404758 0.05639436333002614 -0.3937495430452069 93 93 93
0.8377647789602486 0.049747206919295496 -0.3943903504732832 181 181 181
0.8353103958458058 0.14065129544586386 -0.3887279663685206 126 122 125
0.83574651218174 0.13963829275756687 -0.38773177518524643 183 179 184
1.0856327408071744 0.12989852795384443 -0.39450421571355504 106 106 100
1.0808394749545451 0.12071685700088267 -0.3910689674284109 91 91 91
1.080809137141256 0.11857101264323916 -0.3894522019812779 111 118 112
0.9075709057637659 0.09617776867915985 -0.3911294361076271 182 190 189
0.9639016431964905 0.10016885293392745 -0.3916400440115711 48 51 52
0.8900802383519735 0.0884747027861235 -0.392025531568599 182 188 190
0.8900802383519735 0.0884747027861235 -0.392025531568599 182 188 190
0.9741593182278028 0.09339816221123044 -0.39188305360717196 51 62 58
1.0086641775182537 0.08923899093869857 -0.38971947763343634 76 84 85
1.0086641775182537 0.08923899093869857 -0.38971947763343634 76 84 85
0.9471756129566894 0.08426384246269095 -0.3927621418063226 184 190 190
0.9796126462193973 0.085380111358719 -0.39393527728141386 54 62 61
0.9796126462193973 0.085380111358719 -0.39393527728141386 54 62 61
0.8789310745158351 0.07683474832985754 -0.39358023112179 22 25 24
0.8789310745158351 0.07683474832985754 -0.39358023112179 22 25 24
0.9277868377046098 0.07805176681000647 -0.3948365271515795 27 33 31
0.9277868377046098 0.07805176681000647 -0.3948365271515795 27 33 31
1.0776108667483597 0.08340402205563094 -0.39236156418650664 96 96 100
1.0033325537772255 0.07805839661547823 -0.3925184203770849 183 189 187
0.9994738459039347 0.07679617625262682 -0.39174067679175717 66 69 70
0.9994738459039347 0.07679617625262682 -0.39174067679175717 66 69 70
0.999754483791836 0.07673217187691683 -0.3919697117423057 67 70 69
0.9030004056435892 0.07088002956834237 -0.39266661637564654 18 26 23
0.9949233671847227 0.0724085136605655 -0.3905462150439782 63 69 69
0.9958828657517727 0.0727259810747078 -0.39200325447515005 63 69 69
1.0033167271994177 0.07252258015675486 -0.3917301048805382 79 82 81
0.9918009710860911 0.07007971754089438 -0.39277773745760675 183 191 188
0.9399834997400224 0.06506890647151924 -0.39186580079599465 25 28 27
0.9332339791514838 0.06488223302702052 -0.3936337631430123 178 186 183
0.879929087877747 0.06223092455429916 -0.39338564755141636 23 26 25
0.9965055121995032 0.06617820576122464 -0.3930619986623237 184 190 188
1.0062270570271703 0.06269128508740143 -0.39251793526411066 70 81 81
1.0062270570271703 0.06269128508740143 -0.39251793526411066 70 81 81
1.0807254554016836 0.06586808490916211 -0.39555356117473467 107 107 109
0.8381063071753825 0.05459130958745844 -0.39160372123577847 174 180 182
1.0785752389827907 0.06311169299987548 -0.39359173572106 112 112 114
0.9477681401108146 0.05830451973676719 -0.39365787262937274 177 185 182
0.9794006566912767 0.05896491037457832 -0.3943514068566852 47 60 59
1.0782630408528193 0.06111798357332131 -0.3932892427137857 95 95 97
0.9230139941049905 0.05284177559736458 -0.395532664759226 27 30 29
0.9542248435951071 0.05306706310089061 -0.3940543796672986 183 189 187
0.9997423599764632 0.051074946345376966 -0.39229168707290685 56 64 63
0.9579567554414218 0.04940829801483369 -0.39413119620834763 39 45 47
0.8985663434948745 0.04405403716500332 -0.39272549657730366 33 26 18
0.9682308808691193 0.045451952711890314 -0.393314878348218 45 53 52
0.9095187258603524 0.043235886593695524 -0.39455281595822184 23 26 25
0.8372731113481052 0.03904237351229994 -0.39214196542402735 112 112 114
0.8388625090824293 0.03830637942006668 -0.3923582329566725 105 104 106
0.8698631827491384 0.03866899042979466 -0.3947783288899081 18 24 22
0.9650816728154527 0.03922284219689841 -0.39322586819596395 36 42 42
0.9610528810256143 0.03837929544424376 -0.3940559420025819 183 189 187
0.9610528810256143 0.03837929544424376 -0.3940559420025819 183 189 187
0.8382346423093558 0.037055817458830555 -0.39226565575810174 102 102 104
0.9003283397280932 0.03732076778729341 -0.39620536448660754 169 180 178
0.9617127330880335 0.03494243446368232 -0.3940930672779041 47 41 43
0.9731362680562475 0.03451069537678222 -0.3943323280939902 181 189 186
0.968553712977952 0.03426624891328244 -0.3932189934073043 42 45 44
0.968553712977952 0.03426624891328244 -0.3932189934073043 42 45 44
0.9653245856353951 0.03422442080332327 -0.3943209959255367 181 189 186
0.8373859471190503 0.03229922997070927 -0.3922678426359517 120 119 121
0.8392394798360293 0.031916710183979145 -0.3924404529598658 181 187 187
0.8381127885183558 0.03015053492995772 -0.39254049647126593 111 111 115
0.8379206169965192 0.028882196440743503 -0.39193051545578694 100 96 97
0.9798076361677089 0.027455099335023343 -0.39419264853223496 182 190 187
0.9798076361677089 0.027455099335023343 -0.39419264853223496 182 190 187
0.9545996229418904 0.027074671508761822 -0.39405990182917294 167 173 171
0.9172935942746491 0.02658257720774975 -0.3946608752897296 166 177 173
0.8917742668974384 0.026250035687855246 -0.39482276417684636 164 172 169
0.8917742668974384 0.026250035687855246 -0.39482276417684636 164 172 169
0.8384444292206705 0.025874596885685067 -0.3923726324024479 182 182 184
0.8388750205914526 0.025254226599346376 -0.392442923631154 111 107 108
0.8388750205914526 0.025254226599346376 -0.392442923631154 111 107 108
0.9801886760035077 0.022287252917321063 -0.39493354471431336 48 53 58
0.9801886760035077 0.022287252917321063 -0.39493354471431336 48 53 58
0.9179228685551638 0.021530613567122513 -0.3955075782376531 25 25 25
0.9233728812726247 0.02140227118491702 -0.3951549792000052 168 174 172
0.9233728812726247 0.02140227118491702 -0.3951549792000052 168 174 172
0.927029530466983 0.017803429292115355 -0.3945220080586246 32 35 36
0.9271582669730827 0.0178622196418359 -0.39502142265764195 26 32 32
0.8830336793723402 0.017451471940485012 -0.3950394309086247 25 25 21
0.9421940459602742 0.014904976371170012 -0.3947494642703439 167 178 174
0.8399664800764386 0.01552411549241257 -0.39233325243467265 132 128 131
0.9901911275109878 0.01135395145881002 -0.39442493757568897 54 62 61
0.9398037015057934 0.012157222639210243 -0.3963388525031828 169 172 171
0.9398037015057934 0.012157222639210243 -0.3963388525031828 169 172 171
0.9398037015057934 0.012157222639210243 -0.3963388525031828 169 172 171
1.0062699216667967 0.009606997500918448 -0.3940729994745419 55 63 62
0.8387568371824158 0.013522098872325009 -0.3935085025748889 160 163 166
0.8387925990003302 0.013501544466152749 -0.39455521124078424 112 111 118
0.9328493309965185 0.009641063790363233 -0.3933739663808335 160 166 164
0.9328493309965185 0.009641063790363233 -0.3933739663808335 160 166 164
0.8384750941962392 0.01096009080555853 -0.3924002162552897 176 178 184
0.9040398309427518 0.008064714795669009 -0.3927807748990499 18 21 20
0.8783067047038451 0.008752519194347871 -0.3937216897340931 37 37 39
0.8783067047038451 0.008752519194347871 -0.3937216897340931 37 37 39
0.9341755084514718 0.00670477070375448 -0.3944148419249448 36 36 40
0.9341755084514718 0.00670477070375448 -0.3944148419249448 36 36 40
0.8394982343323225 0.009210037156362134 -0.3921768794196933 95 94 94
0.8394982343323225 0.009210037156362134 -0.3921768794196933 95 94 94
0.8394982343323225 0.009210037156362134 -0.3921768794196933 95 94 94
0.8394982343323225 0.009210037156362134 -0.3921768794196933 95 94 94
0.8376751022490656 0.009073158477985167 -0.3926625625126628 109 109 109
0.8376424437142876 0.009096526642242973 -0.39195199474790776 125 125 125
0.8760657218525021 0.00677042489778165 -0.39404031864205813 167 173 173
0.9310500686449964 0.0034348748553372347 -0.3948762609028015 39 28 32
0.941782740030603 0.0024372697624038867 -0.3937670721147156 160 168 165
0.8385158755505991 0.005978588761598154 -0.39252538378684015 160 163 166
0.8387268175085314 0.004503283219568348 -0.3924051655463864 111 107 110
0.9285116268459214 0.0005119201556443117 -0.39492106694149753 26 32 30
0.839229023498606 0.004213056612615787 -0.3922926239419818 110 109 113
0.8387544298072367 0.0034706996629257367 -0.39244334140182424 169 172 175
0.9490186806672612 -0.004229692647831545 -0.3945097805812847 163 169 167
0.9490186806672612 -0.004229692647831545 -0.3945097805812847 163 169 167
0.8385199755595613 0.0005936259409003378 -0.39257525820217637 118 118 122
0.9230577375224237 -0.0044757477789517655 -0.3933963887687361 158 169 165
0.9169014346287324 -0.004299695378104946 -0.3934538348247559 24 27 26
0.839383002053834 -0.0007817974275459022 -0.3925859883909628 115 115 115
1.0076154184287132 -0.008785476814571298 -0.3890255666441042 42 50 51
0.8379275424348206 -0.002835242207303333 -0.39242085063187804 87 83 88
0.8379639215143603 -0.0028784437471681065 -0.3929400427150393 87 83 88
0.8395257299762685 -0.003686505895608469 -0.3928113835763295 115 111 114
0.8395065977089085 -0.0037056228006242045 -0.39305426803005733 115 111 114
0.8389463021526231 -0.005253842390523547 -0.3940710337107016 171 171 173
0.9731053498936683 -0.01386845230003641 -0.3907524166111838 33 39 41
0.8401491332920727 -0.007191419274679571 -0.39289468897523305 97 92 100
0.9694437560066576 -0.016324185139136846 -0.3939282247003764 164 172 169
0.9625510248158176 -0.018269174550111303 -0.39141511872959767 187 190 191
0.8381847446780285 -0.01223483803346277 -0.3940607928220879 99 95 98
0.8381847446780285 -0.01223483803346277 -0.3940607928220879 99 95 98
0.9654869801623308 -0.02133119247035772 -0.3923160715936215 181 187 185
0.9654869801623308 -0.02133119247035772 -0.3923160715936215 181 187 185
0.9029309037879186 -0.01732210736261405 -0.39404048688177923 176 184 183
0.9028138912496148 -0.017260768189004454 -0.39351156842646723 157 163 163
0.9021809356427007 -0.021203896798748442 -0.39145393777021514 37 36 38
0.9024439478348201 -0.02950568084130011 -0.39101389915021006 152 160 157
0.9024439478348201 -0.02950568084130011 -0.39101389915021006 152 160 157
0.9126297873033687 -0.031989286749737014 -0.38919790124642545 29 30 26
0.9126297873033687 -0.031989286749737014 -0.38919790124642545 29 30 26
0.8952235781321425 -0.032387001990233984 -0.39127692409409187 22 25 24
0.8952235781321425 -0.032387001990233984 -0.39127692409409187 22 25 24
0.9164167914004016 -0.03571671113013616 -0.39082486451863807 165 168 167
1.0032627973020705 -0.04770744586200844 -0.3921068872290593 32 38 38
0.9225584421070395 -0.04092781836532634 -0.39114575929101886 160 164 159
0.9225584421070395 -0.04092781836532634 -0.39114575929101886 160 164 159
0.9439809425136609 -0.04427000844445055 -0.3912877325405954 26 26 26
0.8917648997116033 -0.04160772160390039 -0.39156893234422224 18 21 20
0.929389152403854 -0.04604356736813541 -0.39096817361414676 20 23 22
0.9370195587199303 -0.047240388475475056 -0.39190480891249235 153 160 154
0.9370195587199303 -0.047240388475475056 -0.39190480891249235 153 160 154
0.9917870079776709 -0.0541933777542598 -0.3933945354086512 27 26 35
1.002082414329074 -0.05680734413859259 -0.3929585559930917 189 189 189
0.9422002124297328 -0.052613708072571465 -0.3915517730757144 167 175 174
0.9422002124297328 -0.052613708072571465 -0.3915517730757144 167 175 174
0.9923529941573073 -0.05921331211443964 -0.39179209136958143 179 186 180
0.941143836835237 -0.0552341086678078 -0.391804425381945 30 30 34
0.941143836835237 -0.0552341086678078 -0.391804425381945 30 30 34
