ply
format ascii 1.0
element vertex 678
property float x
property float y
property float z
property uchar red
property uchar green
property uchar blue
end_header
0.9279424526113408 0.002240047616689141 -0.38742618949988267 30 36 36
0.9279424526113408 0.002240047616689141 -0.38742618949988267 30 36 36
0.8389098420845872 0.006335236041372141 -0.38116416550446924 149 148 155
0.8746608622698391 0.003775874725757078 -0.38481693875955064 37 36 36
0.8790629833138505 0.001577215105811978 -0.3852659741546914 24 27 28
0.8390952719790712 9.236799067056847e-05 -0.3836438647519507 176 182 184
0.8390952719790712 9.236799067056847e-05 -0.3836438647519507 176 182 184
0.8858208141855451 -0.0034002302114620677 -0.385940701572173 168 176 175
0.8409303168469906 -0.005350241591347606 -0.3843789753352042 105 105 101
0.9117413031019542 -0.013212357553268364 -0.38585097162871385 25 31 29
0.8968026821490104 -0.013550788395607164 -0.3859001114919155 23 26 25
0.964557160214212 -0.01819962743855551 -0.3853408838666606 176 182 180
0.8397466127145589 -0.01055906995986458 -0.3855609082273143 158 161 162
0.9024550482442449 -0.015224312469837874 -0.38566395300229295 162 173 171
0.9024550482442449 -0.015224312469837874 -0.38566395300229295 162 173 171
0.8992373331023374 -0.01637515636546695 -0.38596251017554006 32 23 18
0.8399192638187193 -0.018543425895107303 -0.3838357022572489 168 176 177
0.9657935366810351 -0.029409074407034375 -0.3880024964662321 41 47 49
0.8403894976949627 -0.020267015082966543 -0.38523179300554183 109 112 113
0.9031689553669938 -0.027856391689906813 -0.38542623606490234 159 167 166
0.8406606648309312 -0.027271175318487814 -0.3847482421288567 167 170 173
0.841201562808792 -0.0297105018390732 -0.3844218245061413 80 83 84
0.841201562808792 -0.0297105018390732 -0.3844218245061413 80 83 84
0.8396682058098198 -0.029929288939332898 -0.3842713437065587 94 97 98
0.992439214641776 -0.04466219410920534 -0.38717239111276514 174 182 179
0.840436537043726 -0.030859071305324337 -0.3842633171967842 164 170 172
0.8404112782529048 -0.03201748219705133 -0.38447102688405077 88 88 90
0.8403966479262404 -0.03304156007711338 -0.38438106416630946 169 175 175
0.8413217510041869 -0.034870941434582275 -0.3845573166876938 82 82 82
1.0033838778335151 -0.05116647026746033 -0.38549251502650045 176 182 182
0.8397129420208824 -0.035092798752122914 -0.38415987419960496 86 86 88
0.9398527532558347 -0.04766110025789157 -0.3870932366741831 178 184 184
1.00476601711136 -0.05694312524217914 -0.3873873284972531 175 181 179
1.00476601711136 -0.05694312524217914 -0.3873873284972531 175 181 179
0.9306418262523696 -0.049831737914769386 -0.38614479327015216 173 181 180
0.9338378225193088 -0.053236342135381656 -0.38579781975543387 45 44 51
0.9303474146411218 -0.0563492366243771 -0.3853282428960068 40 39 39
0.8681366406187397 -0.05829332586442319 -0.3848548417458073 152 160 159
0.8649985433160284 -0.061531943258064964 -0.3848731210598252 23 27 22
0.9998884979020003 -0.0834702260871799 -0.3878441590219447 27 33 33
0.9125249756693261 -0.07409852979310848 -0.38482768988638927 22 25 24
0.9616689617482983 -0.08912417774994126 -0.38494860517299007 32 35 38
1.0059902269268477 -0.15192734001352773 -0.39360568991099976 27 30 29
0.9903729888502023 -0.15309491867094874 -0.3907183233010318 25 25 19
0.9904705869371283 -0.15639970393056488 -0.3944943085038145 14 14 10
0.9801466764911637 0.11449610153039745 -0.37977691476336306 37 43 45
0.9604888487062935 0.09656958561432079 -0.38011896869178974 43 32 25
0.9190796001220174 0.08340482260129997 -0.38029228352608724 188 196 195
1.0962553915446909 0.08897737607517425 -0.38542239533812955 106 102 103
1.0890341527433849 0.06420783628122728 -0.3826531393300644 147 150 149
0.9795383084408906 0.054114502550143904 -0.37873489172489455 35 43 42
0.980161784347852 -0.006394333361556986 -0.3770358095427739 36 42 44
0.9416601916422801 0.11369636263468509 -0.383265577067045 38 46 47
0.9501723443839847 0.08511243199889415 -0.3824823969262531 36 36 38
0.8898229503009267 0.058818098887080415 -0.38235903845238267 34 40 42
0.9542060106254094 0.04956590105460837 -0.38201946673435394 42 41 41
1.0904916115714565 0.04826873152303029 -0.3883425190679183 97 96 96
0.9554710543585793 0.03421442196994995 -0.38176726794200017 32 40 41
0.8905360684528802 0.02263078797024007 -0.3829641200694118 34 37 38
0.8743168883221426 0.012393541544553783 -0.38331708435574374 191 194 195
0.9213061966536811 -0.007111105205993092 -0.3821140609144879 32 35 36
0.9824128271067267 -0.03052161430672945 -0.38123076612412826 42 48 50
0.9349683617302409 -0.04308883101576903 -0.3811841997816336 179 185 183
0.9824264398761107 -0.06123098038466412 -0.3808534249503713 188 188 188
0.947840099317618 0.09034840020018045 -0.3921359076592659 44 44 44
0.947840099317618 0.09034840020018045 -0.3921359076592659 44 44 44
0.9112505223732079 0.04753868183218017 -0.38665355707362503 38 37 39
0.9619255964263285 0.03493807462242242 -0.3778829080053383 40 46 48
1.1146322815362442 0.028144962027916855 -0.40398700369613744 131 139 136
0.8704148441964347 0.014323832790541861 -0.3801659373869626 34 37 40
0.8856877927323503 -0.005122863872541225 -0.38935108616228414 188 191 194
0.8980165403544709 -0.029820173639597432 -0.3886096538597934 181 184 187
0.8980165403544709 -0.029820173639597432 -0.3886096538597934 181 184 187
0.9497039769642193 -0.034885432496323136 -0.39328230745266035 41 44 43
1.1050557959331935 -0.04249876576240963 -0.3955152035409745 94 100 102
0.9552141999004621 -0.06583393485993327 -0.38877248811730686 41 47 49
0.8723177340068566 -0.06071406150402249 -0.3910944195190066 34 34 38
0.9884170245168716 -0.07187682689253957 -0.39173645961367154 40 45 50
0.9176043235097262 -0.06663141961855487 -0.3898951428969841 31 34 33
1.013660154718743 -0.1562630303605539 -0.40033902887957556 25 24 24
0.9977655139936707 -0.15762619224649338 -0.3959298474994853 23 23 19
0.9895091511269996 -0.15897775936710254 -0.3955141625397952 21 21 17
0.9786828104732295 0.0871911651468929 -0.38019633365104744 33 39 39
0.9384210754787339 -0.047305079228238706 -0.3921486620425275 181 189 190
1.0093294576101561 0.09246192394448176 -0.3918068723463448 68 79 79
0.8780993113444987 0.06561134681612212 -0.39197131099059807 36 38 44
0.8823203555702883 0.055579724488844524 -0.3805424250663499 197 200 203
0.892758863832016 0.03127079313536466 -0.38069584061046674 58 42 39
0.8882788755339769 0.025207313904028635 -0.3802648854682161 191 197 199
0.9555337263645008 0.10192755208311179 -0.37521682181815874 49 44 42
0.9360966976687275 0.07492751789261211 -0.3742507476417723 48 44 47
0.9751151408055517 0.07833366867767742 -0.37415504394720767 190 190 186
0.9870303154781507 0.08285217231320217 -0.38860836318895475 44 47 46
0.9950275253128084 0.07026024484701983 -0.37805928500701746 55 55 57
0.9822907904211485 0.06146228728352137 -0.3745519893624787 61 60 60
0.9391863011164858 0.05373258430022118 -0.37344373022365185 192 195 194
0.9576949485296216 0.0432099936553819 -0.37748706977734026 179 185 183
0.969484476730352 0.04349869039608549 -0.387958307440368 147 158 154
0.9619694524460997 0.04077586872278086 -0.3924687412436254 144 157 154
0.9651640906180259 0.03178210915672042 -0.3770993775624624 181 187 187
0.8810701689225399 0.023647591516437083 -0.3752671093509842 34 37 38
0.9602674397584229 0.034515795363680504 -0.39303904301178005 22 30 29
0.8862628595037086 0.017385038463037093 -0.3727948999290767 35 37 43
0.9390544284295158 0.013194303552581199 -0.3928673743387247 169 172 171
0.9563448201545445 0.005556865601642909 -0.3721327680732494 31 39 38
0.9913537596861209 0.009471107004174695 -0.3886026075042377 154 167 164
0.9226693979669639 -0.000805590012258214 -0.37738364970690624 28 34 34
0.9507927906828584 -0.017769887942540388 -0.3706679812885376 182 190 189
0.9507927906828584 -0.017769887942540388 -0.3706679812885376 182 190 189
0.9314368597584926 -0.0546234503702612 -0.3917629203676131 151 154 153
1.001621685330998 -0.058042352460789814 -0.39160442745432483 181 187 185
0.9635372247759475 -0.07712170592966677 -0.39192751994586233 179 183 178
0.9635372247759475 -0.07712170592966677 -0.39192751994586233 179 183 178
0.9118470496566369 -0.09088945988328695 -0.38812437021544866 15 21 19
0.9672698426682168 0.10606388043074383 -0.39163858054926926 66 65 67
0.964850148611918 0.1045464451308442 -0.39204977445709926 201 213 215
0.964850148611918 0.1045464451308442 -0.39204977445709926 201 213 215
1.0898613235266912 0.126067312070569 -0.40031163016990357 140 143 144
0.8771670393803679 0.07167576856790354 -0.3909286070241651 45 44 46
0.9581956904108021 0.0439912845375737 -0.3836137949652127 182 182 182
1.0906225925839093 0.04273864593557332 -0.39487713905617045 108 114 116
0.9292763347395632 0.014565711455793088 -0.39088175154964594 192 198 198
0.9959647426370971 0.011463575244100611 -0.3920173740110831 75 75 79
1.1140619281912232 -0.02648669405082628 -0.40021787202348885 114 114 114
0.9962264284847319 -0.05188286257055326 -0.39069866017156435 57 62 67
0.9962264284847319 -0.05188286257055326 -0.39069866017156435 57 62 67
0.9441016824449507 -0.05279116632035575 -0.3928783767821906 182 190 191
0.9441016824449507 -0.05279116632035575 -0.3928783767821906 182 190 191
0.8798920881976936 -0.05288694715239304 -0.3909262909822005 186 189 192
1.0035156069429756 -0.15116618958677835 -0.3942779523567872 27 27 29
0.935693080373276 0.10554457791444694 -0.3730753479674131 41 44 47
0.8630256883504742 0.06996964390012851 -0.37328594437990614 51 34 34
0.9395826938867188 0.07886597788949584 -0.37464146426549594 193 196 195
0.9395826938867188 0.07886597788949584 -0.37464146426549594 193 196 195
0.9097419867907989 0.023265555505392083 -0.3723420996521797 195 203 204
0.9648836858232673 0.09768913841355367 -0.39247219698936336 59 48 43
0.9518242480195666 0.08923452256206268 -0.3892582678767863 197 203 205
0.9149897455810413 0.0828841202877249 -0.3913072740427897 40 39 41
0.868607506398898 0.06897558265550333 -0.390430606765833 208 206 213
0.868607506398898 0.06897558265550333 -0.390430606765833 208 206 213
0.8652037302852447 0.06352319474041918 -0.389397991881702 201 201 205
0.8652037302852447 0.06352319474041918 -0.389397991881702 201 201 205
0.9290019270492238 0.07255157086976347 -0.39102057068778034 56 42 38
0.862373364376179 0.06040608291718895 -0.39008867709193223 41 40 42
0.9636206000702369 0.07016958713728949 -0.38838362979501756 34 45 43
0.9952072400427437 0.07362631382336449 -0.39107137190857527 65 65 65
0.8897365033607992 0.05652527403942011 -0.38660767151716796 35 38 39
0.9533370560200004 0.05861714221178596 -0.389076077181202 40 48 49
0.9533370560200004 0.05861714221178596 -0.389076077181202 40 48 49
0.9776321886071385 0.05858666812719916 -0.3898528873135951 55 58 59
1.0701390689981063 0.06707292180081142 -0.377847484161755 100 96 99
0.9843524820200895 0.05875024264508505 -0.3905836004358772 194 202 203
0.9842045278395166 0.05386467954256077 -0.39102389873890014 63 68 73
1.0813865160189495 0.059897125685581795 -0.40016238107220475 193 197 192
1.0719552608116591 0.05300517870340393 -0.37892498632993643 126 125 125
1.082057798101498 0.0445196539521501 -0.39602071621569057 169 177 178
0.9674673514215636 0.030864331289559073 -0.3900277520969606 46 52 54
0.9467900030411865 0.026617172927986207 -0.38893559475154904 42 48 48
1.1040427165199402 0.04220204027546665 -0.3976937813939843 99 105 107
1.099613129131558 0.029879736797054877 -0.39394728167945353 154 162 159
1.1086203234890075 0.027578173940232046 -0.39820112486924364 132 140 139
0.9373525069827078 0.01123249083879138 -0.39013362920612393 197 202 207
0.9373525069827078 0.01123249083879138 -0.39013362920612393 197 202 207
0.8786489724738719 0.005318410039371725 -0.3897920747840576 194 201 205
1.095945353972003 0.017760499822381374 -0.3969422894860529 156 162 160
1.0889070773722829 0.012924685980879825 -0.39734612371829675 111 111 113
1.0993169492134742 0.010615247234422767 -0.3976362281410556 97 103 101
1.0961376248073968 0.00746769637518407 -0.3964655616459337 148 159 157
1.0888182870609329 0.0066876376183507644 -0.3964838329664814 124 127 130
0.885772193465073 -0.004969880321572999 -0.3906338072468549 195 198 201
0.8916651806417253 -0.010860502124919404 -0.39027772673543165 196 196 200
0.8916651806417253 -0.010860502124919404 -0.39027772673543165 196 196 200
1.0981560930356031 -0.0015061662549516997 -0.3947833374058248 108 111 112
0.9167248478463449 -0.010229001500879738 -0.3901665525780556 191 197 199
0.9167248478463449 -0.010229001500879738 -0.3901665525780556 191 197 199
1.0957961014092517 -0.00604819391086336 -0.39539126677201264 161 169 168
1.0922340042213219 -0.00884896738281411 -0.3971729365985983 164 175 175
1.10343003677545 -0.011001464849131079 -0.39863788584184395 104 111 115
0.9003805424300483 -0.016586877846040838 -0.3917249669951506 27 23 16
1.101657849766706 -0.014000316894601673 -0.3970882464384767 107 113 115
1.1102188821645333 -0.013969233800334923 -0.3990502309380777 100 106 104
1.0832320868505132 -0.015503628442532084 -0.3968974315085962 110 113 116
1.0832320868505132 -0.015503628442532084 -0.3968974315085962 110 113 116
0.9598146053676133 -0.021329003106497876 -0.3889528397513481 196 204 205
1.1065121801595448 -0.0186525531489385 -0.40231914099284866 107 107 109
1.0929194272992224 -0.019428795097964708 -0.39744421468736163 159 170 168
1.0996154747055789 -0.02517690112679392 -0.3999746265621774 160 171 171
0.9507351251048004 -0.02949020192180969 -0.36931625724813283 177 185 184
0.9611989116577717 -0.028250273056829756 -0.3905315706975513 189 200 200
0.9507351251048004 -0.02949020192180969 -0.36931625724813283 177 185 184
1.0858886362323343 -0.026202773493489203 -0.3966836555507321 165 178 175
0.9495857150632988 -0.03530730144570812 -0.392716119909394 40 46 46
0.9495857150632988 -0.03530730144570812 -0.392716119909394 40 46 46
1.106161135050958 -0.034445413380213015 -0.4004614686710402 107 107 109
0.8919627387687152 -0.036415206904806194 -0.3904266772832607 189 195 197
0.8919627387687152 -0.036415206904806194 -0.3904266772832607 189 195 197
0.955411031721543 -0.04073640875764845 -0.3917388475355996 40 46 48
0.955411031721543 -0.04073640875764845 -0.3917388475355996 40 46 48
1.113538461066245 -0.04065176951209418 -0.39902768141564854 108 107 109
1.1073439054332195 -0.04243346523349697 -0.3991364425080093 137 145 146
1.0954581106398 -0.04394045195890149 -0.3974669604462917 119 119 121
1.0839946524748536 -0.05082380605591961 -0.3937354138199325 152 160 159
1.081345269545804 -0.05396474045913695 -0.3959457117739752 147 154 158
1.0909100838572103 -0.05521855531145951 -0.39578384482801393 149 157 156
0.9419917450772427 -0.05547681855439151 -0.39081018536038514 45 44 48
0.9419917450772427 -0.05547681855439151 -0.39081018536038514 45 44 48
0.9245161321764824 -0.05540461701226076 -0.3666480615799326 41 40 42
1.0890031793714572 -0.06189279314160351 -0.39865021143349627 132 138 138
0.8864375765890129 -0.06763307041964106 -0.3894284195339821 184 190 192
0.9179838572724672 -0.07270702598661029 -0.3905559168733986 182 188 188
0.9081082581026427 -0.07081803626112713 -0.3635782810845956 168 179 177
0.8868509400053358 -0.07324551666266264 -0.3902439310810134 30 30 30
0.9740574984442782 -0.08207606112388308 -0.39179083064724707 61 57 60
0.8996663064401399 -0.08011395890984402 -0.39046105112301854 186 189 188
0.9043788289815896 -0.0838578073975314 -0.3903707629443202 34 33 35
0.9741937373627578 -0.09302894301489628 -0.39086336553479345 49 51 57
1.016351281324795 -0.15286889430359238 -0.3910161374174047 23 23 19
0.8770415746835742 0.10342455071163392 -0.3696560856709754 33 33 33
0.9617467852614636 0.08446510452900509 -0.3679430351583169 50 50 50
0.9332202252266202 0.054808447177225626 -0.36809557570495344 41 44 43
0.9332202252266202 0.054808447177225626 -0.36809557570495344 41 44 43
0.9759290070256587 0.08457565911726551 -0.37544123055633977 33 39 39
0.9966883641573195 0.08332447503354759 -0.37162838428240336 44 50 52
1.079531090632348 0.04821258712734326 -0.37875369770568573 94 94 96
1.079531090632348 0.04821258712734326 -0.37875369770568573 94 94 96
1.0772593099387404 0.04657474596751268 -0.38189156129615415 131 130 130
0.9502998694894406 0.028168578612930484 -0.37395112058578545 37 40 41
0.9787724597975446 0.02927725662194646 -0.38902343338724005 147 165 159
0.9394267683425959 0.018058243758380794 -0.3722548947400682 181 187 187
1.0657869799330084 0.026078181470224043 -0.3780978162573943 113 112 112
0.9386415665957194 -0.01229775401385771 -0.37041675954555736 35 38 39
0.9386415665957194 -0.01229775401385771 -0.37041675954555736 35 38 39
0.9492401955066262 -0.01697584626772173 -0.36883740621443656 175 183 182
0.9705479407127715 -0.025614918303250068 -0.3882387010994414 182 190 189
0.9322292599813679 -0.05683267621610923 -0.3638202538255012 32 38 38
0.9609190574690987 -0.07750863901959297 -0.3648836524215163 189 195 195
0.9719664280572354 0.10491960371647212 -0.38952111029336706 41 49 50
0.967533981984766 0.03585430787547961 -0.3880257222879971 29 40 40
0.9145685749325781 -0.07595825741815845 -0.39232488117534714 23 26 25
0.8404308202988001 0.030784905587711353 -0.3891937302654566 91 90 92
0.8395732030324851 0.029175712679243123 -0.38821360883331707 174 176 182
0.9534539250118269 0.02859651602797145 -0.3884549634088827 144 159 154
0.840202507867675 -0.0053207707340623 -0.390122892996317 150 149 158
0.916967806589249 -0.008237491633129248 -0.38891037731232275 138 149 147
0.8392535680615175 -0.02328377979494882 -0.38485372511018395 162 173 171
0.9039390350527449 -0.028034759065339553 -0.3894525602365114 150 158 157
0.9481138431861611 -0.038629133821607736 -0.3882460732571352 146 157 157
0.8665447508932493 -0.04553871122850446 -0.3888288129502927 21 27 27
0.9348701018906612 -0.04667682273454017 -0.3894471083917066 38 38 38
0.8719174285909548 -0.05806903644888467 -0.3890613114780232 22 22 26
0.8930702849011329 -0.0705781539285169 -0.38968085660783935 148 151 150
0.8725528968273328 -0.08537456799052136 -0.38775291806606726 11 17 15
0.9094268479581088 0.09425678295419324 -0.3887272374126357 32 36 31
0.8689214491523531 0.06604542128959166 -0.38819769886821004 160 168 169
0.8368106488415203 0.057046163106178716 -0.3899448968453198 183 186 187
0.9679569724360781 0.03603337237896824 -0.3886499633991211 40 48 47
0.8397096146726575 0.1348292319975463 -0.3913886684824591 195 194 194
0.8373291233271762 0.12896180802151633 -0.38982139935160903 133 133 129
0.8388988934302498 0.07893942519784042 -0.39311920279700635 181 181 181
0.8662903481196955 0.06527390971733868 -0.389039891915688 187 187 189
0.8630348943072009 0.06165345086493941 -0.3884416751433451 30 31 27
0.9268562364919003 0.06445407033104905 -0.3892556173042976 30 33 36
0.8390905777295518 0.048635798556829306 -0.38820661643644333 133 132 132
0.8909372479291168 0.052792860396141277 -0.3883549094035249 144 159 158
0.839056284996792 0.041103412042738416 -0.3890325337458185 194 193 200
0.9780239542497534 0.05508572329786791 -0.38881234042850554 153 166 161
0.91424088341169 0.03240934440882008 -0.3926625278213191 17 20 19
1.0057429862900193 0.03873327579700138 -0.3865461102403136 50 61 59
0.9917173927155983 0.021434688409901873 -0.3938233755525516 48 56 57
0.8666077532098754 0.006257416075423885 -0.3886068236007172 140 155 154
0.8390102813122111 -0.0010998355434952728 -0.3896002684214957 91 91 93
0.9849059203273086 -0.0018392403778147448 -0.38821280088220494 156 169 166
0.8406534793458307 -0.012290506856877305 -0.3882827776746943 158 161 164
0.8400594536562124 -0.012560449131387652 -0.3881313380187208 154 160 162
0.97983006744015 -0.003832527093415352 -0.38687492130607504 36 44 43
0.9829148374363325 -0.005808414750674744 -0.3877368871585249 43 45 51
0.8395874939648491 -0.01686294992966316 -0.38812703751132177 155 161 163
0.9580524333807696 -0.011114347677875898 -0.38941247102882365 42 44 50
0.8399927081155353 -0.018825489526380607 -0.3880428061707935 150 163 160
0.8993965314727044 -0.016496680042675595 -0.388485236204946 27 24 21
0.8379187686903011 -0.0205353530567976 -0.38958947856476206 167 170 171
0.971496501831682 -0.015143560294299783 -0.3880184506260317 35 41 41
0.971496501831682 -0.015143560294299783 -0.3880184506260317 35 41 41
0.9620868968135355 -0.022200891424026332 -0.3886086607438586 25 33 34
0.8402900842388188 -0.029837974025533353 -0.38872176288789284 122 122 124
0.8397039694797556 -0.03032041663583245 -0.38819498559036886 75 75 75
0.960984184544097 -0.026159453754236343 -0.3888287094333715 177 185 184
0.841423424619804 -0.03527019701032462 -0.38859483942611445 79 75 76
0.8397251218085905 -0.03552467135175294 -0.38829206600662336 85 82 77
0.9851280168378167 -0.032853424873416866 -0.3886796696160895 34 42 41
0.9372169580958738 -0.04492594426585288 -0.3891220444519208 136 151 148
0.9951312139879067 -0.04945594269308566 -0.3881091769518672 45 48 49
1.0040984435082168 -0.05172474669981611 -0.38841457037747923 168 174 172
1.004384788998313 -0.05171568678485678 -0.3889478148529394 168 174 172
0.9922258749026516 -0.05668422818804723 -0.3886223834835127 179 185 183
0.9921912812437128 -0.05668897388957222 -0.38876364517415607 170 176 174
0.9922258749026516 -0.05668422818804723 -0.3886223834835127 179 185 183
0.8683458895802245 -0.058851731589855794 -0.3885277048213871 166 177 177
0.9586962604681772 -0.0729036073206716 -0.38941016486800817 25 28 29
0.8628715032839338 -0.07259850365455911 -0.3898838114385901 16 20 15
0.8998007838902754 -0.07749819922235444 -0.38877338692765295 168 176 175
0.9036677696666396 -0.078292263320481 -0.38944005075454935 22 23 19
1.0036062992469361 -0.08494788061028055 -0.39533728157572934 24 27 26
0.8858195237343731 -0.0951372806899946 -0.3884411832309473 21 24 23
0.8387071736713646 0.10755705363689183 -0.3894778866297172 189 189 191
0.8387071736713646 0.10755705363689183 -0.3894778866297172 189 189 191
0.838229388643637 0.10286928080971619 -0.3893153953368692 187 187 189
0.8383997506727396 0.08525730721826966 -0.3891984126315684 184 183 183
0.879040532323296 0.07825919437132933 -0.3895057951575016 22 25 24
1.0055330029130747 0.06445686401906942 -0.388590816541223 66 77 77
0.9721077881176772 0.049966314854447025 -0.3895483085055632 37 43 45
0.8403365561400957 0.03201270553401762 -0.38984408084160244 186 186 186
0.8642342224382569 0.01828773448139541 -0.3898776997937486 27 30 31
0.9052477022474991 0.009727449786390879 -0.3922525391930161 14 20 18
0.8391057400179316 -0.0012047408100544642 -0.3909068761405269 91 91 93
0.8795890079786978 0.0016774467648194985 -0.38940722542392187 21 24 23
0.9018530455183548 -0.024873993995381472 -0.38950674141796454 162 166 161
0.8603479049087156 0.09227331210643197 -0.3925540286229974 24 28 23
0.9180690056224569 0.060828466018752164 -0.3941912649940511 28 34 34
0.9171777728179357 0.0541654640038805 -0.39140669877893586 177 185 182
0.9712688553245967 -0.07932383510912361 -0.38585480276531436 43 34 41
0.9895733395370165 -0.14291894263251717 -0.3835194390198124 27 30 29
0.9961681919557654 -0.1450846621462893 -0.3829646095609542 21 20 20
0.9893945523865412 -0.14527651890305301 -0.38385000881937476 20 21 17
0.988619513967694 -0.15081881522119128 -0.38478525855316653 24 25 21
1.0036033927860406 -0.1555363332594386 -0.39484036544655876 13 20 14
0.8368483129988682 0.1436313419771477 -0.3913425065088083 113 109 110
0.8386987129188662 0.11553207187441313 -0.3926869202372519 133 127 129
0.8377434447142527 0.11507825974280482 -0.39250435205465234 197 193 194
0.8378395494406115 0.11301201797555918 -0.38976551060644904 179 175 178
0.837757331738524 0.11256701909678193 -0.38982647225862044 190 189 191
0.9449947974468897 0.11559010188330147 -0.3892297468976282 36 42 42
0.8375585441391067 0.07386816369982128 -0.38968759667123126 118 117 117
0.8737538063274882 0.07677353430614288 -0.3901839709391204 38 38 38
0.8385571921620204 0.06603585981542827 -0.38943406377050405 178 178 178
0.8385571921620204 0.06603585981542827 -0.38943406377050405 178 178 178
0.988576188271368 0.0836937211229759 -0.39082919292137974 61 67 69
0.8396264646962452 0.047108032117103724 -0.3895752497243351 119 118 120
1.0101204252820553 0.05524236626491172 -0.39065798179067235 59 70 70
0.8414443518711832 0.03611077107590776 -0.38798959040878755 178 181 182
0.9055306279574684 0.0381636446820919 -0.38944882803410225 32 35 34
0.8398543919784522 0.02279751097135342 -0.3902474479804042 162 161 161
0.8802833022096126 0.015974547072626893 -0.3909232339337183 21 24 23
0.8420769803828279 0.012781328913965854 -0.3899667678530984 172 175 176
0.840524725814578 0.010902951452249603 -0.38947604998169183 83 83 79
0.838720456093808 0.010778434345288756 -0.3895679700162524 97 105 104
0.840047577659014 -0.0034393645460536358 -0.3905823751441995 156 163 167
0.8392575606802151 -0.010334286295177972 -0.39000106275111984 99 95 98
0.8392575606802151 -0.010334286295177972 -0.39000106275111984 99 95 98
0.9086911938063016 -0.024385403678203747 -0.3919263727354667 174 186 188
0.837503961908381 0.11402841355129083 -0.3898587437148855 196 195 197
0.8355948192357118 0.1119759914327299 -0.3891927215324469 193 193 193
0.9474718954437258 0.09132185336257773 -0.3899405962613202 35 38 37
0.8813534762246942 0.08042743177217693 -0.38842847470853853 30 30 30
0.8813534762246942 0.08042743177217693 -0.38842847470853853 30 30 30
0.8393325710515807 0.07334958204577625 -0.3892077892766712 189 188 195
0.8393325710515807 0.07334958204577625 -0.3892077892766712 189 188 195
0.8382969203497336 0.071466180281337 -0.38863078924326394 186 186 188
0.8661114348222346 0.06503820342692687 -0.388434402306614 178 181 182
0.8390662959157923 0.05619036396755882 -0.3895210623034616 174 180 182
0.9927091155226914 0.06895388376522826 -0.3903661325843715 74 74 76
0.9450624764095354 0.06360648785031131 -0.39133590591059353 34 34 30
0.8386467912178084 0.05219745648555987 -0.38837160860765096 185 185 187
0.9166050899235331 0.059081537933528896 -0.389531771709785 23 30 24
0.891390879722237 0.05320496098827582 -0.3897257443924335 177 183 185
0.8392088776223665 0.0352184126715969 -0.39022886726127987 188 188 188
0.9141668608237143 0.039408173008296105 -0.3925865477158141 23 27 22
0.9171485081333287 0.028259583178458034 -0.39016372793152704 173 181 178
0.9481942739414798 0.028564385930715693 -0.38958726307319563 33 41 38
0.9862978014214239 0.029779668170993458 -0.39091945272856243 48 56 55
0.9232247888072167 0.0231249302033018 -0.39066421139621044 169 180 176
0.8407626012920174 0.017023337936405456 -0.3881166463598771 147 143 146
0.8393222711612504 0.010085455527269778 -0.3881903718796913 176 176 178
0.838893849112642 0.005895986918010948 -0.3789802323412519 128 128 128
0.9239513569819165 -0.0027344665632627724 -0.3914712451421721 162 170 169
0.9485096116396572 -0.007476605156438944 -0.3895732283558827 27 33 33
0.9485096116396572 -0.007476605156438944 -0.3895732283558827 27 33 33
0.8970409546041331 -0.01373046359596822 -0.3890086372238168 21 24 23
0.8410290947556507 -0.023011231243368513 -0.3911316555961086 170 176 178
0.8414380657007217 -0.025347593318531494 -0.38769334739332184 97 96 96
0.838715563048903 -0.026964770162247055 -0.3885826699636944 134 133 133
0.838715563048903 -0.026964770162247055 -0.3885826699636944 134 133 133
0.9144330079763747 -0.030651993839224255 -0.3897161728747069 27 31 26
0.9144330079763747 -0.030651993839224255 -0.3897161728747069 27 31 26
0.8631742354383822 -0.030584186825156682 -0.3851328914687809 18 21 20
0.9229658954637571 -0.03356618761965673 -0.3875900135556957 23 27 22
0.8431382421905939 -0.03192393997060913 -0.3901173733255792 164 167 166
0.8609295081102118 -0.034027138594573736 -0.38494837355142275 23 24 20
0.8937837699326895 -0.07140827804263769 -0.3918909793763056 154 155 151
0.9662034963361332 -0.0824087163340393 -0.38891659909659926 180 184 179
0.9865626077970272 -0.09322645126437665 -0.3867535498624384 27 35 32
1.0086418821250518 -0.15556796019164046 -0.398063223963101 30 30 26
0.924749410623235 -0.0396484585278471 -0.3919998547001934 157 160 159
0.9325116418445524 -0.05748759656818274 -0.3920458384441886 31 26 24
0.9252328700816316 -0.07092399126734958 -0.3913484867094371 18 21 22
0.8981486758331284 -0.09379801390847856 -0.3923463353090763 23 24 20
0.998017190040349 -0.14871962128164906 -0.39678926537177356 16 16 16
0.9976631181638119 -0.1508943196900703 -0.3934535618277415 25 25 25
0.8379195253526788 0.12801158132751517 -0.3958612990327448 198 190 189
0.8386985331138218 0.08995370680899675 -0.3938391147806026 182 182 184
0.9649257178390857 0.10522463019034489 -0.39342714259613176 33 33 35
0.8858493942028732 0.09143906447224492 -0.3929053815706959 21 24 23
0.8393119145542581 0.08417597044098604 -0.39380382685754795 115 109 111
0.8388457684264229 0.06595976641553533 -0.39322630921224855 177 180 179
0.9863898874222384 0.061380158349689524 -0.3924058554270014 159 167 164
0.9863898874222384 0.061380158349689524 -0.3924058554270014 159 167 164
0.8389885949704218 0.04209595104234022 -0.39274737118570235 166 166 168
0.9663519182872398 0.04174093782791452 -0.39262860813524175 28 36 35
0.9866224148100289 0.024468606292117306 -0.3917405618587829 183 186 185
0.8396023996955784 0.008136290532746211 -0.3925775525664222 157 160 159
0.8385718677082553 0.00493380375654845 -0.37579550477078055 137 140 141
0.9927892679814165 0.003624316452488948 -0.39350465592581896 43 53 56
0.8935746932093801 -0.0022021176008280036 -0.39195522435013863 11 17 15
0.8412733821205525 -0.005135169961665796 -0.39288762109242503 94 93 95
0.8418614589333291 -0.031735768258225855 -0.39324813766872896 109 112 113
1.0051898640959211 -0.04567339273878533 -0.39182226741375464 33 41 40
0.9324711508965358 -0.057497399076690686 -0.3919873209542581 31 26 24
0.8814128432286278 -0.05983690234757724 -0.3915664763632598 16 19 18
0.9766563682382088 -0.08262723145283593 -0.3909751963732095 22 30 31
0.9766563682382088 -0.08262723145283593 -0.3909751963732095 22 30 31
0.9717027469200811 -0.08471301860459872 -0.39411069122997167 178 181 180
0.8735507069092171 -0.08656140676981212 -0.3929284032054231 11 17 15
1.0046112258971627 0.018389946389587873 -0.39817453257311874 176 179 180
1.0183996447628287 -0.15511853239462464 -0.3994582642199861 22 25 24
0.9842802357695905 -0.15101188271371901 -0.3909896382817273 22 23 19
0.9902200164612872 -0.15491656465203382 -0.3986030620561129 21 30 21
0.8994488643682133 0.11049384286197118 -0.4085501843943862 30 33 32
1.0068152979696101 0.07776364342615338 -0.4195543673601721 197 203 203
1.0079701349244852 0.07442945615547739 -0.4205647398172685 90 90 94
0.8372086671982157 0.13776315079801635 -0.3910696067813997 198 197 199
0.8365565330364035 0.13295720761025565 -0.3794916749037233 198 197 199
0.8368132978126471 0.1352698135390655 -0.390872862678588 122 121 123
0.8368132978126471 0.1352698135390655 -0.390872862678588 122 121 123
0.837686645380148 0.12294720840945966 -0.3902848212715503 190 190 192
0.8385319310110214 0.11245166236739607 -0.3876803233434221 196 192 195
0.8376074792907745 0.10376820684003774 -0.3906687424028963 196 195 197
1.0884013357351914 0.13302309816713015 -0.39746221544276794 121 121 121
0.9853563988667929 0.11863269998796468 -0.3914006826988234 56 64 65
0.8389238956705847 0.10173636461063526 -0.39052827276152835 131 128 125
1.0836474617581329 0.12169037276040065 -0.3920565304964763 111 118 112
0.8381022963531757 0.0939027747778158 -0.38966842228751297 111 111 107
0.8382594418294151 0.09449046859947566 -0.39161881694056405 137 132 130
0.8382469472247494 0.09350560924755673 -0.39189033087956726 196 187 190
0.9639143043159557 0.103780789557915 -0.3909832080513999 55 54 54
0.9649493330522841 0.10251426105265102 -0.3904657350915704 48 51 52
0.9598654087376804 0.0970033566458863 -0.3904889489620799 39 45 45
0.8367841802065675 0.08348602015356343 -0.39231320470212566 185 188 189
0.839064721603783 0.08257071304828897 -0.39047759023806566 118 117 117
0.9843374329160933 0.09195023453484275 -0.3889716662760738 51 62 58
0.9843374329160933 0.09195023453484275 -0.3889716662760738 51 62 58
0.9478067583966265 0.08630884041947796 -0.3906619432144202 184 190 190
0.9804324393196668 0.08754595763535954 -0.3921867386592809 54 62 61
0.9804324393196668 0.08754595763535954 -0.3921867386592809 54 62 61
0.8703487096300186 0.07750355849874195 -0.39037253084853124 179 185 187
0.8703487096300186 0.07750355849874195 -0.39037253084853124 179 185 187
0.838708530733279 0.0748205584249601 -0.3902683895263748 183 183 185
0.9283529167627587 0.07999731909716674 -0.3925870507368446 27 33 31
0.8649636808402349 0.07494785890041657 -0.39176811163754743 25 31 29
0.8362658181236229 0.07138143934504539 -0.39132775265394515 187 187 187
1.0795730380504076 0.08612342636844487 -0.393594835380772 96 96 100
1.00416738896653 0.08028792128247168 -0.3910141752859925 179 186 180
0.8705406890443865 0.06936441158674876 -0.3900361130893667 177 183 185
0.8786353494247455 0.06969462418638732 -0.39070251629506997 181 187 189
0.8674292857751792 0.06871331897604246 -0.3901005587579917 43 32 25
0.9965369239129432 0.07482433838213283 -0.38989034829116276 63 69 69
0.9965369239129432 0.07482433838213283 -0.38989034829116276 63 69 69
1.004028544891804 0.07465594045969173 -0.3897727285701617 79 82 81
0.8803841523410609 0.0639029959401681 -0.3906630940295991 23 26 25
1.0825062117387576 0.06853445206515406 -0.39654500755281574 107 107 109
0.8856764950411432 0.059013673196475776 -0.39045133633080026 176 182 182
0.8856764950411432 0.059013673196475776 -0.39045133633080026 176 182 182
0.9481318912908805 0.060172309746427045 -0.3907372596541008 177 185 182
0.979836697569432 0.060934419441229716 -0.3916731109325566 47 60 59
0.8395551219647597 0.05317372822203928 -0.3896549818532596 120 119 121
0.8917045710744388 0.053632990970554864 -0.39151737314675544 174 177 178
0.8390721704987745 0.04871549217661779 -0.39073296897253346 126 125 127
0.9999077380692468 0.045932320963346325 -0.39085725873111 56 64 63
0.8382704073659554 0.040721820063168296 -0.39069998715618226 110 110 112
0.8398630701853934 0.039965068978732345 -0.3906270093248377 105 104 106
0.8704023323605592 0.04029365274046564 -0.3919781484932282 18 24 22
0.9658634186761844 0.041183819589309126 -0.3910033516796191 36 42 42
0.9006618081760688 0.0389879538754275 -0.3928857081351312 169 180 178
1.0088267812416365 0.03937101664102376 -0.3904166736085811 57 68 68
0.8391614729032687 0.031812532481373106 -0.3908539410993337 111 111 115
0.8954836676601605 0.031502197919540294 -0.3910947357968918 24 27 26
0.98010170355131 0.029395582376551297 -0.39113872326866517 181 187 185
0.8865519375589567 0.02802192676820936 -0.39222894363741884 23 26 25
0.8865519375589567 0.02802192676820936 -0.39222894363741884 23 26 25
0.8395030137727201 0.02753659774746733 -0.39068913398351834 182 182 184
0.9807592876391419 0.024254659782884186 -0.39222350208810985 48 53 58
0.9807804234058949 0.024266174268550666 -0.3923455411038681 48 53 58
0.9182338726800344 0.02325035701117069 -0.39203527236408536 25 25 25
0.9907948911687882 0.020878160632700104 -0.39209128688191863 61 67 69
0.9905172272539516 0.020871506912688267 -0.39152553653701505 54 62 63
0.8739124067746327 0.01669571151553417 -0.39213086356202986 23 23 23
0.8387331873484507 0.017214856677068863 -0.3904121902929643 112 111 111
0.9402861082377985 0.0139682855526249 -0.3932551401516642 169 172 171
0.9402861082377985 0.0139682855526249 -0.3932551401516642 169 172 171
0.9402861082377985 0.0139682855526249 -0.3932551401516642 169 172 171
0.8405645790055973 0.010868299797025608 -0.39073791473315894 107 103 106
0.8406248637317387 0.010866821364482237 -0.39052771414535975 95 94 94
0.8798925575391086 0.00718830410664938 -0.39132603944768674 165 171 171
0.9314944782596104 0.005228012070776322 -0.3917643061254442 37 31 33
0.9315815166682737 0.005215298173595728 -0.39207941052737194 37 31 33
0.8396662449473348 0.0076289406753495175 -0.3910202212407204 160 163 166
0.9290221027946556 0.002307806657661753 -0.39176295491164187 25 28 27
0.9290221027946556 0.002307806657661753 -0.39176295491164187 25 28 27
0.8403816447103197 0.0058674153732999 -0.39059117410046945 110 109 113
0.9554565541247272 -0.0018312004662457172 -0.3908134271059141 32 38 36
0.9554565541247272 -0.0018312004662457172 -0.3908134271059141 32 38 36
0.9179034500319418 -0.0026194013559415205 -0.39159419464610523 24 27 26
1.0095611758112653 -0.006690411700837922 -0.3885816974116266 42 50 51
0.9872787327016871 -0.007008906907651276 -0.39182446925898495 36 42 44
0.8924899504699801 -0.003342241195664724 -0.39054192912339697 23 26 25
0.9560437982795509 -0.0075081382389596526 -0.3923780571723934 176 184 183
0.8406444718842919 -0.0020265544030354343 -0.39105029072357894 122 118 121
0.840701239361753 -0.0020428546277670104 -0.39121237183121393 115 111 114
0.8929929286304586 -0.008824948957168958 -0.39193902787349283 162 165 164
0.8871896473941456 -0.008939644792790484 -0.3921190351040432 22 22 22
0.9038129880817503 -0.01552735416129793 -0.3915427540033249 160 166 164
0.9037435455740621 -0.015525588534378932 -0.39156576042963886 162 168 168
0.903819730759697 -0.019786227101595513 -0.3918029676201098 37 36 38
0.9074896865526413 -0.02282262850142128 -0.3911532201045073 156 162 162
0.9074896865526413 -0.02282262850142128 -0.3911532201045073 156 162 162
0.9072114584518914 -0.026764228862448544 -0.3915037348961276 29 29 31
0.986256003760428 -0.03300631237317529 -0.3897584593744848 33 39 37
0.9490156109175285 -0.03323136502351829 -0.39034860246692177 25 29 24
0.9496231138142776 -0.03347591149165786 -0.39160647397481224 27 30 29
0.8968409846014762 -0.030955288398348827 -0.39112125571042955 22 25 24
0.9500309980969347 -0.03905629737497574 -0.39151449808126765 163 169 167
0.9245339176833798 -0.03951510589605353 -0.3913186491466559 160 164 159
0.8931878959791084 -0.040032765350456065 -0.3905377150394699 18 21 20
0.8931878959791084 -0.040032765350456065 -0.3905377150394699 18 21 20
0.9313064870995996 -0.0445504649997545 -0.39082239045014416 20 23 22
0.9930570196677395 -0.051946595148544925 -0.3919584972155764 27 26 35
0.9323827273874584 -0.05082986249955134 -0.3921675910210124 151 157 155
1.0090960943935445 -0.060434541782579065 -0.3914265058220824 36 41 46
0.9990346315897133 -0.06029411924244266 -0.39136443012589184 32 32 34
0.9356209521680248 -0.05422078833770993 -0.39160082168252097 30 29 29
0.9455758342664577 -0.05569542965504513 -0.39199707231699316 22 29 23
0.9883561526404545 -0.06466968794654898 -0.3919882522238552 180 183 184
1.0127242578441107 -0.06994002363325032 -0.3919373176641654 35 38 41
1.0126733179537446 -0.07102002593076792 -0.3929293768944551 34 37 38
0.956037314121716 -0.06507627693292363 -0.39095688561590103 20 26 24
0.925641691906226 -0.06565861098657767 -0.39278166914325796 164 167 166
0.9575216399690162 -0.07032791160129029 -0.3928230850089651 183 183 183
0.919113048063169 -0.0656883770409474 -0.392468776466841 20 20 20
0.919113048063169 -0.0656883770409474 -0.392468776466841 20 20 20
0.8846603194986846 -0.0629594077299758 -0.39178068508936437 22 22 22
0.8846603194986846 -0.0629594077299758 -0.39178068508936437 22 22 22
0.8936380554408397 -0.06622310946169281 -0.3916913425302479 21 24 23
0.9189499044084418 -0.0710222610092052 -0.39175915164654496 157 160 161
0.9189499044084418 -0.0710222610092052 -0.39175915164654496 157 160 161
0.9760499358816939 -0.08114970194208322 -0.3933167534598963 36 36 40
0.9760499358816939 -0.08114970194208322 -0.3933167534598963 36 36 40
0.8887004318109535 -0.07193774126342904 -0.39371083239291116 20 20 20
0.8977126388661482 -0.07512854103180558 -0.39262940506296 21 24 23
0.8977126388661482 -0.07512854103180558 -0.39262940506296 21 24 23
0.9121090693123053 -0.07870712595210842 -0.3928479676754691 31 32 28
0.913590834928207 -0.0920983142645265 -0.39178079659215687 21 24 23
0.8380660540968504 0.11375666837370232 -0.39193980668023803 179 175 178
0.9754014960946898 0.11477861692163815 -0.3910781716191057 58 61 64
0.8381136820014012 0.07609438053326466 -0.39071015439142087 188 187 189
0.8376677303580992 0.07419174051177668 -0.39120445557772476 123 122 122
0.9413392998385967 0.07932412093886217 -0.39094398500734123 178 189 187
0.9026481262637287 0.04691518625075767 -0.3909561784689759 168 179 179
0.9026265540964186 0.03535239292257424 -0.3909974007958642 30 30 30
0.9934559102800941 0.009591254407650355 -0.39147759315187847 183 189 189
0.8758730387230097 0.0036792203557035152 -0.39138964459512815 26 26 26
0.9696765813641199 -0.021454394599163717 -0.3912130399021681 38 41 42
0.9361656585304339 -0.058383270409166174 -0.3913441887615635 155 155 151
0.9651983619689961 -0.07574924765308153 -0.3919498767289354 184 190 188
0.8382203982024738 0.09903999386375702 -0.39141299207900937 139 136 131
0.8381726202738308 0.09909470372695205 -0.39148459683010134 139 133 135
0.8394905177702976 0.08681306809892564 -0.3916745345637503 185 179 181
0.8399456023291931 0.026916678967025702 -0.3907989313556938 111 107 108
0.9798359749616691 0.11659711017264907 -0.4196488245969218 58 57 57
0.8383681498808583 0.10203038584604034 -0.39290439109846365 203 199 202
0.8382177506664916 0.09467928464668071 -0.3918521169283087 124 120 121
0.8383140834887115 0.09273902905991756 -0.39156156342279214 113 109 110
0.8383550432055441 0.0839364377679219 -0.390899788775073 179 178 178
0.8383550432055441 0.0839364377679219 -0.390899788775073 179 178 178
0.985849860556192 0.08708946077687309 -0.3913781946861355 183 186 185
1.088542457959592 0.09762099341292843 -0.3971216359672501 86 89 90
0.8391845743757147 0.06963013081596735 -0.3911911358349682 122 118 119
0.8365231678970689 0.06860327294303964 -0.39132085941093314 187 187 187
1.0912071108961805 0.09454190691146598 -0.39965096398735983 112 120 117
1.0823804116686335 0.09294431561398474 -0.39697232722429804 82 78 81
0.9275367094937077 0.07640701471253686 -0.39157417018177 28 32 27
0.9275367094937077 0.07640701471253686 -0.39157417018177 28 32 27
0.83906845891267 0.06536175334782923 -0.3909036120304477 158 157 161
0.9373947675328168 0.07073218650145735 -0.39060260195735585 36 36 40
0.9970763411247702 0.06833393397263804 -0.3911689302663569 179 182 181
1.0876986477307082 0.0758076673763098 -0.3964661641929033 75 78 79
0.8369347877787425 0.0528468008654023 -0.3917057578689956 185 188 187
0.8366975843327156 0.052930956732768306 -0.39236934326508205 184 187 186
0.8390610545709987 0.04890910601194472 -0.3917912150329122 114 110 111
1.082039716592622 0.06044197813183294 -0.39629635736860663 84 84 88
1.084609583819944 0.05927022419097318 -0.3990959299927207 107 103 108
1.0087181403403782 0.04987743620903136 -0.3914408798274682 50 58 57
1.0932223270322914 0.05672147673775369 -0.4079040844005905 103 103 103
0.8394087060995783 0.03810083575842023 -0.3906526148247754 136 132 133
0.9996059695725711 0.04266840238469756 -0.3894625349091291 55 66 64
0.8388764258141863 0.032586227213905326 -0.38981049930297096 174 177 178
0.9733115611383457 0.036395559440162435 -0.39108039700330416 176 184 181
0.9734325292317967 0.03644702947088281 -0.3913920385370445 165 171 171
0.9180689049262338 0.023232363733705394 -0.39185748965971706 21 24 23
0.8395736935319721 0.014472637583020679 -0.3916538665856968 136 136 140
0.9986232208662267 0.014736556059704697 -0.39201279753880247 70 73 76
0.9986232208662267 0.014736556059704697 -0.39201279753880247 70 73 76
0.8756905983344861 0.011733219716470511 -0.39130670103093457 164 172 173
0.9669725086059155 0.010551843084672953 -0.391602347220915 25 31 29
0.866963994700512 0.006219587548113505 -0.39067416863340326 161 169 168
0.8398865908478886 0.0037697977709674002 -0.3907600445427718 166 166 168
0.8397461982853528 0.00013036481047742403 -0.3908486790442393 172 178 178
0.8412277095178525 -0.0002460618409531117 -0.3889880769427868 166 169 170
0.8390031901697713 -0.005586587831749964 -0.3915818615449136 171 174 175
0.8625645625301764 -0.01084623398897633 -0.39374909607579417 21 24 23
0.8398500277931253 -0.010899793446276765 -0.39178878796389766 175 175 175
0.8397034226026943 -0.012481904417969312 -0.390733484059054 179 178 182
0.9618883121704617 -0.019286639811773906 -0.3911854916513747 177 183 181
0.8410290947556507 -0.023011231243368513 -0.3911316555961086 170 176 178
0.9045426802507682 -0.028407494501440346 -0.39155788282545306 150 158 157
0.8415409822751958 -0.030421207273961907 -0.3914532096328856 92 88 89
0.9357115037630152 -0.05422817255009835 -0.39188468914196 30 29 29
0.9550730915894069 -0.0658710115773201 -0.4007183853721176 170 173 172
0.9258795348296458 -0.09690743496988437 -0.3920622440603071 19 27 26
1.0183872153844555 -0.15538501908084226 -0.3986878039332205 27 33 31
1.0116293564412218 -0.15349399278373807 -0.39669365660469963 16 19 20
1.0116293564412218 -0.15349399278373807 -0.39669365660469963 16 19 20
1.0009809034055648 0.0793579932753053 -0.3913457685316529 73 73 73
1.0009809034055648 0.0793579932753053 -0.3913457685316529 73 73 73
0.9277282257466192 0.06501266690640926 -0.39143908914520803 26 32 30
0.8382421182482152 0.040802478558609565 -0.39112232228270083 110 110 112
0.8756921644514155 0.01174252064539865 -0.3912919808285788 167 175 176
0.8396465067212393 -0.009833169033189815 -0.391051847878522 173 176 177
0.8377839734885821 0.12218061219633673 -0.39439486833766146 197 193 196
0.8383870983540666 0.09527763876844177 -0.3930312212886805 137 132 130
0.8383870983540666 0.09527763876844177 -0.3930312212886805 137 132 130
0.8389040067275344 0.07804120287165837 -0.39312416798073824 193 196 195
0.8911841148036134 0.08631573768749737 -0.3931153955540254 29 32 33
1.0047615550853721 0.07689736317569298 -0.39243303168250715 62 62 62
0.9450215554049696 0.06353415948907233 -0.3912733992057731 31 35 30
0.9800479189196885 0.061346341760902326 -0.3923349090213191 41 47 47
1.0096785285770282 0.054016192293838534 -0.39181420824059926 60 66 66
0.8953382886137431 0.03256342320820647 -0.38806437982700764 27 16 7
0.8953382886137431 0.03256342320820647 -0.38806437982700764 27 16 7
0.9173176524979034 0.028208967113478808 -0.39084393556414604 164 170 170
0.9485263236685366 0.028696845840851685 -0.39066274877544516 26 33 27
0.88657644640246 0.02252961594123078 -0.39221331054911873 169 172 173
0.9239468209807659 0.023387974753749468 -0.39267934237978247 164 170 170
0.9555756528041862 0.02402086261120972 -0.3928369614324083 29 32 33
0.9811859150031846 0.02449398880671014 -0.3931183653568715 43 49 51
0.8408529274455987 0.009960041743932814 -0.3902230081623275 177 176 178
0.9056634981976615 0.010080409115795065 -0.39370838194223834 16 19 18
0.9871783599399476 -0.001785335887194701 -0.39188607013950816 169 175 173
0.9245652332873332 -0.007821219514366392 -0.3934371132265941 21 24 23
0.949954337523192 -0.00755333544059246 -0.3928627257941338 28 32 27
0.8408370333245547 -0.012499744636486626 -0.390936765849829 179 182 185
1.011062598585609 -0.008111067193865203 -0.3923710909368763 62 68 68
0.9989157869571453 -0.01610992462639068 -0.3901318886376783 51 62 60
0.9037325195517877 -0.0197886363458999 -0.39179237535117456 31 30 30
0.8715737567169582 -0.0221070732440892 -0.39278642344494197 16 19 18
0.8396568337300336 -0.023096021054590347 -0.39053569260614346 177 180 181
1.0814044056168512 -0.018582438500153627 -0.3965716164584187 123 126 127
1.0107647848606425 -0.024457044958367872 -0.393039426997353 47 55 56
0.8414825445274586 -0.030431203136758886 -0.39134936531958275 92 88 89
0.8969096115752491 -0.0309988395702479 -0.39209736834432657 21 24 23
0.893002243805538 -0.03479160020616728 -0.391703859709333 155 163 162
0.8616920766979385 -0.034912224430440564 -0.38979561894983183 25 31 29
0.9193172561673559 -0.03945746735666078 -0.39292301926327067 20 23 22
0.9976219133820353 -0.050406739532038336 -0.39206066929137345 53 52 54
0.9976219133820353 -0.050406739532038336 -0.39206066929137345 53 52 54
0.9570578136207877 -0.07024836823202167 -0.392633430835202 171 177 175
1.0188315685376244 -0.1474897216113152 -0.39295764707202874 21 24 23
1.0016220516573202 -0.1481377941664873 -0.39757945588592614 24 27 26
1.020815431979907 -0.15146385144756794 -0.39936211363173196 32 38 36
1.0007809967247425 -0.15223154883759762 -0.39798784723080116 35 42 36
