ply
format ascii 1.0
element vertex 713
property float x
property float y
property float z
property uchar red
property uchar green
property uchar blue
end_header
-3.9485954841615745 6.678335587902014 23.205384089668115 194 194 198
-3.8484802808563887 2.864772632246348 24.247031724258555 29 32 35
-3.27895347557645 6.640388225475871 23.12703027438028 186 185 192
-3.0553323890955397 6.648810106377657 23.086331182687804 186 189 192
-2.9431717255981584 6.599266533415498 22.392135824240924 188 191 192
-2.111780577106114 6.530707680751659 22.981697968770014 112 111 113
-1.9403239387584117 6.524574838338118 22.97663923799343 106 105 107
-1.9322777395855923 6.308766962250771 22.4412489475226 106 105 107
-1.9265935780083834 6.753148622770775 22.890482499115585 184 187 188
-1.5979852631860163 6.390560672640176 22.397310550814005 190 190 194
-1.5159796259575329 6.585936508755828 22.879457582855462 117 116 118
-1.3371728236714848 6.336318661935743 22.339647591112758 138 137 137
-0.7332931312721075 6.557066693656763 22.805366390715246 188 191 194
0.019717593775661083 6.224164049744758 22.184405041480435 110 110 112
0.1550623507236344 6.487023435053091 22.66755757073715 181 181 183
0.3511196214234592 -10.302072540310867 29.330771670608566 141 149 148
1.3765808145237426 -11.152136313992251 29.548879155100483 146 152 152
2.127578380082763 6.230037517971368 21.838889479174764 98 98 100
8.508400167149398 0.9089574518448281 23.34391042418606 27 28 24
8.95535412352732 -2.9911198915813753 24.329684316220714 39 38 47
8.632535942279198 3.6750075561148168 21.714675628725793 20 24 19
7.774072694427795 2.775670400311311 22.73553695370902 25 31 33
-6.633350282081937 6.94109852870801 24.246151273645026 192 195 198
-5.80457652357654 2.596727520742211 26.11217016105553 40 31 24
-5.781093652166341 2.349073115205805 26.006170419798615 188 188 188
-5.45782526742242 4.5523378997640025 24.745479255446487 25 25 25
-5.45782526742242 4.5523378997640025 24.745479255446487 25 25 25
-4.666227337069866 6.7386220831833485 23.86465224355858 190 193 196
-4.335472331702648 3.0856994786029177 25.476886083613827 179 190 188
-3.794610694291295 6.927703555359754 23.658335520341424 184 192 193
-3.761152559679742 5.791090542447459 24.337359911276334 187 190 191
-3.6061326708972543 -0.28539898936550007 26.60675544859406 33 39 37
-3.397508179401013 4.439988066485825 24.138632587683578 179 185 187
-3.400748842561513 4.519769349984649 24.654642244590484 175 186 186
-3.397508179401013 4.439988066485825 24.138632587683578 179 185 187
-3.209228046889073 6.71241344477828 23.075652729216777 134 130 135
-3.097994091969469 4.199443164033571 24.72286503285459 178 184 184
-3.097994091969469 4.199443164033571 24.72286503285459 178 184 184
-2.804350777692707 4.487263951498286 24.566164499375905 177 185 184
-2.7964796217006183 4.130136438556395 24.1691690507068 44 40 43
-2.7498459988471313 4.6223585876288755 23.919906163621143 43 29 23
-2.7498459988471313 4.6223585876288755 23.919906163621143 43 29 23
-2.7000754855565052 0.0782410703042898 25.90144445099915 181 189 188
-2.7000754855565052 0.0782410703042898 25.90144445099915 181 189 188
-2.548189874095009 6.721934878112263 23.545761683502427 143 143 145
-2.2366119383019756 4.965492520107885 24.220047729011085 32 35 36
-2.0956910206342605 6.635758045986777 23.41278000866095 104 103 105
-2.008772086419591 6.636816772347338 23.3923527056947 189 189 191
-2.008772086419591 6.636816772347338 23.3923527056947 189 189 191
-1.7634130226116003 6.60677298214177 22.88473088282776 163 162 166
-1.7353359230013472 6.715426223648447 23.32230861050816 101 104 105
-1.4894661540598937 6.687391897587144 23.292629610887566 108 111 110
-0.02327879543047893 2.4064070622438556 24.94223913534382 168 176 175
0.09062980307499166 6.601912994013738 23.029635432852096 107 107 109
0.8934080781870916 -1.1837754573520356 25.952803183282594 175 183 182
0.9311220376399609 0.6180902130106171 25.631954940474614 170 176 174
1.493327606099743 -5.386641597746069 28.36389357998853 57 64 68
1.212728136412826 0.3400304599086943 25.70238702615483 30 36 38
0.8736023312031981 6.5845500686102705 22.879988439509425 172 178 178
1.6343634251719565 -4.88551584558307 27.977160922532892 186 192 190
1.4556926349184645 0.14891612691021577 25.649307311389357 168 179 177
1.3525979630045215 3.7045866101431844 24.17431966789777 24 27 26
1.3400588872659045 4.494320364239264 23.370220095750685 171 177 179
1.7471581551313122 -0.4619534539987541 26.084850507214764 172 178 178
1.7632006543614922 -0.13441559558137134 25.283174299853407 165 176 172
1.8399823628509235 -0.13668164915617376 25.704465541375832 168 176 175
2.1634819245594072 -4.399979186414302 27.64500940785054 181 189 188
2.194592534618894 -4.685660123861405 27.728669677124792 66 68 74
1.6509978189475643 3.988631679403165 23.90828762352248 164 175 173
1.6509978189475643 3.988631679403165 23.90828762352248 164 175 173
1.6388027665320266 4.211145609378545 23.41694953239437 43 43 45
2.409769514503183 -4.4617029069297836 27.651497590626608 52 52 56
2.409769514503183 -4.4617029069297836 27.651497590626608 52 52 56
2.424577955312733 -0.7786032871665939 25.939636439444598 168 176 175
2.3570221256784563 -0.7596814500694062 25.60872363907531 166 177 175
2.3367740163355224 -0.19576980118862122 25.378436750050003 164 175 173
2.542008325623372 0.20588530906116906 25.562332170809537 31 34 35
2.542008325623372 0.20588530906116906 25.562332170809537 31 34 35
2.0647164249569028 6.663775877014979 22.65029826625849 172 178 178
2.607332572490495 -0.9898061144196046 25.772800173414478 25 31 29
2.327814799630781 4.241203620925474 23.68423033243906 164 170 168
2.327814799630781 4.241203620925474 23.68423033243906 164 170 168
2.8926952820356995 -1.2547331004258693 25.84033815199443 144 157 154
3.37326674032337 -1.7350688640907272 26.27820658090875 186 189 190
2.7981235089804244 6.314688042399986 22.30625174192597 106 105 105
2.7981235089804244 6.314688042399986 22.30625174192597 106 105 105
3.912745952561943 -2.794067178378462 26.60068787567549 188 195 189
4.077082108925324 -2.404908773237684 26.41010790721767 185 191 191
3.682488956169629 2.3799921429490185 24.409258054992588 25 28 29
4.168387269811767 -2.779795751455863 26.327088278685533 30 35 40
4.168387269811767 -2.779795751455863 26.327088278685533 30 35 40
4.2512578947192585 -3.099727244482705 26.68897076360309 185 191 191
4.2512578947192585 -3.099727244482705 26.68897076360309 185 191 191
3.88028088974249 1.7362685892872642 24.59501425556058 165 171 171
4.112207284429574 2.246849299906723 24.333055235117982 160 171 169
4.146343836972084 1.9447902183104058 24.458697482850006 47 43 48
4.146343836972084 1.9447902183104058 24.458697482850006 47 43 48
4.146343836972084 1.9447902183104058 24.458697482850006 47 43 48
4.357041987692991 1.5369156009786284 23.96445817290275 160 171 169
4.051756766248433 6.42247836882916 22.453922338992605 110 111 107
4.471294773680323 2.191205978946696 24.012733853375938 172 175 176
5.101120250734207 -2.050557643615324 26.115507242139707 44 50 50
4.770517274403571 2.2254264688249106 24.19557044112202 160 166 164
4.770517274403571 2.2254264688249106 24.19557044112202 160 166 164
4.385950090015495 6.309699885236611 22.312272675100584 115 118 119
5.822374420926149 -4.085986580889155 26.870036487032248 192 192 192
6.387340608813431 -4.586463860592464 27.021471630615963 187 190 189
6.037739129771862 -1.12940167007893 25.50464152528211 33 32 39
6.661797623022167 -4.888906248220026 26.996999276514217 40 45 50
6.227376476902879 -0.6048092288195324 25.241706897810467 168 179 175
6.34582088059672 -0.4061627692019287 25.160299038523032 42 39 36
6.34582088059672 -0.4061627692019287 25.160299038523032 42 39 36
6.474777339036632 -0.7630867889269826 25.34497624300797 186 192 192
6.961792643784327 -4.8930097046168255 26.979962656655548 187 190 189
6.989786071941048 -4.408362976906419 26.859336811956545 33 38 43
7.123719811278945 -5.270236060386516 27.171350269719074 190 196 196
7.265547022367854 -4.8949242200885275 26.993175643221004 49 47 58
6.697494160265507 -0.38801117424280135 25.046457363791173 166 166 170
7.299740834134327 -4.608088372085883 26.852618588827497 184 191 185
7.299740834134327 -4.608088372085883 26.852618588827497 184 191 185
7.359934434272635 -5.137875898216299 27.050123996220602 185 188 191
7.359934434272635 -5.137875898216299 27.050123996220602 185 188 191
6.871184255501375 -0.9319651113967137 25.310436226525955 39 38 42
6.886446270076711 -0.5887573372631058 25.0955479200995 176 182 180
6.8764457967532975 -0.4006089408898494 25.022632335901672 49 47 56
6.8764457967532975 -0.4006089408898494 25.022632335901672 49 47 56
7.554565690794733 -4.398090975196837 26.703955650808172 41 40 47
7.285939750398448 -0.031133225634226 24.669049020979983 22 25 24
9.401152940570864 -3.2697310678912617 25.920271656738173 41 40 47
9.447212103858515 -3.261002018348736 25.978944762596804 38 37 46
9.675016362438184 -3.3236913139928923 25.948193833277134 184 192 193
-8.077339354350064 6.783840391817635 23.486213514912613 143 138 136
-7.679373024205815 6.766172662384814 23.477151186296254 184 184 180
-5.806353416776462 -1.7739381288808505 27.0497216755231 33 39 41
-5.28345439478729 -1.9150744516466283 26.984984552374772 185 185 185
-5.28345439478729 -1.9150744516466283 26.984984552374772 185 185 185
-5.307053297408438 -4.4371304624010595 27.898044940641956 52 60 57
-5.118469773903994 -2.0733255231328283 27.074620638425916 55 55 57
-5.034897623483966 -1.8403249519048328 26.96551111479565 183 191 188
-4.577715412478437 2.7421122723695412 24.81191838007709 37 37 37
-4.577715412478437 2.7421122723695412 24.81191838007709 37 37 37
-4.622172852865649 -1.7945773994090828 26.866123990177545 40 48 49
-4.622172852865649 -1.7945773994090828 26.866123990177545 40 48 49
-4.611087260450417 -4.943856089770555 28.252847394138573 69 77 76
-4.245236492593086 -1.4048381842806987 26.6123703584492 179 185 183
-4.206979882030048 -3.151188301073012 27.3829580641814 181 184 183
-3.822366949442305 6.60450785024269 22.81918882600637 180 182 188
-3.8527551301648026 -0.9957798993240873 26.373634315481354 178 184 182
-3.7971779441312687 -3.626325903243547 27.49567831077539 183 183 183
-3.5588197995642883 -3.8503605099256717 27.675584848919424 65 70 75
-3.555193570357243 -3.8272293610895245 27.569313728174713 65 70 75
-3.3443392664555462 0.02368268523146197 25.747087197217407 175 183 180
-3.2822562517644402 6.549965015828426 22.78853231930023 176 181 186
-3.1772919975290685 -4.7272010269688725 27.950470922538305 50 56 56
-3.0882150088117815 -0.5004668887943593 26.202556302887892 182 190 189
-3.0462418488725405 -0.09665440782178102 26.037097034546104 184 190 190
-2.9461997709772656 -4.924154842821415 27.93528145200544 78 81 84
-2.8977809137643686 6.527572880415236 22.75839307746878 124 127 128
-2.878808852869778 -4.44196052243734 27.690517952168157 62 68 70
-2.878808852869778 -4.44196052243734 27.690517952168157 62 68 70
-2.8593866697442545 -4.081884669088355 27.520143900142617 64 68 63
-2.585654223162559 4.423299125978681 23.803785241229736 177 185 184
-2.444579582674482 -0.5525267804893705 25.911896152795812 37 43 45
-2.4164775082402894 -0.04002801348034981 25.687603369410272 177 183 181
-2.4209950950487737 -0.04082653781728387 25.70649832500241 180 188 187
-2.291364433732306 0.3720287706219539 25.494134461515205 32 38 40
-2.291364433732306 0.3720287706219539 25.494134461515205 32 38 40
-1.886823689116381 -1.0663072492909969 26.181044113790207 182 190 187
-1.554023718800327 -3.3984758438629985 27.482386733789845 196 204 203
-1.6374199283387865 6.641434796070383 22.53355207217124 181 187 187
-0.8828508380398681 -2.5173551062566957 26.44045875671145 56 62 60
-0.40929332528471535 2.0706370047198868 24.67207717671756 173 184 184
-0.21877764411459794 6.521082356792461 22.468693435455886 126 126 128
0.4690663595903077 -1.5987685756497279 25.942024228248027 179 185 183
0.22134803081111878 4.918771872582888 23.21051684517962 27 33 31
1.0156898204114848 4.682951467616607 23.001931420034147 31 31 33
1.0758076978758468 6.367318576208658 22.192104618257762 181 187 187
1.2430871375466868 6.432958915110699 22.400351766502713 163 166 167
1.5160340374769343 6.334460637402334 22.297994206380785 97 97 99
1.8280383170514132 4.408905866794169 23.144064578907667 167 173 173
2.3331262673240425 3.5930493133442263 23.46890833579364 22 28 26
2.321590345007958 6.374504328256547 22.169429489192307 176 179 178
2.4145298789601926 6.406429272659296 22.103019723398187 95 95 97
2.4145298789601926 6.406429272659296 22.103019723398187 95 95 97
2.72807972069273 3.1088986441627573 23.608300934787827 169 175 175
2.7289049366221967 6.403295718612052 21.96901996356493 176 182 184
4.15976781362451 -2.657863914322445 26.421803399765523 198 201 200
3.536685696698755 6.446843953968512 22.248512099859944 172 174 180
4.324161056447162 -2.0045656867217976 25.47691374448567 30 30 30
4.0782779913146925 4.127416963015317 22.942904080583723 15 21 19
4.9293553253593405 -2.5419920306735913 25.72747834017542 32 35 36
4.040232787462373 6.227635366377967 21.871938916087597 169 174 179
4.040232787462373 6.227635366377967 21.871938916087597 169 174 179
4.8022108866903555 2.3423581369191084 23.5191589966828 30 34 29
4.767630327108476 6.237414290510979 21.756338225601787 84 87 90
5.9519146001183785 4.46951853555797 22.728062113250676 18 21 20
-5.937599688805606 -2.8597724099503825 28.568137476540166 72 75 78
-4.241291207878436 -3.8577571599083145 30.13397330007857 71 74 75
-3.8822541482165542 -1.5267464302992109 28.804522915086043 51 57 59
-1.3272756938729204 -1.0195253238175752 27.151459355022233 47 55 56
0.9404559845262297 2.9226215420485566 24.563261210395552 24 27 26
-7.856945033672357 6.847833437522443 23.713874362883537 138 134 135
-7.856945033672357 6.847833437522443 23.713874362883537 138 134 135
-7.5510474956009945 -10.573436436273012 31.89439039658463 147 147 147
-6.220009359930936 3.5962431016799967 25.05485173413683 33 33 35
-6.155620060270622 3.6758364020550873 25.008848393301545 29 32 33
-6.1440040315572775 -0.7886342471050339 26.941094014016493 32 38 38
-6.214539511901743 -3.5749531613491956 28.489520762726066 40 48 49
-5.12533789254822 -2.075168848564207 27.200230437564446 42 36 40
-4.733311219732503 6.720114591509306 23.31826755803585 130 129 131
-4.580890324445171 1.4974346950411697 25.580369915636858 33 33 33
-4.580890324445171 1.4974346950411697 25.580369915636858 33 33 33
-4.2985379437110485 6.6874511587070815 23.24372692017492 187 190 193
-4.2985379437110485 6.6874511587070815 23.24372692017492 187 190 193
-4.504700730040657 -2.9062150609152297 27.558300449664266 39 42 41
-4.426827753291809 -5.240999908759545 28.721907975660702 45 53 52
-4.2672931283781965 -0.976252518167482 26.76695032143818 30 34 29
-4.2672931283781965 -0.976252518167482 26.76695032143818 30 34 29
-4.329088808204724 -5.312722601823717 28.724347704382993 46 54 55
-4.1990123555341885 -10.425051167599769 31.189511346415102 146 152 152
-3.924992389344641 6.977280207730025 24.077376620670687 133 129 132
-3.924992389344641 6.977280207730025 24.077376620670687 133 129 132
-3.90933906346846 3.4100447835247945 24.63230495933012 182 188 190
-3.90933906346846 3.4100447835247945 24.63230495933012 182 188 190
-3.8674053367877685 0.7800770758444947 25.670541714788506 182 188 186
-3.6514995210944305 3.6396448645861037 24.568344998342287 34 33 33
-3.6514995210944305 3.6396448645861037 24.568344998342287 34 33 33
-3.574025386209257 -0.7493938756103862 26.446789673096298 34 33 33
-3.5175273273248133 -3.89242691708977 27.77814862069089 38 46 47
-3.5175273273248133 -3.89242691708977 27.77814862069089 38 46 47
-3.4418426286788475 3.8440199636704016 24.520615855771116 28 31 30
-3.4456751176531646 -5.001201243976751 28.320608906964626 42 41 43
-3.288019629545647 -0.26122026880775207 26.116889068818796 42 34 31
-3.288019629545647 -0.26122026880775207 26.116889068818796 42 34 31
-2.6287122125623683 -10.772739041638774 31.26648884890089 88 86 93
-2.50037351053553 4.64890969288838 23.81527628412707 180 183 184
-2.0874264676240046 -5.215537665320442 28.20580380205334 52 62 65
-1.9123883712005187 0.703173616203794 25.361251143664056 177 185 184
-1.8951147636725671 1.1279606869085061 25.382338047151677 24 28 23
-1.5015503012097264 1.1242909610136382 25.26608244564746 177 185 186
-1.5015503012097264 1.1242909610136382 25.26608244564746 177 185 186
-1.5280123770366982 2.894295713160298 24.458882594506477 180 183 184
-1.4951201998792636 5.095871213476317 23.68710149890076 30 36 36
-1.2826157818787105 -5.426230303992116 28.24157722498817 40 51 51
-1.1431388967383806 2.5423131298365966 24.575974891317475 23 29 29
-1.1431388967383806 2.5423131298365966 24.575974891317475 23 29 29
-0.4140329371348109 -2.3324953341776173 26.562599128104956 30 33 34
-0.5032531424577481 6.53907411982602 22.769744501645903 137 136 140
-0.07195519166563533 -2.080378031276806 26.493809485977003 37 31 35
-0.07195519166563533 -2.080378031276806 26.493809485977003 37 31 35
-0.06457952872032188 2.4734010059381037 24.15428607609739 40 29 24
-0.06457952872032188 2.4734010059381037 24.15428607609739 40 29 24
0.4529007027030536 -5.493682597075647 27.906841866408513 44 55 55
0.39850464555612075 3.270386598703401 24.21207800173869 27 30 29
0.3021590775988569 4.973680728510149 23.26653699700046 29 35 33
0.4080138259009935 2.8155995656757002 24.185775598377006 171 182 180
0.8763772732568689 -1.5913540880844141 25.996624382579448 23 29 29
0.8763772732568689 -1.5913540880844141 25.996624382579448 23 29 29
0.600661953576393 6.660527345139401 22.57358329951502 177 183 183
0.8196392222250362 3.2153274796517737 24.010439730721128 171 179 178
1.3697901540290467 -0.7550986981369134 25.616570449696525 169 180 178
1.7536656305127098 -4.10079594944838 26.959448963495255 36 41 46
1.8211515308628323 -4.5472466052034735 27.282763391328857 63 66 67
1.3400588872659045 4.494320364239264 23.370220095750685 171 177 179
1.2700819620050583 6.629200974295534 22.459303661753328 179 182 185
1.677763856046123 0.2874082726816053 25.096052725300726 29 32 33
1.905698502743086 -2.4836863458734935 26.314406986468438 20 26 24
1.9904613059999017 -0.2003089852178607 25.302005333770012 41 37 40
1.9904613059999017 -0.2003089852178607 25.302005333770012 41 37 40
2.3518058588224435 -4.827994675633298 27.35171114159226 174 180 180
2.527324491523013 -4.221697761789391 26.9483864979203 35 41 43
2.527324491523013 -4.221697761789391 26.9483864979203 35 41 43
2.527324491523013 -4.221697761789391 26.9483864979203 35 41 43
2.3138625466438447 -0.206446587960846 25.26519488845027 164 175 173
1.9117964796044826 6.4325588155995215 22.39441040267904 134 137 138
2.575998494692332 -0.9953863678236713 25.629260600894227 32 35 36
2.8495833193350224 -3.44180748487431 26.430955338903306 30 36 34
2.80581953925684 -1.7021246426057106 25.751167619509253 28 34 32
2.80581953925684 -1.7021246426057106 25.751167619509253 28 34 32
2.8091776994348474 0.5258551072579162 24.850110258498162 166 174 173
3.2728494150129217 -3.8887565259841472 26.602341782515904 28 34 36
3.3280466769392785 -3.4790132564182406 26.67670818976426 169 175 175
3.3280466769392785 -3.4790132564182406 26.67670818976426 169 175 175
3.299569868132082 -1.2486041597649689 25.72086298219044 27 27 31
3.186918228394331 0.5227142874703138 24.715862186934466 27 27 29
3.678552705414667 -3.133143102688018 26.379407190246468 28 34 36
3.7747177070757925 -2.1675178624174385 25.882179798452395 165 176 174
3.7747177070757925 -2.1675178624174385 25.882179798452395 165 176 174
3.1756241603837214 4.8388539852431585 22.78350748881771 25 28 29
3.134850226107759 6.248919346361505 22.204700216442443 175 175 175
3.5700706149611974 2.341534551635914 23.95481185753981 21 27 27
4.1431252910196905 -2.1846370159401016 25.77193176092516 185 188 189
4.1431252910196905 -2.1846370159401016 25.77193176092516 185 188 189
4.1975680265351905 -2.5477334167998906 25.979738953080464 165 171 171
4.166528269302838 -2.161514128461645 25.76320502024141 164 172 169
4.166528269302838 -2.161514128461645 25.76320502024141 164 172 169
3.8076548796756726 2.1615990100772526 24.021196685047865 42 38 41
4.7140879016336985 -2.9464035398900035 26.161616760976177 167 173 173
4.288926478115472 1.645158515933867 24.158231362304495 164 170 170
4.288926478115472 1.645158515933867 24.158231362304495 164 170 170
4.945946818649813 -2.010590454424717 25.567849986554826 34 34 34
5.223174640564548 -4.01013209447891 26.3451210366024 27 33 31
5.192624045167217 -1.7874691196489914 25.322154971611724 164 170 168
5.1475508564696755 0.4138632122803147 24.4477335777336 27 30 29
5.1475508564696755 0.4138632122803147 24.4477335777336 27 30 29
5.726604987390658 -3.554687572778711 26.298960669603183 27 27 29
5.726604987390658 -3.554687572778711 26.298960669603183 27 27 29
5.1301795287244305 2.6137737297564554 23.521493137200455 163 171 168
5.619066535591992 -1.8060720602842977 25.346236933359233 24 27 28
5.619066535591992 -1.8060720602842977 25.346236933359233 24 27 28
5.627502906105151 -1.3691027763376582 25.246047488193522 163 171 168
5.627502906105151 -1.3691027763376582 25.246047488193522 163 171 168
5.9446612091640745 -4.26383741701826 26.41337390269317 29 34 39
6.312413176667112 -5.285182668701014 26.95933665285525 28 36 37
5.573259794101308 3.039877164714343 23.388907775278405 169 172 171
5.573259794101308 3.039877164714343 23.388907775278405 169 172 171
6.4953163527865625 -4.854989762722421 26.598980619144776 32 38 38
6.131199880717714 -0.9371204514161455 25.017221318738436 165 171 169
6.131199880717714 -0.9371204514161455 25.017221318738436 165 171 169
6.889225357086995 -4.53298917141075 26.622238100538954 40 39 46
6.889225357086995 -4.53298917141075 26.622238100538954 40 39 46
7.153331075122179 -4.538418770176757 26.4398811099457 167 170 171
7.431289329801764 -5.6012432824852025 26.880177569697707 43 46 49
7.351892208904106 -4.86031448565209 26.44344711866127 32 35 38
6.368347319440725 3.4748920377054446 23.044160903595955 165 169 164
6.971897221885728 -0.15858238365209376 24.493316528007263 38 27 31
6.699454683164767 4.025578549697866 22.700984871184453 166 169 168
8.013035674899347 -4.115568828902993 25.90652349339945 27 30 31
8.03871560765593 -1.4538050148079746 24.994079099773163 21 24 25
8.328793240434038 -3.4165640927701104 25.772847916418385 31 31 35
7.478116115445273 2.5158971229780263 23.170281745792213 24 27 26
7.922294384061081 0.2833257150483654 24.012455043700445 24 27 28
8.019737899985362 0.765770587901083 24.10852229537771 165 168 167
7.859269657009745 4.646714698648572 22.114646876403185 25 25 29
7.859269657009745 4.646714698648572 22.114646876403185 25 25 29
9.153795331194472 -2.9139659718728477 25.460466260981566 167 170 171
9.759826268763351 -3.4883923556962744 25.599491734055878 33 32 32
9.61515620767314 1.1340950131587648 23.72306106997171 27 27 29
7.3200503191592645 -5.550676746932823 27.690202695561485 181 184 185
7.5878713519285235 -5.807350651029165 27.788537946038378 175 181 179
7.5878713519285235 -5.807350651029165 27.788537946038378 175 181 179
7.511781140308865 -4.894020914884447 27.387839158588324 171 179 178
10.455956059132367 -1.614087033704787 25.86872296038009 27 33 31
10.518156341601674 -0.12119159570364534 25.37163089632083 26 32 30
15.166881889544738 -5.437256314090599 26.76797058137876 27 28 24
-5.653368026721436 -2.6870307476222997 27.46446006813618 191 197 195
-5.212687173724078 -2.81546348783924 27.365805840371948 47 53 53
-5.212687173724078 -2.81546348783924 27.365805840371948 47 53 53
-4.287151714595448 1.1115085147356525 25.466278017287433 189 197 196
-4.254858775839974 -1.0802070069164942 26.46662774246689 40 46 44
-3.155015153961236 4.628987848538529 23.546017698329045 29 37 36
-2.3520731291704613 3.5874410087634008 24.230579564616495 32 35 36
0.4120025058801116 0.9126171078588865 24.760586517833534 189 195 195
1.5217354450636775 6.254718054396961 22.324453522485378 125 125 129
1.5217354450636775 6.254718054396961 22.324453522485378 125 125 129
1.7623605446668542 6.314764135779475 22.257575554951828 189 188 195
2.1663864668930004 6.305192246351772 22.2062841328614 130 129 133
2.746965495405526 6.2416534415578955 22.13218736882885 182 177 185
3.137375201618881 6.25645356427161 22.046097399578084 178 174 179
3.463920271604958 6.237138626279589 22.013566609160332 190 189 196
3.885259638782902 6.203965975016739 22.002827346660396 125 125 127
4.997334988561489 6.072255625439325 21.81481689568441 106 99 108
4.997334988561489 6.072255625439325 21.81481689568441 106 99 108
5.013658816685872 6.190122774691543 21.770758743612173 114 108 114
5.013658816685872 6.190122774691543 21.770758743612173 114 108 114
-2.282604158538017 5.319614825477554 22.474972853906635 186 189 190
-0.16801662257298827 -10.588289475489532 28.931019035560798 152 161 154
-3.3923023020250445 -0.2783186275992621 26.699638686683635 41 38 35
-2.507129976137167 -0.5745558547719455 26.64613853893272 29 35 33
1.250867878418582 3.949008198034041 24.00822406340891 34 37 40
1.6299863841285696 3.748586995632102 23.80997898451918 186 191 196
1.6797796206433813 4.04277746024791 23.755490741289403 48 47 56
2.236435554647816 3.7637361939342147 23.80705235630618 54 47 56
2.732227021549739 -1.457120006494336 24.50409436078426 184 192 191
3.0760953549842602 2.8015408757047107 22.794068769448405 31 31 33
4.272924432795873 -2.950074096648692 24.66499035669667 64 59 57
4.272924432795873 -2.950074096648692 24.66499035669667 64 59 57
4.354067689341644 1.4140773627765262 24.38373918880652 188 191 194
4.354067689341644 1.4140773627765262 24.38373918880652 188 191 194
4.548396307437704 1.9905126077697408 24.029904931799916 184 187 190
5.184126629928263 2.8655752470568188 23.623850847088413 29 32 31
5.6638584825686165 2.386932391925063 23.7856738505577 29 32 31
5.364203228716883 2.714970527156315 22.43014656799154 187 187 187
5.725609085841755 4.092890230625733 21.855405536390876 28 34 36
6.862825866441558 3.523683866462405 23.292265601499714 180 183 186
6.821246645483931 3.4970899765614347 23.13574494414918 188 191 192
6.395197110840528 4.14983935994488 21.716211371359528 36 36 38
6.660884566211282 3.652412183836976 21.79070256349773 37 36 40
7.2097822442648045 0.5336682486204278 22.922791692637855 30 30 30
7.8752934358815345 1.9529725439289964 22.2729947321867 29 32 35
-5.913099700071704 -11.47254311903868 32.29404785626932 119 119 119
-4.5500444608739805 -3.2355064920886702 28.054322837542585 61 61 61
-5.2158249841249065 -10.98422808557047 32.107758862009675 149 152 153
-4.960775418880958 -12.146678291991073 32.195532618127544 145 151 149
-2.7686209797186883 4.463456187965035 24.41022329554881 51 36 37
-3.0742871031537606 0.23678028730736175 26.400328139522482 44 37 29
-3.8932419066627495 -12.70442275153102 32.50437427201289 137 145 142
-2.5161051221515978 4.525345513039601 24.324259360514176 199 198 205
-2.2681083847217125 4.735861633530838 24.197586944403668 42 41 45
-3.4226741687763793 -12.849068995850715 32.57895964965329 149 156 150
-2.6885347241209177 -4.515810797378157 28.26249633349453 192 200 199
-2.6539688294630355 -5.078892035024985 28.505737037468048 74 70 73
-2.155919815961346 -1.0702522137863313 26.564641388077522 44 44 46
-2.710948176702725 -11.19699817899021 31.7066182704767 162 170 171
-2.771022918983892 -12.604401916302534 31.82625751382844 133 139 137
-1.6981324682380392 -12.54496249933599 31.90434891647319 137 145 144
-0.983120743876583 1.9022932367439 25.214481770520457 193 199 201
-1.204782669548604 -11.38581468802868 31.546130356051158 163 171 170
-1.1535729717085326 -11.25941223946126 31.613862377268767 156 164 163
-1.018331045953283 -12.330261855518415 32.12667343721929 140 148 147
-0.8503495306183713 -11.587882733905067 31.498456228208354 159 167 166
-0.6355922291209628 -11.92064163886019 31.378501984214196 106 112 110
-0.2610493874957417 -11.949931042271869 31.661011217580104 154 165 163
-0.2610493874957417 -11.949931042271869 31.661011217580104 154 165 163
0.20099517171608192 -12.44447025743212 31.807782675525814 140 148 145
0.29735746498150256 -10.776168403284387 30.82237591900712 185 188 189
0.36402884045997713 -13.048878840385992 31.95518225296952 124 128 121
0.36402884045997713 -13.048878840385992 31.95518225296952 124 128 121
0.4710745345765684 -11.07468998864967 30.9805400110496 168 179 177
0.5305092406004481 -1.870765793231173 26.3737251349175 195 203 204
0.57626187921891 -3.6815043706859893 27.235055686022605 195 203 202
0.7208083715942311 -10.96393673770148 30.871185906959322 115 121 121
0.9292986218677548 -1.4552861237221046 26.30717918048811 193 199 201
1.1835058372824085 0.07267548438407659 25.682616388969947 41 43 51
1.3975608473534364 -12.778502824392326 31.7123502336148 93 99 99
1.5070999679006856 -11.798009176970451 31.30066537232427 160 166 166
2.0556297795899066 -0.15488269889906825 25.57451878190298 185 193 194
1.9953232686937383 3.447003454068828 24.005106470471137 194 201 205
1.9934420927578154 3.451004427525655 23.98203417284993 191 194 197
2.1248016504065372 -0.6837297158091264 25.73489642679152 187 195 194
2.0239250854346325 4.357899212047424 23.50694154662514 187 190 193
3.126453854112589 -11.675928632805102 31.04977271126144 113 113 109
3.4378068368653962 -11.878659103151879 30.73347910489711 104 104 104
4.196937066886425 -12.532269018823376 31.06252222106435 98 101 102
3.2947671869945925 4.740878618827309 23.350112008835637 33 33 37
4.386261233724162 -11.947861946207592 30.573170700988534 96 99 98
4.521386021222626 -10.954680776271811 30.304711706570412 125 126 122
3.866117062513612 1.9511987803698825 24.30567946705237 45 34 38
5.105944749753237 -3.6112815590251706 26.593005270081097 54 60 60
4.7796459104117615 1.6278330573504494 24.303991948760235 181 187 189
5.047439134543125 -3.652002166305585 24.9451481493113 185 191 189
6.10363764114631 -4.637737348422955 26.949833456053955 54 61 65
7.01970513815465 -1.359489257894312 25.334166063707535 32 35 36
7.008824266986914 3.8464819851342904 22.96319288566944 38 37 41
8.134903342118761 -2.1824658127616283 25.4036672345431 195 201 201
8.085101172404238 0.035306407815961234 24.333719540350103 27 30 31
8.594047985967897 1.8015600298744303 23.611479754195027 187 187 189
8.891134657291989 1.454874222189921 23.691419709154207 34 33 35
9.9018308610429 -1.6170443393501275 24.661760444565473 35 38 39
-4.459076466068214 -5.517191388984368 28.76331244831705 61 72 70
-3.873580739512898 -1.7276509120226489 27.40074209584076 43 50 54
-3.442289008773673 -11.233449863854627 31.820955562152335 113 116 117
-3.3571253692189758 -12.25999213206814 32.273891654103295 108 114 114
-3.0598480185316075 -11.289523506700583 31.808534065403585 96 102 104
-3.0598480185316075 -11.289523506700583 31.808534065403585 96 102 104
-1.8265471190384093 -4.065021507352059 27.988314727031778 194 202 203
-1.84744046973176 -12.834399494406517 32.45552731605491 103 109 109
-0.34949490254188076 -2.650563390172793 27.05858482619727 48 54 56
-0.3496110576000829 -10.809134283521264 31.1723003696145 190 196 196
0.020219878683324952 -2.912155309638929 27.053947684523944 52 55 56
0.22009322988074462 -10.958061860090343 31.069785370711934 112 115 118
0.37062274104638443 -5.725159063229403 28.114079103350353 64 77 76
0.5440749241597825 -12.569630132304635 31.539986637577655 100 103 106
0.5773417613652467 -13.06870187119611 32.071138516235315 109 113 108
0.5834683814572302 -12.776343277724159 31.625128180898024 133 144 142
0.6407222293324685 -13.055462209087366 31.865668233509947 108 110 101
0.9503100230370284 -12.201915345491942 31.60318486525535 103 103 105
0.9950028801590326 -4.164686647221371 27.463978329361442 195 203 202
1.341970150094307 -11.69961278792705 31.208434774836714 154 162 159
1.7624437561572626 -12.748326065685776 31.094133242832818 131 139 140
2.651210407345834 -12.37269244897693 31.042792468746374 135 146 146
2.515447785374743 -0.05572284719815874 25.497419552812236 36 39 42
2.5997522277559106 -0.7614391974307912 25.72010417392393 40 46 46
3.3694927076971357 -11.670202482096222 30.93218282792799 103 105 111
3.3694927076971357 -11.670202482096222 30.93218282792799 103 105 111
3.6179426321423467 -10.993347426757829 30.393842685890075 163 171 170
3.946565919801355 -12.16081361805763 30.750906672321378 139 145 145
4.412239848832104 -12.000107320791479 30.736134227094464 96 99 98
6.140277111105774 -5.8820820525273065 27.37236320500125 56 62 64
6.140277111105774 -5.8820820525273065 27.37236320500125 56 62 64
7.53328418921919 -4.6718929723145495 26.61462348901499 59 61 69
8.17918047819997 -3.177545846212128 24.124009319675054 186 187 183
9.982869879415862 -1.708649066333062 24.7336867028638 36 39 40
14.82873972922862 -6.3491754096775015 26.68165815604354 36 36 36
1.5590559671917095 -0.7275665818533305 24.373716276706727 191 197 197
2.4597712429238667 -1.2015165456377521 24.39572423365503 44 44 46
3.973554122303702 -2.6851369619263226 24.78123628057971 183 191 192
5.364203228716883 2.714970527156315 22.43014656799154 187 187 187
7.237878693093624 -2.070490821194004 23.89956663857567 27 35 34
7.246639723404141 0.08511622863094244 23.107686652552086 182 182 182
7.932051073940061 -2.780595712624077 24.05676851092263 30 35 40
7.658472184808767 0.5019536811207903 22.945780716778938 183 182 182
9.369340834030556 -4.455431552911274 24.37013097063498 29 35 35
-1.646459576008231 -12.609551930753778 32.46773597896095 128 134 132
3.7950171539259876 -13.110447614653946 31.64520740087171 113 119 119
14.356434397505339 -5.656717502843063 26.015530297063236 27 27 29
-3.906103287448434 -1.2989392552841088 27.178160435016142 197 203 205
-3.8759174191996904 -3.370940853235345 28.464240035185576 42 47 52
-4.530074927040926 -11.451200623152294 32.0740247692575 124 127 128
-4.222272133971422 -10.989640057248025 31.895476538115695 162 170 169
-2.6620958209948697 -12.035718517949029 31.94812030386697 147 155 154
-1.2342787414323906 1.1270170719741746 25.87967465471433 42 38 41
-1.1972996288284503 -11.929484454335187 31.639759375952995 99 102 103
-0.3006623055709352 1.0549599247524992 25.025106493116063 39 39 35
-0.16013377355204098 -12.328533528905222 31.781584193453075 142 150 149
0.06440451427127801 -12.113897559621359 31.612222011398273 98 101 102
0.35134340150597027 -12.00803170668817 31.573541054033264 152 163 161
0.9505465534361525 -3.767702981356865 27.427363700987737 60 63 64
1.4432501836593121 -0.1424246520331771 25.677211867302653 192 198 198
1.4238441835547038 -1.034753839937786 26.04017676601759 192 199 203
1.7293163099494886 -0.7290493973243978 25.924736272452815 196 202 204
1.8816412001507747 -4.911514759646725 27.63940672984165 75 75 79
2.3929664476756836 -12.646322286061555 31.584443395792736 140 148 147
2.428219976857731 -11.39592755891529 30.403540347807276 121 127 127
2.4720015820645935 -10.956153879089003 30.647951626081763 177 183 183
2.7250887900742886 -11.868254218131634 30.84458025073208 96 99 102
3.839179483779282 -12.50900989765102 31.142296922823924 102 110 111
3.839179483779282 -12.50900989765102 31.142296922823924 102 110 111
4.093568956731466 2.003688853866515 24.338584385515855 187 195 196
4.507494724540659 -2.3174066872150623 26.199060009180076 43 48 53
4.450251258536299 1.198535706002733 24.568359797553658 39 38 40
4.99415535479411 -10.881873600890161 29.99761102218542 135 139 134
5.090910672716545 -11.338140185256629 30.370191564578345 178 188 191
5.855526750976822 -11.154566671227002 30.2637427279055 158 169 169
5.933138245114335 -11.667953378184325 30.389208698174038 96 96 96
5.8004123919054225 -4.342563679389663 26.734689132621146 192 200 199
6.72564473253829 -5.084053877109191 26.83599846591966 57 62 67
6.72564473253829 -5.084053877109191 26.83599846591966 57 62 67
6.6594830423385725 -1.2676764857763454 25.38534826103189 182 190 191
6.427049206960929 4.130032571961529 22.89253984566714 189 189 191
7.1935184464774995 3.6493251844886365 22.945962204836594 28 31 32
9.806764441260073 -1.4784539540447694 24.561519880575617 31 34 33
1.8876111440353822 3.7013871463618617 24.0215003344654 197 199 205
3.275672315047619 2.492353238972435 24.257816340262753 196 196 200
5.188681719166512 2.8219676307020043 23.536308597031177 32 35 36
5.188681719166512 2.8219676307020043 23.536308597031177 32 35 36
5.2315573865190235 2.4259151075144927 23.915729878052765 189 195 197
5.2315573865190235 2.4259151075144927 23.915729878052765 189 195 197
5.681783840284704 2.381416460793331 23.903404141892892 34 37 40
7.5779615878162785 2.7330229165930326 23.2243522621847 184 190 192
8.102643254955595 0.03193922914330114 24.411792559891992 32 35 38
8.070270726547928 0.4968979671771155 24.189175666277 182 188 188
8.070270726547928 0.4968979671771155 24.189175666277 182 188 188
-5.635482357054436 -4.73857355968176 29.532063851321297 47 55 52
-5.635482357054436 -4.73857355968176 29.532063851321297 47 55 52
9.986227615627786 -1.4835909876764442 24.57215042427204 26 32 30
-3.691797537743891 -0.5460633523037376 28.12892328708268 154 165 161
-1.9357861473146816 -1.0999162146477588 26.737693109660228 178 186 183
-0.5750209869468271 -0.22365165233044798 27.542668213539095 15 21 19
-0.5750209869468271 -0.22365165233044798 27.542668213539095 15 21 19
1.1756246798153611 -0.9640727493537622 27.025075002303872 22 28 28
2.125332863493203 -0.4283169594580784 26.19613272120878 133 151 147
2.125332863493203 -0.4283169594580784 26.19613272120878 133 151 147
2.609209033152915 -0.48565029542230403 26.13460464592358 18 27 20
2.9382843920552197 -1.2823867146319268 26.376842928227948 144 157 154
3.6666521155265714 -2.029540367967788 26.65753787664134 25 33 34
3.7904530923474127 -3.240693021853311 27.2679961827299 27 38 38
4.010388695680683 -3.071940321212195 26.94968415328978 35 41 41
4.347758318961872 -0.41526390872342334 25.560990706971506 13 21 18
4.839992827490249 -2.2825157488271164 26.39496239978402 151 162 158
4.839992827490249 -2.2825157488271164 26.39496239978402 151 162 158
4.839992827490249 -2.2825157488271164 26.39496239978402 151 162 158
4.841370169165865 -2.5570918328380907 26.430088388923984 25 36 34
4.841370169165865 -2.5570918328380907 26.430088388923984 25 36 34
5.0226465955095145 1.131028591550379 24.679684028142972 16 22 20
5.0226465955095145 1.131028591550379 24.679684028142972 16 22 20
5.129206161580738 -3.340171813836987 26.75038861374917 33 41 42
5.771653898742875 -1.3937254054693875 25.764669921975525 146 157 157
5.958244211583786 0.19410753546399725 24.862943013340445 18 24 22
5.958244211583786 0.19410753546399725 24.862943013340445 18 24 22
6.4784567115438945 -0.756297631656073 25.36633793900894 141 149 148
6.980118850321076 -4.611547103273453 26.861868147426836 44 46 52
6.980118850321076 -4.611547103273453 26.861868147426836 44 46 52
6.980118850321076 -4.611547103273453 26.861868147426836 44 46 52
7.125557711114959 -0.15900806411526966 24.94852633704794 29 25 30
7.2205547331450335 3.9026722834696717 22.978781881698932 17 21 16
7.707712871495889 -1.5011870142971477 25.182997111711416 170 173 172
7.707712871495889 -1.5011870142971477 25.182997111711416 170 173 172
8.184511248122671 -3.7112528079798284 26.157745651944957 171 177 175
8.445762066273302 -3.44765947310655 25.957688989814006 24 35 35
9.109530165401349 -3.3801332102317874 25.654186802126972 26 32 32
9.109530165401349 -3.3801332102317874 25.654186802126972 26 32 32
14.26089216839479 -4.852387355153913 25.735921683721386 26 23 20
2.4157142234368703 -4.944936707461629 28.023105189933315 161 169 166
2.623334547029018 -4.3518252179778605 27.776277031305955 43 53 56
4.7715979083064335 6.432294970012478 22.242631675759466 99 95 96
4.7715979083064335 6.432294970012478 22.242631675759466 99 95 96
5.171146396187629 6.417051433126008 22.182905487735823 86 80 82
-6.246191949913847 2.836982559292234 26.294012463199437 29 32 33
-4.739026452588474 2.8497412295603666 25.58626308283054 33 32 32
-4.021249418345993 3.6955174746728128 25.668768573231723 178 184 184
-3.982188893134253 5.412377519453142 26.105606685085455 20 26 26
-3.901460563879926 5.194365561004776 26.396087724083046 36 25 18
-3.1688681970907693 4.40981253678873 25.036149501597137 176 184 183
-3.1688681970907693 4.40981253678873 25.036149501597137 176 184 183
-3.148868290556615 4.4727959508112285 24.33208248618117 30 27 24
-3.148868290556615 4.4727959508112285 24.33208248618117 30 27 24
-2.894578690739337 5.216652749154752 26.02876962516646 164 170 172
-2.546686173880792 4.747136419617542 24.036264550781056 180 180 182
-2.3125982456304923 4.961579261581806 24.010523253044173 31 34 33
0.13859977400469717 6.560212052449855 22.76871154841352 174 177 178
2.0301600734016128 6.896144425899757 22.972423584201525 162 168 170
2.244891659542518 6.753974145597524 23.07353552351024 82 82 84
2.244891659542518 6.753974145597524 23.07353552351024 82 82 84
3.3062509961893176 5.130749061253983 23.677298152473668 15 21 19
3.7421956900736513 6.6281741789950095 22.64690970010714 155 161 163
-6.49052738540267 3.9042283361807697 26.259663211727272 29 35 35
-3.4766687438680077 4.7324685727880995 24.961352279121346 177 183 183
-2.8453204580645797 4.6771352499534045 24.758535616029217 173 184 182
-0.5397644086160378 4.617196284836988 24.34044049200892 19 25 23
1.3598703591411594 3.8397038803566303 24.248488530092907 22 25 24
1.4071090532348627 4.709805336298917 23.79532704232082 164 170 168
1.6561686461199103 4.129290807383787 23.949188966073606 163 171 170
1.70664434734795 4.414765247194689 23.818039238579395 35 38 37
1.760037517452596 3.8867301394748615 24.00376459520144 39 42 43
1.760037517452596 3.8867301394748615 24.00376459520144 39 42 43
2.0437598990544514 4.712967733223348 23.518991020972102 157 163 161
2.420533710418695 4.815981199465951 23.536463710803105 26 26 26
4.823122846035341 1.9705007882831702 24.281097647728764 153 159 157
5.02383519091181 6.478331850959509 22.160674105328965 159 159 159
6.04851302610732 3.545743520896567 23.303573352065115 20 23 22
6.04851302610732 3.545743520896567 23.303573352065115 20 23 22
6.039089106745858 4.596641463621486 22.845608672573334 20 23 22
6.476498352355637 3.6120828971711845 23.200515577095672 160 161 157
6.4548925282589265 4.455518110886835 22.824142055651116 160 160 160
6.608764320393422 4.021312964025297 23.002221818939308 160 160 160
6.608764320393422 4.021312964025297 23.002221818939308 160 160 160
6.727652980749361 3.646342880691587 23.14274469050353 29 29 33
6.727652980749361 3.646342880691587 23.14274469050353 29 29 33
7.123823432749894 3.560858536797494 23.081360457569016 17 20 19
7.325893102289844 4.6472453901811335 22.602669218388186 26 26 26
7.325893102289844 4.6472453901811335 22.602669218388186 26 26 26
8.337685388951249 1.8874333090634245 23.620392395332644 18 21 20
9.612316941815834 1.1879056753076562 23.482308663648013 18 21 20
-3.4440880320519 0.02321870685525562 26.59176512807988 178 184 184
-3.0742871031537606 0.23678028730736175 26.400328139522482 44 37 29
-2.7772105765158575 0.27126540342553185 27.63999326309186 34 33 33
-2.7772105765158575 0.27126540342553185 27.63999326309186 34 33 33
-1.2556025904474393 -1.8586287107647492 27.223625479634336 35 38 39
-0.9156596268028007 -2.1382534598754246 27.119236094913816 147 162 159
-0.06109621271776428 -2.695506710546748 27.75628886118466 29 40 40
-0.018327142652975345 -2.9556978166690833 27.19536378394651 176 184 181
0.9469400854656594 -3.9705526598684915 28.140853535577204 156 169 164
1.3913977296187938 -0.7875291495399109 25.909015404404045 173 181 178
1.2151913437759243 -4.282701980105375 27.961988801195076 67 75 76
1.638699607176601 -0.5057804827425698 25.935335973530158 138 156 152
1.638699607176601 -0.5057804827425698 25.935335973530158 138 156 152
1.638699607176601 -0.5057804827425698 25.935335973530158 138 156 152
1.5721721106286566 -4.978088257602326 28.410039816057257 160 168 167
1.8464504774527202 -4.666562437425944 27.659482414899347 72 75 78
1.9777761165744927 -2.552431035317174 27.152995214918892 17 28 24
2.1271168721550513 -4.465898241968764 27.945153185817 154 167 164
2.1600207783685916 -4.7531263798221355 28.006988509205947 58 69 69
2.986514412432391 -3.5450275122347628 27.170859363781187 36 47 47
2.9936685416939794 -4.003716399871019 27.396567629617046 156 169 166
3.1163315791254727 -3.7013612293010816 27.219216239092454 36 44 43
3.1163315791254727 -3.7013612293010816 27.219216239092454 36 44 43
3.2925744121736606 -3.9053870612274153 27.353001441116536 43 45 51
3.3835066259579727 -3.560075946584284 27.233644067487287 151 164 161
4.596355967323401 -2.891834453774263 26.52876437267613 52 52 56
5.361217673213691 -5.829358748872982 27.429145091165495 57 65 64
6.3867707946866075 -4.611116892850041 27.009472678713557 167 173 173
6.740609807525588 -4.856284847789913 26.9875193999477 45 48 49
6.9567359664858595 -5.510678088183365 27.308040005068772 168 174 172
6.9567359664858595 -5.510678088183365 27.308040005068772 168 174 172
6.976822165726492 -4.941047765622842 27.001488503273695 169 177 176
6.989849664022524 -4.431045159862649 26.845303620086582 35 41 39
7.267857177705485 -4.926379642763855 26.979249387132032 44 43 50
7.301481079649838 -4.634389126922809 26.82669407902754 170 176 174
7.301481079649838 -4.634389126922809 26.82669407902754 170 176 174
7.363899785440103 -5.164380780579654 27.020179004220484 169 175 175
7.520331979247063 -4.934728506594701 26.819022055548558 32 43 43
7.570046229347353 -5.695192479863817 27.189107067712044 50 53 54
8.6138004886004 -2.5013538367463313 25.611769676731022 167 173 171
14.93378902667469 -4.616147691548385 25.645752939395116 25 29 24
-6.277357919476242 1.5985493227626533 26.68534682355317 38 37 39
-4.455924079505576 1.2592679467330512 26.28650982933326 180 183 182
-4.462081911108269 1.2623604916527824 26.309690675333684 185 185 185
-3.949061001444476 0.7984017427687014 26.186608303916667 180 180 180
-3.476389627800493 0.4380513494364444 26.648925603361963 27 33 31
-3.454554069860468 0.4115120910496695 26.272788895744846 27 30 29
-2.7814376790091164 0.2991559851630608 26.20100095513783 177 185 184
-2.785512213116341 -0.3177685786702335 26.533490449152264 36 36 40
-1.5287277248456936 1.1258687932412064 25.604076972260067 177 185 182
-1.2845956548561994 1.369898909225223 25.60755749533009 33 32 32
0.09065213927380215 2.1244043381668978 25.030527260343526 31 31 31
1.4118379815688822 0.09746287557551664 25.464099558935757 168 176 175
1.7187674012144811 0.28021467061268196 25.414671905018217 24 28 23
1.6878918925492419 -0.48923061050440625 25.8700781346671 164 170 168
1.7652239547599273 -0.15689034766519336 25.747573580569487 167 180 177
2.0197066648273987 -0.2217853131277592 25.518303739663157 37 37 37
2.0197066648273987 -0.2217853131277592 25.518303739663157 37 37 37
2.3050801504627345 -0.5159904040779711 25.60983602427503 37 36 36
2.345519416877621 -0.22713860775104971 25.4632106495205 162 170 167
2.3648003189336775 -0.796636467297939 25.692013312346624 164 172 169
2.4836233626457487 0.18728980065823675 25.301347830778507 26 32 30
4.080261369708135 -2.425271093379821 26.276580126454924 187 190 191
4.804465216183552 -3.013479450214164 26.46613364930176 179 185 185
4.778914833191367 -2.2878385390211426 25.96003995306772 163 171 168
7.305991576209337 -0.031018016289993046 24.602558228078472 20 23 22
-4.803333398251937 -1.8290473164444818 27.765719824110597 23 29 29
-0.9759602646732158 -2.3454843047330236 27.245063452921556 167 170 169
-0.478312727102165 -0.24791716875566822 26.15501757567031 21 27 25
-0.32980712647621163 -2.720253001988215 27.548476818660028 55 63 62
0.548821771348104 -3.444127376440175 27.229555682655366 178 184 182
0.8536785007809592 0.6065988609549935 25.575341556659442 164 170 170
2.078291387777383 -0.4663571853260529 25.903342621524626 169 180 180
2.078291387777383 -0.4663571853260529 25.903342621524626 169 180 180
2.3541270048513536 -0.8059056726660747 25.93846040269725 167 175 172
14.44561573595843 -6.394004896464185 26.36737955358482 32 38 36
-7.971175115089233 6.908852224651342 24.319785247299787 195 194 194
-6.4175130485175 6.897070876340065 23.89925081163878 133 127 129
-6.295621931066819 6.931347758282144 23.84164272697837 179 175 178
