ply
format ascii 1.0
element vertex 684
property float x
property float y
property float z
property uchar red
property uchar green
property uchar blue
end_header
0.2606614117665894 -1.2750769941480524 -0.05404998425681426 106 86 88
0.2667992629430472 -0.7825083258793817 -0.21312141476044538 198 173 166
0.2707295641060618 -1.266326828643276 -0.05864407598605087 94 83 89
0.2786392078917201 -0.7412209225042753 -0.22630772621221137 229 201 200
0.27890166536770833 -0.7089245212760034 -0.23546220328569634 215 194 191
0.27890166536770833 -0.7089245212760034 -0.23546220328569634 215 194 191
0.2792289618227032 -0.8706489986383462 -0.18568211168023707 98 82 82
0.2788522622030504 -1.1821048181865945 -0.08576224030541688 96 96 98
0.3035836764811847 -0.7880831076038551 -0.21352390670832694 112 85 90
0.3129405894119131 -0.8289808496370288 -0.2008785412199961 84 65 69
0.3300256646023869 -1.1666747942563194 -0.08808801159477204 124 95 100
0.2770370285830519 -1.6712486837085636 0.38997087546822606 108 97 101
0.28528413427037536 -1.6308691858893831 0.3782359890146645 251 252 246
0.28528413427037536 -1.6308691858893831 0.3782359890146645 251 252 246
0.28736391294241276 -1.6716830378561918 0.3905827740769285 92 90 93
0.2921814006500152 -1.6311585518467266 0.37701387416761667 249 245 242
0.29666868584413625 -1.6256709796773716 0.37369311210359035 102 93 96
0.30150939585543035 -1.629806985332299 0.3748651381893144 240 242 221
0.37575380347951415 -0.5364769294445005 -0.29298878364808906 93 71 73
0.31401674480992453 -1.617083301717605 0.37202884835530364 128 89 107
0.33221405337962917 -1.663107946843275 0.3847214724308246 93 91 96
0.4780667082034917 -0.4630961861904956 -0.3085401201293789 72 58 55
0.4894995492524911 -0.6841228191577695 -0.2512911532784884 74 68 70
0.5417764904240997 -0.7989025327502652 -0.22117578673540483 74 70 67
0.5501389597125972 -0.7934920165164674 -0.22228531344874664 211 192 186
0.543142074924838 -0.4932478499141959 -0.31367675811269013 64 68 71
0.5627063344062503 -0.6717658429738508 -0.25991656185098505 211 190 185
0.5627063344062503 -0.6717658429738508 -0.25991656185098505 211 190 185
0.5672578675222564 -0.7357745805723578 -0.24204985902272436 210 206 205
0.5983394120172828 -0.7737709278502517 -0.23010831024556289 84 69 66
0.6728665484432905 -0.6089167108859298 -0.28495335995613835 176 179 172
0.685067331153055 -0.6001027045397945 -0.2879017298716277 206 197 200
0.68541920647576 -0.5729646043662678 -0.2968005391908492 218 203 200
0.7242194979786009 -0.600910980695492 -0.29047585917954044 205 195 185
0.7924456916362678 -1.239683608671615 -0.088976710526362 101 82 84
0.8007345721792894 -0.8484850588315686 -0.21800323494444096 75 54 53
0.8001291984278602 -0.7514839238173245 -0.24921066178132173 89 73 74
0.8085588180808213 -0.6563166747898408 -0.27946798789218774 96 75 74
0.8178539755373622 -0.7435399707589078 -0.25129990272519376 80 58 61
0.8178539755373622 -0.7435399707589078 -0.25129990272519376 80 58 61
0.8587478416498372 -0.7266626875996074 -0.26055276867132204 91 61 63
0.8681616766048875 -0.7796697422948794 -0.2422947843636031 193 186 180
0.8684308838430256 -0.7235340040757827 -0.26207345566304446 190 172 172
0.8865227500304911 -0.726336964821844 -0.2593102094697455 64 64 64
1.0789785428436856 -0.7203419849443088 -0.2723936680978215 70 60 61
1.1904630528476758 -0.6246668633946479 -0.3134915501830804 222 215 199
-2.3758955754852358 -0.7237380026059244 -0.13386734741421827 104 72 75
-2.1733089788735303 -0.7337758310000593 -0.1175412142017097 118 83 87
-2.1767634140532817 -0.7731983706045062 -0.10424893091901832 107 81 80
-2.1767634140532817 -0.7731983706045062 -0.10424893091901832 107 81 80
-2.1503829092544415 -0.9227082236903931 -0.05734447332910135 84 76 74
-2.1518671429634972 -0.9385924583378586 -0.052650453015292906 94 85 86
-2.1518671429634972 -0.9385924583378586 -0.052650453015292906 94 85 86
-2.148013403947795 -0.9338488863995356 -0.0543995439049217 211 201 200
-2.1402135720712705 -0.8817368223311766 -0.06914783487056061 109 83 82
-2.1616665765655148 -1.1010270676953826 7.697930445351395e-05 96 87 92
-2.1424904529519337 -1.230086492207196 0.040692164995793895 127 98 102
-2.017175751249409 -0.5929707751899425 -0.16005653173794587 113 90 96
-2.017175751249409 -0.5929707751899425 -0.16005653173794587 113 90 96
-2.002071744587697 -0.6096239332437202 -0.1553373656498163 92 76 79
-1.9851357130542027 -0.5594135055749027 -0.17130646623646756 108 88 89
-1.962546240200061 -0.5978241761337741 -0.16177955236609487 212 183 185
-1.9354983290078867 -0.6024335709839092 -0.16059174762489456 98 74 74
-1.8706161925711209 -0.6780039752219326 -0.13958625781090114 98 93 97
-1.8435064449329124 -0.7113091744012643 -0.13207607584929307 100 68 73
-1.812004731814318 -0.7280855075212892 -0.1296127101618597 90 74 77
-1.5614032064316616 -0.6822109959603321 -0.15904811886625184 59 55 52
-1.4502598007066223 -0.735336181716889 -0.2992144079117927 103 81 84
-1.4425279750555011 -0.7354105169718789 -0.2994127392978582 93 72 77
-1.4425279750555011 -0.7354105169718789 -0.2994127392978582 93 72 77
-1.441467086023623 -0.7314170460888063 -0.30087280083993767 197 181 181
-1.4404769736217065 -0.743725115554437 -0.29723659611456715 82 71 69
-1.4164954807285046 -0.741155047043498 -0.2989797675820863 202 180 169
-1.3280510589474295 -0.6939480088952092 -0.3201069511444464 81 53 50
-1.1969291163430378 -0.6619845058777368 -0.3381145338545727 105 86 92
-1.1969291163430378 -0.6619845058777368 -0.3381145338545727 105 86 92
-0.9781949309366706 -1.1699294938626434 -0.19456519196968589 104 84 93
-0.9546149328728708 -1.0503468146346444 -0.23438135164671872 89 69 71
-0.9162972243291496 -1.1104843021360218 -0.21752102283433128 110 79 87
-0.8806696454980957 -1.0448024754648866 -0.24088597640440623 77 61 62
-0.8806696454980957 -1.0448024754648866 -0.24088597640440623 77 61 62
-0.6613307931207255 -0.7850064174271478 -0.34111663655029006 231 209 195
-1.150856005347388 -0.07771387982948999 1.4725680586932184 78 69 62
-1.1832220466411891 -0.094740975866455 1.4778726846936172 91 76 71
-0.5368598571019612 -1.147724513826708 -0.2118806596602507 97 75 77
-0.1553849308933772 -0.7564622720709989 -0.3508388071777 215 196 189
-0.14402488734513885 -0.7602433194483581 -0.35114720424771206 95 66 71
0.042323150435800636 -1.0941154915459432 -0.10325111999400462 84 69 74
0.07339676307360515 -1.009222843908356 -0.13220667627966792 90 76 76
0.07339676307360515 -1.009222843908356 -0.13220667627966792 90 76 76
0.22683316684834037 -1.1650941273131725 -0.088809559975279 91 72 76
0.25749564588100987 -1.695426612925713 0.4012158598412717 242 242 232
0.2681019537173585 -1.7187246149977955 0.40899294863040453 97 85 95
0.27162157706164114 -1.7051265412814633 0.40319049783363103 250 249 244
0.25291336675553094 -0.786370186845012 -0.21043543880065851 74 59 56
0.2914304307604044 -1.6329188934482894 0.3801711080689776 238 244 234
0.6053278858097829 -0.839133384671646 -0.2095130295292475 91 67 65
0.6538245543668431 -0.993644885323683 -0.16603618876275664 82 69 60
0.7566681851885343 -0.9572413519522281 -0.1823937323878021 71 57 57
0.7912552577430945 -0.8982859201224309 -0.19965215878437673 93 83 82
0.8213544245818499 -0.9454391682992886 -0.18753456560625484 211 197 188
0.8268222004470069 -0.8898782961529543 -0.20569570065117754 80 60 62
0.8270469758456857 -0.8238651860866556 -0.22647550145795556 70 50 51
0.8388822498140279 -0.9360544942940596 -0.19148581622060196 199 188 186
0.8431974166963525 -0.9072037113386956 -0.2007798683812569 97 72 76
0.8522761313693693 -0.8897085293650259 -0.2063362793805362 94 90 91
0.8497296733760025 -0.7712992166865542 -0.243333138246632 195 175 168
0.8497296733760025 -0.7712992166865542 -0.243333138246632 195 175 168
0.8611475978510629 -0.8238233553398685 -0.22766157516915891 61 50 48
0.8702698866952099 -0.9160893930038514 -0.19895991854399775 86 77 78
0.8683015552137019 -0.7992606616045818 -0.2353743720416361 89 67 69
0.8735024250808147 -0.8029944494820638 -0.2348216213371385 215 197 193
0.8756803613479167 -0.8234085487137318 -0.22786304867155263 59 53 55
0.8965064066959512 -0.6915884588754752 -0.2789855851357234 198 181 174
0.9137516302065495 -0.8917736231739383 -0.20708658040117073 72 56 56
1.165653576161972 -0.7216655745460905 -0.316796430317643 78 59 63
1.1792280899018628 -0.7618293646294275 -0.26409206253628376 68 60 71
1.219338968171818 -0.7582683065005216 -0.2682324601166351 183 178 172
-0.10108252430502725 -0.7513618100953752 -0.34706349922105606 41 42 37
-0.09745542702342617 -0.7882046466537307 -0.2921047369769335 65 65 63
-0.09662112300547088 -0.7762166701904352 -0.2792691089083675 50 42 40
1.234743029847192 -0.8172532179305092 -0.17228197752353824 137 97 98
1.2348116695011246 -0.7092117321333242 -0.16647670491389868 144 115 120
1.2340762700792118 -0.15394293229464975 -0.09833217620363774 125 104 99
1.0705838443149915 -0.19254483156188293 0.024005804481329704 227 222 203
1.1403597080053522 -0.1912953134619149 -0.0010610975874134677 47 49 44
1.2667944928582524 -0.03190301207277033 0.34115073554652303 65 40 44
1.2661230392433653 0.0500067761201619 0.32926088132073555 41 40 36
1.6542798660462907 0.21047505450210452 0.3847887904490574 31 79 115
1.6220889947795973 0.23572557927100832 0.499606700606914 219 223 232
1.5684082459355637 0.38379466699438797 0.6450349025474571 133 141 104
1.2456982323829482 -0.7799702727422706 -0.02431939780468477 98 75 69
1.2410896957149493 -0.3570262891335229 -0.14897418806288248 87 71 71
1.2439038238535987 -0.6231654849975393 -0.06430883451856655 62 47 50
1.2462361173431127 -0.6096336157873008 -0.021826741652585406 54 47 41
-1.2910574887166826 -0.8246703292740657 -0.3103042264588029 71 46 52
-1.254821108967554 -0.870841810917122 -0.28981622900024734 205 182 168
-0.9711180663650092 -1.0417681026099714 -0.22524321444307466 106 79 84
-0.8407396366134735 -0.4534405096117193 -0.3861745932180098 141 144 133
-0.9443269667843476 -1.2014357854501618 -0.17377548743981347 219 208 202
-0.9375938335740193 -1.1968566797433398 -0.176090620185967 123 97 106
-0.9325508396052196 -1.2220843523450255 -0.16766703217587756 115 100 95
-0.9315767940456228 -1.2390557617578941 -0.16374160524728418 97 88 91
-0.9272215822901319 -1.2141219087792832 -0.16875219612374942 115 98 108
-0.9101049357529217 -1.1969752453815365 -0.17575672276311877 112 82 92
-0.9137486390066054 -1.2389123833744238 -0.16266835951280587 125 104 101
-0.8887156580587771 -1.2143409031629557 -0.17034147503120814 115 86 91
-0.8887156580587771 -1.2143409031629557 -0.17034147503120814 115 86 91
-0.8975611844826461 -1.27415387146477 -0.1527510333132611 104 89 92
-0.8975611844826461 -1.27415387146477 -0.1527510333132611 104 89 92
-0.8947434938286346 -1.2656860974507336 -0.15516427687684356 115 93 95
-0.5716012123903392 -0.7335479365891109 -0.33111218920477176 99 72 77
-0.5716012123903392 -0.7335479365891109 -0.33111218920477176 99 72 77
-0.5654485300298271 -0.7258772642308126 -0.3362214526590217 112 81 76
-0.5148223045984226 -0.6922874601510187 -0.3494761858449988 97 99 98
-0.5531180952579238 -1.6288922787739932 -0.0573504885053664 93 77 80
-0.23572762189689808 -0.7390601549173182 -0.35325592006188733 221 204 194
-0.2314235776801712 -0.7503429036014665 -0.3506361436238533 76 62 61
-0.2247330725060787 -0.7112547779558555 -0.36312480377259854 88 87 82
-0.20265948341079973 -0.7320724013926452 -0.3577058766403443 232 220 208
-0.19014363292456185 -0.7796804929951406 -0.34476848960000767 235 205 203
-0.1807478436559704 -0.7945187843147017 -0.33916765548463673 104 76 73
-0.1514903976243564 -0.7597287943405153 -0.352671273029624 88 72 73
-0.13481970417930644 -0.737104482554622 -0.3610834675656801 94 75 69
0.26854781891308377 -0.7053019242218768 -0.23972361006386195 111 85 84
0.2755371794179238 -0.7249467829416884 -0.23364807446257216 210 191 177
0.29283309245086037 -0.9313904638907419 -0.17290148994943963 219 203 190
0.5615180826985035 -0.6763371696081877 -0.2561950889209647 100 70 78
0.8048606755707701 -0.7545508115831608 -0.2485912669612266 205 186 182
0.8194386885453557 -0.8043889969744061 -0.23347051251421783 208 200 198
1.156168983075648 -0.8224242282551422 -0.2499005897454542 219 201 189
-0.96574644233288 -0.7791235956872778 -0.3142463847026356 125 105 104
-0.9039047626977476 -0.7377623079512917 -0.32084815621221335 96 85 89
-0.8901018469059968 -0.7718642523939525 -0.31118778615547554 98 79 83
-0.7940325396401324 -1.0108566793854603 -0.24230918567679996 112 108 107
-0.6191027919988117 -1.1985972529461604 -0.18647729533501928 128 107 116
-0.5705875755252219 -1.2072637142379408 -0.18815031901869655 135 133 136
1.13756063291812 -0.8496068025894189 -0.2681522001607453 108 79 75
1.1571757836787957 -0.8422127349993297 -0.275810308126599 96 90 94
-0.93239995782956 -0.9292147482776424 -0.26052904179369557 95 66 70
-0.879604133380402 -1.0267749532861505 -0.23348699572596018 111 88 94
-0.35281585256197234 -1.0138375674555964 -0.26819192003754566 112 86 89
-0.21937980404921634 -0.9275401716667782 -0.2957704482552081 106 94 96
-0.1876590997966217 -0.7232518844268474 -0.3611827417583951 219 210 205
-0.2045533846069572 -1.0833522145462462 -0.2500459999643732 119 102 108
-0.16975899060880126 -0.7113522586738882 -0.36460624104998346 91 78 85
-0.1797051493992553 -0.9360344833237302 -0.2963780222513515 98 71 78
-0.1797051493992553 -0.9360344833237302 -0.2963780222513515 98 71 78
-0.15969613028343238 -0.8175807870459303 -0.3323820696694307 111 86 81
-0.12155043736971631 -0.7204926565889739 -0.36375429468376497 86 59 66
-0.09891998435041265 -0.9779481504897161 -0.2857792378634878 216 208 205
-0.031107481613040226 -0.800898330677699 -0.19413534018624556 67 48 50
-0.03440798326093067 -1.0080585091443246 -0.1287586629702349 61 50 46
-0.0031699447467886774 -1.0180724808640276 -0.12599708909676094 79 65 64
0.007171252529320745 -1.0770959974564294 -0.1094822351113284 108 81 88
0.243462328052961 -0.9203665725035091 -0.16880476231033678 80 64 64
0.2683091666016475 -0.7324051012318559 -0.22905906905920004 212 194 192
0.2851418112322086 -0.7123793604944643 -0.2353753092835483 91 69 72
0.3011578074803299 -1.7619566116161058 0.41689124724180493 86 76 85
0.30264840438663854 -1.8306248052027498 0.4384819242570138 255 255 243
0.37198466202205993 -0.6096797592070697 -0.27149460412310933 113 92 87
0.511062867685656 -0.7439720211109452 -0.2366099395005988 187 174 168
0.549347327519485 -1.1959410256717322 -0.09576972930829604 110 81 83
0.5619749527483545 -0.7895386869638087 -0.22475742794089548 100 73 78
0.5619749527483545 -0.7895386869638087 -0.22475742794089548 100 73 78
0.5934814948075066 -1.144094447585475 -0.11472721002773056 208 193 188
0.593654366694803 -0.7485330952334753 -0.23955915380766285 83 79 78
0.6302884276347949 -0.5526225951432737 -0.2986692241042654 118 83 89
0.6983241586774168 -0.6132250380291873 -0.286966299110543 211 209 196
0.6993130545165979 -0.5744772757054707 -0.29858238974399 204 194 184
0.7403089160533576 -0.5372529480903093 -0.30940051287867937 107 81 82
0.8630956029838778 -0.767872599446259 -0.2530861037091785 89 68 67
0.8952759249122015 -0.7838162381289469 -0.24098028295493032 91 71 73
0.9151888948995269 -0.610071073133078 -0.29602300925083486 205 178 183
1.08072815077481 -0.7200833604818379 -0.2702910573527191 76 65 73
-0.3990023840864949 -0.6690772895724962 -0.36878706140720713 101 69 74
0.7301047102554498 -0.6086960058447 -0.2891789950484783 189 188 183
0.8205295791029015 -0.7432611557794452 -0.2547594414172609 84 58 67
0.861216753043039 -0.7501391889647648 -0.2558836800346474 84 75 80
0.862030507168583 -0.7261998781243615 -0.26154074116349435 90 61 63
0.889639847716456 -0.7918726926377955 -0.24451479545990404 109 79 77
-0.5389803812774292 -0.7482563070311141 -0.3301682299326927 77 68 69
-0.5389803812774292 -0.7482563070311141 -0.3301682299326927 77 68 69
-0.2913812832945582 -0.7113868588066091 -0.3599929888315923 94 67 74
-0.2220372967061001 -0.7551153077049192 -0.35091964930035435 225 204 199
-0.18364666183939057 -0.7355413594087147 -0.3594464837178476 74 61 68
-0.15881549324500696 -0.7596618905438307 -0.35385271099627563 95 58 65
0.002972088129188885 -0.7848773436303922 -0.20312746983521232 70 59 57
0.02199303746237516 -0.7554281243760266 -0.2128859089502065 200 186 183
-2.4115404767754827 -1.0100178120139518 -0.1178186675089313 199 199 197
-2.19572599783158 -1.0182757348557328 -0.09498682584324261 187 193 189
-1.8991155040062264 -1.2587031785159821 0.029728411020071302 191 196 192
-1.3747350809668362 -1.0111033208859321 -0.2324288695468999 96 78 76
-1.3747350809668362 -1.0111033208859321 -0.2324288695468999 96 78 76
-1.3814628601513317 -1.0281330258345376 -0.22398091321644112 84 72 72
-1.3814628601513317 -1.0281330258345376 -0.22398091321644112 84 72 72
-1.3519252087503448 -1.0866863980943449 -0.20723398961869727 115 97 95
-1.3166584573078621 -1.0870654501432675 -0.2072143742541222 98 93 90
-1.238888349849131 -1.066585581787803 -0.20804203838129084 69 68 66
-1.2341302500079034 -1.0763147537999431 -0.20586114627341692 192 196 195
-1.2010883422908631 -1.0661359914814597 -0.21406205936329975 94 89 85
-1.23404262533116 -1.1904685507451696 -0.14471968422844753 78 73 70
-1.1006416756212953 -1.0703968546372908 -0.20645039907399895 69 68 64
-1.0619590071874458 -1.1090902750198337 -0.19689056917336326 107 88 92
-0.9971923125863981 -1.21598267379779 -0.15900848401207002 105 97 94
-0.9499095054105458 -1.1706233457501183 -0.17725992848692565 92 77 74
-0.9639256808589379 -1.1990688150953424 -0.16305712840184408 95 85 83
-0.8799920984308955 -1.5990870295058266 -0.038655485011219196 73 73 75
-0.8750470462030331 -1.696150218556523 -0.011641982730291872 61 60 58
-0.8728411610320763 -1.73722205637352 -0.0009494891067310042 72 69 62
-0.6222471630837095 -0.7247483646835029 -0.32832656675547733 92 68 68
-0.6254387055870205 -0.806828677006137 -0.30049588744884986 77 66 64
-0.7128981843640899 -1.7764244468227757 -0.0009466525383331454 153 152 147
-0.5058933613192637 -0.8244494976227373 -0.29641335073169717 75 63 65
-0.2831682678387409 -0.7765085976450231 -0.3221754412434587 65 51 48
-0.27753181085594303 -0.767833832147721 -0.32598369101541247 88 67 72
-0.2553026037663394 -0.7107906487422673 -0.34646902894717135 92 57 63
-0.25279416310622566 -0.7429178367609768 -0.34470938319538996 78 62 72
-0.25365494165318114 -0.739079683293636 -0.33573365837725294 207 188 182
-0.2431054740274448 -0.7593171810605419 -0.3290496315188872 96 67 71
-0.22164426643002447 -0.7759570252532476 -0.32755169884284907 70 61 64
-0.21984781437460202 -0.9212438057201614 -0.2752807902400423 74 49 52
-0.19347064349619947 -0.8353783533071473 -0.30742727751724136 79 68 64
-0.19347064349619947 -0.8353783533071473 -0.30742727751724136 79 68 64
-0.19388736134336224 -0.852115569345661 -0.3015231209941951 81 77 68
-0.18504163119602127 -0.8434055025440444 -0.30695904209222696 78 58 57
-0.16372707626296365 -0.7600634955175646 -0.3340969880692802 65 54 62
-0.16128810425037368 -0.7434560877578618 -0.33839691412481426 85 67 67
-0.1628188172054418 -0.7813329920459273 -0.32492216529169154 211 187 185
-0.12135554686869571 -0.7494387751095546 -0.33657291147234625 201 188 180
-0.09975010991132124 -0.868607334408421 -0.2842117144076963 73 48 44
-0.1128716223719084 -0.8714885931831255 -0.24908558625364405 62 40 42
0.045205679541920826 -0.7395448475992575 -0.20668123638694605 190 177 171
0.2454025561018514 -0.7916363496569025 -0.197821523058606 191 173 169
0.2604800225184162 -0.7374671977530287 -0.21729510897309604 77 61 64
0.27184341239013204 -0.8037121289470023 -0.197231553590839 69 58 62
0.28777085143306286 -0.7791939736466779 -0.20474920799621393 73 48 51
0.2933597021614567 -0.8118215390769659 -0.1999100857739559 98 76 78
0.3074643899307855 -0.796310898215833 -0.2045103798642504 101 70 78
0.3091243944506297 -0.8251281962538192 -0.19249765381294265 212 193 189
0.3209425043682844 -0.7959097261467374 -0.20080369485271646 80 50 58
0.32179690557408547 -0.8362103409373017 -0.186530902916211 85 59 58
0.5181149760463889 -0.8969617678923104 -0.18479868215290288 76 72 71
0.527944237672613 -0.7979467598987502 -0.21482274607383892 69 63 63
0.5369142992214601 -0.8218492975258969 -0.2105963832158605 88 63 66
0.5388678795113396 -0.9254703953627947 -0.17720770224848031 191 173 169
0.538515848407754 -0.9394757872028056 -0.17227947221237105 91 81 82
0.538515848407754 -0.9394757872028056 -0.17227947221237105 91 81 82
0.5476274167111185 -0.887366336994229 -0.1893838950503004 88 57 62
0.5532638423049407 -0.8143581293089783 -0.2132284940913345 108 79 81
0.5600887399109011 -0.8059549158705009 -0.21881504223197665 83 64 68
0.5709012291305486 -0.8545660787625244 -0.2008367039001005 73 64 67
0.5896244750958387 -0.8798795549366139 -0.19475304948717845 65 60 64
0.5885814020750095 -0.9315958530530958 -0.17751297077704617 90 61 66
0.5974620232658588 -0.9058782684639158 -0.18841007926977538 77 72 68
0.6016187426528188 -0.7983042292058472 -0.2213878703051427 91 65 66
0.6016187426528188 -0.7983042292058472 -0.2213878703051427 91 65 66
0.6076633442259799 -0.7901692093811549 -0.22438333935435978 99 71 70
0.6233057975741344 -0.8751163374868479 -0.19938655310515596 198 185 179
0.6255964686537026 -0.7898207056481544 -0.22270235218818638 65 42 48
0.6428836150578892 -0.9562314783489286 -0.17669676826787556 96 81 84
0.6428836150578892 -0.9562314783489286 -0.17669676826787556 96 81 84
0.7537348007627815 -0.9656945548530247 -0.17920344321743722 80 71 74
0.7537348007627815 -0.9656945548530247 -0.17920344321743722 80 71 74
0.7904143070730723 -0.8076002657671791 -0.22977921501251103 78 62 62
0.7956700989469183 -0.9663683351782186 -0.18257887088723562 96 80 83
0.8180972742013116 -0.8893847904427252 -0.2062356478870895 98 79 83
0.8261272681260224 -0.7349001443222007 -0.2569959300285329 79 57 60
0.8279051746317561 -0.8073266848113609 -0.23391069110522797 79 56 62
0.8268761827532234 -0.9341028241029905 -0.19472271684771358 77 53 53
0.8292297727521653 -0.9242257924532984 -0.1947426401126358 92 63 59
0.8354421247541092 -0.9326817435385301 -0.1941218745898515 85 70 75
0.8437020626816261 -0.9241112521272278 -0.19813765949891113 104 63 69
0.8437020626816261 -0.9241112521272278 -0.19813765949891113 104 63 69
0.8515034547861857 -0.7583362561961388 -0.24869272774967496 61 47 47
0.8528035627479854 -0.8239489958809202 -0.22965135392448477 92 65 74
0.8539082535968163 -0.8894815478964958 -0.20910814724925997 84 75 76
0.8720493928946761 -0.915880541690873 -0.20153785419226383 74 68 68
0.8828309943750262 -0.8988812343989262 -0.20833319392178754 58 46 46
0.8869703974325932 -0.8564174481918782 -0.2210322016493415 74 57 63
0.8895235931567164 -0.9073455550174101 -0.20546242851138194 86 62 62
0.9104990564525691 -0.8992615971985228 -0.20953581628628792 80 59 64
0.9153274247239738 -1.0467241508317886 -0.1612160549995868 57 42 45
0.9440243034272566 -0.9884794031248885 -0.1825173543260236 177 167 158
0.9632159214746275 -0.9911989466610293 -0.1820491118266324 66 54 58
1.0813862863708055 -0.9893766629218381 -0.19019317330103405 190 178 164
1.1000808295347435 -1.0188312838874596 -0.18060715958805562 80 68 70
1.145076274429799 -1.1305655992078767 -0.14548696112037607 87 57 65
1.1561151831600285 -1.1389400823259817 -0.14737558655289212 61 62 67
1.1622820629804917 -1.1598066575285657 -0.14076455850491013 185 170 165
1.1637096158265385 -1.1045907844643363 -0.15679908760556305 93 74 80
1.174867939540169 -1.1294062202709525 -0.15103552643635493 96 80 83
1.1897454215728438 -1.1529417497081476 -0.1436007174069424 180 180 172
1.224671425308266 -1.1059442107202415 -0.16257572232124284 78 66 70
1.2367313021122075 -1.0844854095843575 -0.1682332337552921 202 189 180
1.2562389327408396 -1.1133066149209199 -0.033133787679201304 255 252 242
1.251736127551009 -0.8766932500709541 -0.09038800572684562 130 114 117
0.5615481140210766 -0.8226262704593512 -0.21128848685251073 104 90 87
-2.783322614556021 -0.4118057961646612 0.26303607902501447 86 64 67
-2.7915955911257724 -0.7141078840185305 0.20407378430676087 74 59 56
-2.7915955911257724 -0.7141078840185305 0.20407378430676087 74 59 56
-2.79857178816666 -0.6351229617741045 -0.014716501720255752 71 63 60
-2.768347008891179 -0.7241811908750657 -0.10489440246845845 194 190 187
-2.747390092509302 -0.7574985937102587 -0.09367367589195688 235 206 211
-2.7350553958051025 -0.7295366853423031 -0.10130786109470787 94 74 73
-2.714750590223773 -0.7206146660983659 -0.10327302640502688 124 86 99
-2.709352843735113 -0.7291162561637973 -0.10340776595509363 90 74 84
-2.6887086983221815 -0.7461107039733976 -0.09442322688881243 99 78 87
-2.2867529119808303 -0.6077260706860131 -0.14936787085967476 103 81 84
-2.284432311264853 -0.6128890092533087 -0.14830323010526522 210 190 179
-1.8013608178990712 -0.670280272387836 -0.15717316227796022 111 80 86
-1.8013608178990712 -0.670280272387836 -0.15717316227796022 111 80 86
-1.649916466263571 -0.9878135083900527 -0.06552787061009188 127 103 101
-1.649916466263571 -0.9878135083900527 -0.06552787061009188 127 103 101
-1.4002030094703843 -0.9158348613362686 -0.24747079062923347 130 101 106
-1.3180416249145 -0.8093662861128683 -0.2856956527894977 101 82 84
-2.7352412442351794 -0.7938744888547918 -0.07933433924145311 105 86 88
-2.6465081698836186 -0.8849791649238724 -0.05028150504100442 121 88 97
-2.5398444614074154 -0.5873636217435834 -0.1461538145434702 112 82 82
-2.517504523354535 -0.5711215259138879 -0.15150194691350038 123 92 98
-2.0862903867272298 -0.7501080367902919 -0.11799475632849357 116 85 91
-1.7150077761080633 -0.9376604403564492 -0.07997112187345412 101 75 78
-1.4606620560710473 -0.8404417468141875 -0.270624630063383 114 93 90
-1.4027153764830445 -0.8556318795798955 -0.2690472539450333 97 85 87
-1.3980245716807804 -0.982925418246992 -0.23056435215034038 117 96 101
-1.3336203671880937 -0.8658218691489294 -0.2702494313473503 115 96 98
-1.303163853379899 -1.1333200975648834 -0.18750219816877817 127 106 113
-1.090778752884398 -0.8542033540345562 -0.2897738371481123 242 221 216
-2.0410403982297827 -0.9828194064755174 -0.04577172608743252 100 79 84
-1.4209332028779447 -0.8253174800220044 -0.2737419969963471 92 71 78
-1.3305970253725694 -0.797881357326979 -0.2873635609793666 220 214 214
-1.0772536766703311 -0.8353834563163177 -0.2942287818320094 109 77 82
-0.9652086179234308 -0.7460833569198848 -0.3289693854625852 97 81 84
1.0775538817919297 -0.06285023680814845 1.3729239721113922 174 155 140
0.7629911001565288 0.35957461602203994 1.2414694480935546 85 63 65
0.3387528759037483 0.07591391645786358 1.353984832584292 134 105 109
0.24285441115887854 -0.04902888430635433 1.3985544601495017 255 239 227
-0.012994222892107202 0.04265326041960063 1.4012019108251454 84 68 68
-2.7613396582316914 -0.23718920287015763 0.7612695815585884 66 59 66
-2.7642058603587754 -0.29285099854651686 0.7315627716310005 77 59 57
-2.7438882041873525 -0.19795911844459807 1.066084217917234 93 91 92
-2.757531940940663 -0.29683404297944876 0.8631219102380999 82 66 66
-2.7705952746528935 -0.16821131681753831 0.47923566685981983 87 81 83
-2.781762917757185 -0.5789634654073847 0.3784519442115288 67 57 58
-2.7576494334316344 -0.29914432413991693 0.7444706490679088 85 65 64
-2.7952622301025296 -0.9661218941753998 0.1627528624094003 76 62 61
-1.4874944476265628 -0.8861635460306708 -0.1568961682604272 55 44 42
-1.4873204175785046 -0.9500174483045969 -0.15384112033034988 71 50 59
-1.0113362927945648 -0.860191541564406 -0.2881542766231335 88 82 82
-0.9252476652765702 -0.9123574059386148 -0.2682029828412415 110 92 92
-0.9252476652765702 -0.9123574059386148 -0.2682029828412415 110 92 92
-0.9076868850541567 -0.9470181848280042 -0.25683844359126645 123 92 97
-0.9012127692438909 -0.8954956506089106 -0.2729915153649562 125 100 104
-0.8973745221284869 -0.8874599054795262 -0.27493949275374663 115 91 91
-0.8973745221284869 -0.8874599054795262 -0.27493949275374663 115 91 91
-0.8899658332977681 -1.0042759628859153 -0.2392774539090104 114 95 101
-0.8833882076752516 -1.0362135346759214 -0.2282166940660523 126 122 121
-0.8706459015343381 -1.0443825518931453 -0.22443290321855638 107 90 98
-0.8706459015343381 -1.0443825518931453 -0.22443290321855638 107 90 98
-0.872132398282121 -1.0644504878182686 -0.2187707904598965 248 242 228
-0.8628209938758422 -1.060883115362658 -0.2204970253833514 101 85 86
-0.8628209938758422 -1.060883115362658 -0.2204970253833514 101 85 86
0.1526138680969346 -0.9929219791390717 -0.1452572146632733 130 104 107
0.22752988344686975 -1.1646661602005317 -0.09286898384268415 119 92 99
0.2514520690681731 -0.9225254539374612 -0.1727250472146708 229 205 205
0.2514520690681731 -0.9225254539374612 -0.1727250472146708 229 205 205
0.3003619604423731 -1.1733835837170432 -0.09463668685304302 122 103 107
0.30217326442055314 -1.139869745836874 -0.10535077374837204 136 105 110
-1.1674672738753666 -1.0155770033034772 -0.23216214133726884 108 87 94
-0.7051547493802993 -0.8605583430854381 -0.29161408546435064 105 93 93
-0.6935307488251106 -0.9870176865492518 -0.2526947326512789 104 89 86
-0.6935307488251106 -0.9870176865492518 -0.2526947326512789 104 89 86
-0.6938082614990541 -1.0200366689221305 -0.24300171674299803 104 89 86
-0.6328084782374583 -0.9462986432061652 -0.2708965635752928 104 84 86
-0.6204033043066538 -0.8540527425291239 -0.2970178419562303 100 80 79
-0.6094853366829817 -0.8059067428021136 -0.3089829854933481 103 80 88
-0.6390586462907598 -1.010513713586624 -0.24629478580745545 111 99 101
-0.6406326923362687 -1.0610869514390944 -0.23406481675765703 112 103 104
-0.63200205534149 -1.0788141628628574 -0.22225502476232908 89 84 88
-0.6071832515882916 -0.9793962430703536 -0.2581822876421141 107 98 103
-0.5642742420857535 -1.0026475350151578 -0.25372168881366025 106 90 91
-0.580355017507294 -1.0541095402394032 -0.2306534316605626 133 105 102
-0.49338358017622 -0.7487273983035382 -0.32707312589658294 79 60 64
-0.5518478998330896 -1.1468951808949666 -0.20628980579574327 125 114 122
-0.5433894560281518 -1.14791965816118 -0.2027644905324954 113 95 95
-0.5382102932287647 -1.1472254233057957 -0.20703055276317778 111 94 100
-0.49310139490064975 -0.8151532485598928 -0.30387782139111524 84 70 67
-0.46348371678125616 -0.6956663081850979 -0.3431978571543092 85 75 66
-0.5147513856692032 -1.2341825933603943 -0.1797371699575151 130 116 115
-0.5199902697340844 -1.2349695885622596 -0.1753639573269193 123 104 98
-0.47940633074692096 -1.0851629970145305 -0.2313960215247358 228 230 229
-0.478629382920569 -0.8204670574154288 -0.2824944229112402 77 65 49
-0.5048287348747315 -1.2180982944033067 -0.18184565795945742 113 97 98
-0.5048287348747315 -1.2180982944033067 -0.18184565795945742 113 97 98
-0.49451543915754287 -1.1318910214890492 -0.2047993496535895 92 77 80
-0.45861251488060795 -1.0472013372366626 -0.23335716990445843 100 91 92
-0.4684894193425768 -1.2059554133058827 -0.152441784017774 79 75 72
-0.3957758018014885 -1.0072626369432836 -0.24415647290117248 112 88 86
-0.3957758018014885 -1.0072626369432836 -0.24415647290117248 112 88 86
-0.36778594960118743 -1.0234162644130287 -0.24181858033162873 102 93 86
-0.29660142116374033 -0.7838015455254338 -0.3169983477522067 93 74 78
-0.3835342199984977 -1.5257323059762378 -0.09077202866677894 83 74 77
-0.27698712573144063 -0.767191428979604 -0.32140957345558585 96 86 85
-0.2955636018634557 -0.9191854753787626 -0.2724880861079543 96 77 81
-0.24083704124733132 -0.7342841871982019 -0.3344614475714786 96 76 75
-0.23991177363362134 -0.758784459865745 -0.3270009495536295 105 83 85
-0.23991177363362134 -0.758784459865745 -0.3270009495536295 105 83 85
-0.24016801063033552 -0.783744003876276 -0.31907091210052313 95 66 71
-0.23457242304502302 -0.7309747845343755 -0.33435644377561474 228 209 203
-0.22660911160121838 -0.7343198691154332 -0.33593066907996966 89 80 81
-0.22660911160121838 -0.7343198691154332 -0.33593066907996966 89 80 81
-0.22567692359501376 -0.7676745592783444 -0.3246724479270516 114 96 92
-0.21832040092406652 -0.7270768470552786 -0.33890583720484285 112 88 88
-0.2211582428686094 -0.742363139048779 -0.33288583630908913 86 75 73
-0.21694932881431647 -0.7346398860040214 -0.3308622516363685 83 77 79
-0.20622259319788647 -0.7183732389086648 -0.34020216281138643 103 94 89
-0.20303381558953323 -0.7589266910920123 -0.3287577646032483 101 91 89
-0.19717136750014969 -0.7425963377205204 -0.33187984640566803 99 79 81
-0.20808149930168462 -0.8594002444897576 -0.29675111112805086 91 71 70
-0.21880259630746648 -0.9205992672500921 -0.27086760760476386 94 70 68
-0.21880259630746648 -0.9205992672500921 -0.27086760760476386 94 70 68
-0.20951264217627835 -0.8853908312812325 -0.2845927867666835 97 78 80
-0.14166415398613694 -0.4433330311894742 -0.4291412168687757 91 66 69
-0.19267248893407626 -0.834816750173324 -0.3031171849704843 93 74 78
-0.17503501752782993 -0.7279434235041182 -0.3384394315455245 85 68 61
-0.18188381525753047 -0.7842193745744058 -0.31911890782770524 85 70 63
-0.18188381525753047 -0.7842193745744058 -0.31911890782770524 85 70 63
-0.1730886683389004 -0.826669029991868 -0.30794492791907857 100 82 82
-0.1659228041614361 -0.7595531219062167 -0.3273637475433028 86 66 67
-0.1601171137472541 -0.7429382628627345 -0.33485707770245676 106 76 74
-0.16745103267456085 -0.7846423450768263 -0.3196946011779854 81 56 59
-0.16745103267456085 -0.7846423450768263 -0.3196946011779854 81 56 59
-0.16326394160344837 -0.7717535761891355 -0.32503125711901154 229 214 209
-0.14763182254273746 -0.7717189680906412 -0.33823474381889823 246 228 224
-0.16511795114039882 -0.7808118928785236 -0.3176898170501912 217 198 191
-0.14631811793112645 -0.8271938390945759 -0.3209806007759868 112 88 88
-0.16178381933970246 -0.8275781523592111 -0.30780201595733786 102 76 77
-0.11075881917069633 -0.46560329445588383 -0.42064160911217285 90 63 56
-0.14379090583496443 -0.7520658606465234 -0.33164616839719535 87 79 76
-0.14379090583496443 -0.7520658606465234 -0.33164616839719535 87 79 76
-0.15219130970681025 -0.827487608236046 -0.30429554919966834 101 81 83
-0.1684225409857164 -1.4979945720085823 -0.12899542980479325 73 73 71
-0.11206000199431354 -0.4317211228679278 -0.3645284949792719 87 74 65
-0.096647809227053 -0.7755940810549361 -0.2730614220272411 88 59 61
-0.11281253245527444 -0.7197756419197148 -0.2514939027733373 75 51 51
-0.06108623485405027 -0.6953575917968278 -0.19954764100823355 79 57 60
-0.056378378185851855 -0.7937705106243788 -0.17186492500543313 75 49 50
0.018080233611967315 -0.6132210393340882 -0.23096582904205457 91 80 78
0.04700511960710475 -0.739367569831795 -0.20710351684577202 231 210 205
0.11644279549744507 -0.5974784428646751 -0.24423268626029487 76 60 61
0.17106890265366825 -0.41350562970903026 -0.2927803136855741 29 35 33
0.1443877855387421 -0.7839594699758735 -0.16452767671522936 55 51 48
0.2045303184605496 -0.8022832557973855 -0.18351160440379097 97 83 83
0.2514879816817187 -0.7622266834816579 -0.20336528486601882 98 79 85
0.2681452932048544 -0.7245020955564215 -0.2165258080901804 223 192 189
0.2678988586212109 -0.7367676791746767 -0.21211718432011245 100 78 80
0.2785693151089631 -0.724738657965325 -0.2149809530273774 219 197 186
0.28900635951578046 -0.7285470318181364 -0.21751597262942976 110 88 91
0.31823604417768747 -0.7116600336149468 -0.22294692091931265 81 70 76
0.31851568142136355 -0.7623033821031994 -0.20752629015123886 71 53 53
0.3182475255966322 -0.8333380146149119 -0.18797163736041902 213 190 184
0.32017996456714903 -0.7959023258100064 -0.19869448838317916 68 45 51
0.3195488240307475 -0.8364318106986847 -0.18247355418670577 93 79 78
0.4285072722631468 -0.7873090791062878 -0.19132667821888502 79 75 74
0.4599773969237439 -0.4154766190399463 -0.3066055631165253 41 52 48
0.47370338872331524 -0.6020013095960686 -0.2701017616989157 102 84 80
0.4848834720980294 -0.6844348102231774 -0.24460329130912045 89 75 72
0.48252602313996124 -0.7086592565597302 -0.23365034369091456 84 84 86
0.4836243558408887 -0.7237930197526702 -0.23049187132585555 86 84 87
0.4955986345753928 -0.6106039412600148 -0.2725993813478685 82 78 77
0.5126178297718225 -0.7816128232778649 -0.21888512418209605 87 73 72
0.5310019773093829 -0.7239135395075057 -0.2377179312179311 92 81 77
0.5491846957349129 -0.6999403984574196 -0.24674481755778127 85 67 67
0.5488515054274283 -0.7164335821478305 -0.24088923097101952 94 88 90
0.5543958309949388 -0.8146450193255789 -0.2156262021650354 120 96 94
0.5582575892439302 -0.692822725858671 -0.2516344925001309 90 69 66
0.568938095582583 -0.7398965187307684 -0.23436788907124106 100 77 83
0.5701320982346287 -0.774356803207262 -0.22554349245726224 96 84 86
0.5712349648462482 -0.8222539409463866 -0.21095806872763412 95 75 74
0.5775350711727006 -0.7092317128962958 -0.24518623514702156 95 77 75
0.5874202001588489 -0.6608967782379856 -0.2618377085772714 89 67 70
0.5874202001588489 -0.6608967782379856 -0.2618377085772714 89 67 70
0.5905689341056216 -0.7489772907538301 -0.23531684334612746 95 90 97
0.6229324098506732 -0.8797664589766887 -0.19468549208560357 75 74 72
0.6229324098506732 -0.8797664589766887 -0.19468549208560357 75 74 72
0.6766324352613052 -0.628648311945955 -0.27700955967142377 86 66 68
0.7031507956234716 -0.6005607718430203 -0.28928402854207963 231 224 218
0.7031507956234716 -0.6005607718430203 -0.28928402854207963 231 224 218
0.7575700250129856 -0.41845659917549205 -0.3340688858569221 32 32 30
0.7705978012176905 -0.9021738011921713 -0.192507144304662 101 92 87
0.7893582997371399 -0.8081645994909702 -0.23046833317861215 91 77 77
0.7907203253690165 -0.7675986722629782 -0.244257690794011 90 74 75
0.7906661637922946 -0.8319560225851546 -0.22339813645506 87 69 69
0.7904031824243142 -0.8986498655215903 -0.20103876599458587 97 91 91
0.8008630446448715 -0.7517464165794917 -0.24967021665965125 98 78 80
0.8008630446448715 -0.7517464165794917 -0.24967021665965125 98 78 80
0.8008630446448715 -0.7517464165794917 -0.24967021665965125 98 78 80
0.8042114744542324 -0.7916338766423163 -0.2384192819466978 98 77 84
0.809400926966199 -0.7840022751909943 -0.23973889555586672 88 69 75
0.8207099191550401 -0.7439643611359131 -0.2571321401064868 86 64 67
0.8207099191550401 -0.7439643611359131 -0.2571321401064868 86 64 67
0.8207099191550401 -0.7439643611359131 -0.2571321401064868 86 64 67
0.8259329751297905 -0.7757866646908451 -0.2443727630173026 111 73 72
0.8358198607288251 -0.7347162499418954 -0.25689745570114847 117 92 98
0.8423637340159713 -0.8240619080363217 -0.23403635014609922 92 66 67
0.8446115082727103 -0.6715509281041845 -0.2760081293584133 95 76 78
0.8446115082727103 -0.6715509281041845 -0.2760081293584133 95 76 78
0.8446115082727103 -0.6715509281041845 -0.2760081293584133 95 76 78
0.8438845633119895 -0.6758364274117471 -0.2729789476880703 230 215 212
0.8419276828830764 -0.9929669692152145 -0.17232882218520576 129 114 119
0.8516215995860696 -0.8245715413728273 -0.23036029062170335 99 79 81
0.859871725213914 -0.7267579633458193 -0.25979038118140724 86 66 59
0.8636283322110028 -0.7354411638782046 -0.2629718992944293 79 74 70
0.8617450582894073 -0.7686568913535241 -0.2486504888225834 86 65 62
0.8614224789432877 -0.840459767544208 -0.22436952176458322 113 82 87
0.8693882317167624 -0.7998677840811252 -0.23950888466935014 95 67 66
0.8719790277384171 -0.7350511556818174 -0.25989143639142315 100 78 80
0.8747359581741163 -0.8035597860526134 -0.23894366002646925 235 225 216
0.877008477193897 -0.7999747072372746 -0.2355151828073149 118 97 94
0.8815408855687571 -0.751454992687409 -0.25531804210180653 80 56 54
0.8815408855687571 -0.751454992687409 -0.25531804210180653 80 56 54
0.8788061218277489 -0.8538191356598062 -0.21895951605399602 225 213 213
0.8853872828192656 -0.7432633694305728 -0.2524734986171475 90 76 76
0.9047347756824226 -0.88663962694911 -0.21139229705090035 244 222 209
0.9057109066640446 -0.6318857608643142 -0.292850354814855 102 72 80
0.9300812427913525 -0.46531475643091935 -0.3293870131047204 45 41 38
0.9535672321041404 -0.5994762464648851 -0.3046408675872847 83 71 71
0.9555535125328216 -0.5421970980059244 -0.32330672787056824 78 63 58
0.9727541346009523 -0.7055044732362348 -0.24913086120327346 33 38 42
1.003703623972723 -0.5419529927477084 -0.3238395557839881 85 70 65
1.0190515637901691 -0.6697344736138064 -0.28722080419556 18 14 11
1.0111386335373966 -0.41378385159472403 -0.3464799814214206 21 21 23
1.033311371143647 -0.6317236087440669 -0.2976054679573108 199 184 177
1.0613708887411608 -0.9047682625705201 -0.20505272959063 74 66 63
1.0517068947578998 -0.4142427425334539 -0.3469887798697571 21 20 25
1.0764791812382974 -1.2970902156462003 -0.08732973565625395 70 65 62
1.0800833436359956 -1.1568604018538036 -0.13257822525895915 113 93 95
1.0734436516236494 -0.4864035090154284 -0.3403229185375162 40 31 34
1.0808766296988281 -0.7065721385965577 -0.2766885908957357 76 71 68
1.081789671976188 -0.7101078140752178 -0.27282025608999877 240 237 244
1.0914861253567012 -0.8025268779054607 -0.24810443585821915 73 67 69
1.0918912280298791 -0.6336996560897866 -0.29941414569255353 96 70 79
1.1007537055897043 -0.691527935231489 -0.27298254245955417 127 113 110
1.1174310756947274 -1.1491389990977483 -0.14127972156611288 106 76 76
1.1216444531508676 -1.1399694683683936 -0.14253057835214178 107 76 81
1.1216444531508676 -1.1399694683683936 -0.14253057835214178 107 76 81
1.125932526964904 -0.7066395132791489 -0.27618420563226725 78 72 72
1.1244717763957315 -0.694420467229807 -0.2779807052511323 199 188 184
1.1416163038244351 -1.1051051361069988 -0.1600008947451366 116 89 94
1.1408791862960042 -1.0883803211028589 -0.162147744829173 118 85 94
1.1430043700475225 -1.148181875815891 -0.1421181651264764 103 82 87
1.1430043700475225 -1.148181875815891 -0.1421181651264764 103 82 87
1.1430043700475225 -1.148181875815891 -0.1421181651264764 103 82 87
1.1239763290500366 -0.38523473808436587 -0.37693377518666954 91 72 68
1.1426157141832114 -1.1311648444751063 -0.14545866902173565 101 76 80
1.146196643119513 -1.1135645946064372 -0.1549958014504654 120 91 95
1.1372438554447921 -0.7017477562479896 -0.27986655146031214 228 204 202
1.1535794376943338 -1.139784135614731 -0.14731330712236357 93 88 92
1.1535794376943338 -1.139784135614731 -0.14731330712236357 93 88 92
1.1376748932105343 -0.5254869886829228 -0.3340178323722945 78 60 58
1.1489603822528862 -0.8259109184797758 -0.23963455968276717 95 79 82
1.1611925877953047 -1.1053108761075972 -0.15667875785546437 102 91 89
1.1641734397959158 -1.1222582445185731 -0.1533540438007639 116 102 102
1.153635050145675 -0.7142361204559988 -0.27572236665513555 58 56 61
1.153635050145675 -0.7142361204559988 -0.27572236665513555 58 56 61
1.1690690820777343 -0.994744146074356 -0.19033465180678014 95 85 84
1.1619845849812716 -0.7421935664732271 -0.26771354442256695 225 210 203
1.1733344346494603 -1.0627722841034004 -0.17110155550454426 96 94 95
1.1733344346494603 -1.0627722841034004 -0.17110155550454426 96 94 95
1.16761247046984 -0.8511593401298344 -0.23248802614027317 117 92 87
1.16761247046984 -0.8511593401298344 -0.23248802614027317 117 92 87
1.179112251037325 -1.1526953186429254 -0.14329729052749468 215 207 186
1.1673882921254772 -0.7137489189019218 -0.27556835102338817 80 75 79
1.1700325878306919 -0.7648865063591613 -0.2604308788419416 213 209 200
1.1871513183393227 -1.147526766657221 -0.14990795743185936 101 76 79
1.1742964485637823 -0.6939528628775613 -0.28233791803929287 242 219 211
1.1831184512301622 -0.8796846974346921 -0.22801647393941787 223 204 198
1.1837378148771887 -0.8842157703611542 -0.22663798555299214 79 59 70
1.1837378148771887 -0.8842157703611542 -0.22663798555299214 79 59 70
1.1992206194726363 -1.1533670098492712 -0.14635544132507985 195 192 183
1.2039315468953653 -1.1580215130652483 -0.14361487121145078 108 70 81
1.1885575274523732 -0.6252779947098428 -0.3056268188788274 221 213 202
1.1920109987443308 -0.7021288546484671 -0.2822376677376457 201 181 180
1.1920109987443308 -0.7021288546484671 -0.2822376677376457 201 181 180
1.2103252830213667 -1.1550793151079026 -0.1454800602254523 198 190 188
1.2180971881270124 -1.2157735700675807 -0.12704333546768198 186 170 154
1.2144169286416728 -1.1057436758134545 -0.15913193455142816 95 70 73
1.2058467449518768 -0.8403662479464219 -0.23872203529354388 225 218 212
1.2205131089176091 -1.107260387782878 -0.15964253317727004 96 84 88
1.220736734776657 -1.0842016675660997 -0.16813956152236198 208 199 194
1.2228138021065165 -1.124423489694784 -0.15685650560977205 88 78 77
1.2229094373069218 -1.0811061239665452 -0.16875084569752655 84 74 75
1.2061495246050737 -0.4955133980732133 -0.3464314531263557 194 181 172
1.2061495246050737 -0.4955133980732133 -0.3464314531263557 194 181 172
1.2225829355317677 -0.881309109721255 -0.22954656970802312 216 203 194
1.2345190914943933 -1.1025485216736886 -0.16467602627605266 222 212 210
1.2363795125180832 -1.193569183019241 -0.13264014535085325 91 76 71
1.2336215854596209 -1.085326890924384 -0.1674464094149232 211 201 192
1.2213104513799125 -0.6991159280216597 -0.2874694048612947 96 72 72
1.2361342022853894 -1.0897877927099644 -0.16553490497970197 99 74 77
1.2102623182826229 -0.3862350741447806 -0.3767256127769768 95 69 70
1.2245533354608393 -0.6906501502027264 -0.2874278340859442 99 73 76
1.2364730189953916 -0.9561579207796616 -0.20799402097968853 211 200 182
1.2364730189953916 -0.9561579207796616 -0.20799402097968853 211 200 182
1.2431250234133722 -1.1021497614818734 -0.16473148347368596 211 189 178
1.2434842723576702 -1.1107326391107828 -0.15934139521403204 174 176 171
1.2380886680539114 -0.9322038664212917 -0.21551754550547084 208 188 181
1.2187879139810878 -0.36917115215655355 -0.3823756033056473 89 79 80
1.2358182386565948 -0.7839876790795707 -0.26016600919308935 203 191 191
1.2308819731060374 -0.6097649007873017 -0.31347510327949446 92 67 73
1.2389257892394019 -0.799581928294201 -0.2556564073155802 209 197 181
1.2379986179737632 -0.6989915738373078 -0.2875414699858627 102 69 78
1.2379986179737632 -0.6989915738373078 -0.2875414699858627 102 69 78
1.2329762966362792 -0.567487464722747 -0.3258411797652513 184 169 150
1.2329762966362792 -0.567487464722747 -0.3258411797652513 184 169 150
1.2348000468953642 -0.6054890773837629 -0.31435503502016093 197 185 173
1.240860487537131 -0.7906344162206896 -0.2494128015091839 215 210 206
1.239312404797486 -0.6863515990707469 -0.2857784485915767 217 202 197
1.239614730226379 -0.7399302465138478 -0.2567439192345473 226 216 207
1.239244197648872 -0.7017697319983236 -0.26695358764266225 93 63 65
1.239244197648872 -0.7017697319983236 -0.26695358764266225 93 63 65
1.2524343138186071 -1.118965783185939 -0.0321487653360695 107 96 92
1.2516534149770546 -1.132249022536584 -0.02030940726703204 108 83 86
1.2518498407345562 -1.076878044766029 -0.011584364039115577 109 87 89
1.245970475450565 -0.6625045936086209 -0.14390755142839767 84 64 66
1.2469477404633442 -0.6799235710294143 -0.11762417116526597 82 74 72
1.2466467688788303 -0.6340958590032607 -0.13407790688744844 79 70 63
1.2488123102585946 -0.6933711187309705 -0.10002160820400109 74 58 59
1.2436666445101439 -0.31994727790521743 -0.2264541944841825 92 65 72
1.2436666445101439 -0.31994727790521743 -0.2264541944841825 92 65 72
1.249278684856876 -0.6724003910161265 -0.09281990451431263 70 49 48
1.251248413825141 -0.6809525409367913 -0.06154270498701564 69 68 64
1.2536691514631102 -0.8564509998511327 0.009643356024523396 60 54 54
1.2521878087510259 -0.5945955101527474 -0.03951806759429556 65 54 58
1.2612647764390532 -0.9555584876468929 0.11777566534471026 41 37 38
1.25531907465916 -0.5760723765304283 0.002807711002061692 26 21 17
1.2555352222111404 -0.5708174125769606 0.019752750268863865 7 6 1
-1.3045821278398646 -0.6568726333925344 -0.2573864785244062 123 103 112
-1.2087093707833394 -0.20392140682079332 -0.38019551311093125 204 183 180
-1.047678618193205 -0.7288698555849306 -0.3153040578408018 105 94 100
-1.1040696059639097 -0.7188501391065525 -0.27620741414399064 118 96 99
-1.0621568753651818 -0.7283767744126591 -0.2810549634669989 115 99 100
-0.9442800462196206 -0.7716370999053946 -0.28717839742757273 110 106 107
-0.9081236335410287 -0.852412945694108 -0.2849775588519609 86 75 81
