ply
format ascii 1.0
element vertex 677
property float x
property float y
property float z
property uchar red
property uchar green
property uchar blue
end_header
0.9800819425915801 -0.011574683363740542 -0.398291308500927 43 48 53
0.8422064013925553 -0.018534573420462913 -0.39908342298123595 167 175 174
0.8999319104976058 -0.030757097417554016 -0.3994046540184522 30 30 30
0.8999319104976058 -0.030757097417554016 -0.3994046540184522 30 30 30
0.9598985840145031 -0.03351756691115531 -0.3983467940209467 186 189 190
0.8960324077652958 -0.03460076287404924 -0.3991725064014082 159 167 164
0.9414701791626975 -0.05150400863771262 -0.39948519798154436 186 189 190
0.9868670345183093 -0.07039253908615259 -0.3997492244070049 188 188 190
0.8909531184377257 -0.06678960192159093 -0.4005768466073276 161 167 165
0.9546317065491333 -0.07079337132195636 -0.3993589168335101 29 32 35
0.9231951959094112 -0.07187346662315305 -0.40088413217146385 167 170 169
0.9755930769557698 -0.08551292309004382 -0.400069036476171 190 190 190
1.0052979473232713 -0.14990344797785587 -0.40824925766186776 34 34 36
0.9947168240350663 -0.152699504767052 -0.406428794342586 18 21 22
1.0203866322812365 -0.15773944773881002 -0.4095215798497967 21 20 20
1.007883538203604 -0.15657722160251178 -0.40779286540934656 29 29 29
1.0010067069532935 -0.1563197923015301 -0.4077145079812416 22 22 22
0.8865021214023117 0.1193751924979584 -0.4049290467829881 30 33 32
0.8541751251242278 0.06314082608730542 -0.3968993503679298 191 194 195
0.8411901634303443 0.04327414114062458 -0.4028605981477952 191 194 197
0.840439198607012 0.03238770128995563 -0.38973304620575755 181 184 187
0.8389662849858226 -0.0010139485405045888 -0.38902826827345616 118 118 122
0.8389931652702867 -0.001063314705133965 -0.38886023055427515 118 118 122
0.8414981164578923 -0.021670856540867107 -0.3938658123208794 184 187 190
0.8437559257435754 -0.023419778921809114 -0.40662609746347367 175 181 183
0.836946339409825 0.11585898799583885 -0.3825828400317823 198 197 197
0.8588659298282741 -0.032312616894376464 -0.3741760176380197 28 32 27
0.9927872015853255 -0.1458780777601312 -0.38215842074896555 28 31 30
0.8377272622815707 0.12989068968474665 -0.39116600725922557 147 141 143
1.0892466161873349 0.13290819709404328 -0.3889780304477861 140 140 140
1.0935665374442125 0.12229571126747177 -0.3942937243048426 151 154 155
1.090378016800525 0.11732870825050548 -0.39805447852914944 158 161 160
0.8943697211597499 0.09400244025193678 -0.38883570616709906 37 40 43
0.9217435124111958 0.09107226577313082 -0.38696745990709336 31 39 38
0.9742370915873372 0.09547909703020035 -0.3881999618624783 54 60 58
0.9742370915873372 0.09547909703020035 -0.3881999618624783 54 60 58
0.9473247797172497 0.09162503749884826 -0.38925427839284565 40 46 44
0.9777528349130483 0.09183055628481618 -0.3881372938150979 191 199 198
0.9223876275238988 0.08558943690623409 -0.38946740076587033 189 195 195
1.097896467021657 0.09961457009004264 -0.3984237404027359 141 147 145
0.9852932480387843 0.08694854148336643 -0.3897402773300657 193 199 197
0.8734145770474269 0.0765201004413785 -0.38727737624433856 41 40 42
1.000769832998379 0.08489480303949475 -0.3881754098674691 63 68 73
0.9394243225924637 0.0800350144885974 -0.38766718477314754 181 189 188
1.0834545846401884 0.09145963682162325 -0.39455822586236106 161 169 168
0.8694629559874504 0.07274330632899939 -0.38306304147342873 51 42 45
0.9293988083538572 0.07410146658429131 -0.38865282171413773 47 40 34
0.9293988083538572 0.07410146658429131 -0.38865282171413773 47 40 34
1.1128306868812854 0.0888994409200652 -0.39867501557458807 85 83 75
0.8785753379900434 0.06970651203150756 -0.3887537008544897 181 189 190
0.836844746128927 0.06626912594558845 -0.3892748579265984 192 195 198
0.8385935977819098 0.06286819444809022 -0.3875329041096374 187 190 191
0.8385935977819098 0.06286819444809022 -0.3875329041096374 187 190 191
0.8400359043492963 0.05728053980781337 -0.38853642528430754 108 108 110
0.9440698734886374 0.06316154129477573 -0.3879342358560367 47 44 39
1.0858616851760339 0.07076705619879135 -0.3934741782520176 110 116 114
1.096751709278891 0.07153970789016426 -0.39808845723103164 129 132 131
0.9225069567326794 0.05982871268749894 -0.3889521342107535 182 190 189
1.0817545184253652 0.06856587879698406 -0.3952427131244369 109 108 110
0.952880242082638 0.059674507739302704 -0.3883251309787648 41 49 48
0.952880242082638 0.059674507739302704 -0.3883251309787648 41 49 48
1.0864636964527876 0.06518130679937327 -0.39032527281045976 157 163 163
0.8965975730185063 0.048883999167792534 -0.3896164932520565 29 32 35
1.1065132759508867 0.058556099391858456 -0.39632005387818103 129 135 133
1.0849464369247377 0.05721855839085278 -0.3991486865412141 109 112 113
0.8970942260859491 0.045779976555580804 -0.38278798705082073 43 37 39
0.9671590294877251 0.047210652590830945 -0.38753430118113785 48 51 52
0.8385107708489378 0.040935555907698595 -0.3891866168993079 129 128 135
1.0942859685108588 0.05107239271910568 -0.39700966694637313 93 93 95
1.0932903962844096 0.045845643054043414 -0.3957506497797961 108 108 110
1.0932903962844096 0.045845643054043414 -0.3957506497797961 108 108 110
1.0949051689432947 0.03776730744066183 -0.38997126542033805 130 138 137
0.9759179273572149 0.033201569716298576 -0.3894001976892769 52 60 59
1.095107046808963 0.03516354573521538 -0.3945569345883306 146 154 153
1.0100632102627127 0.032202416044526394 -0.3910652725278745 59 72 71
0.8918848777007452 0.02816311339169318 -0.3891870421693158 180 188 187
1.0862789253230716 0.031617689620910584 -0.39633867681401513 156 162 162
1.1099153278368266 0.029494177550029234 -0.3972596119538172 124 130 130
1.1101498325559163 0.026741705424315223 -0.3947887335225768 94 95 86
1.1072622466893716 0.024351246224156405 -0.3936845296442275 114 121 115
0.8815098480830535 0.01931798473105552 -0.3837017885651465 35 34 34
1.0985603620746363 0.020520080117734152 -0.3919286557592563 125 131 129
0.8406155619642919 0.011293751982587278 -0.3882720025478113 112 111 113
0.8406155619642919 0.011293751982587278 -0.3882720025478113 112 111 113
0.8406155619642919 0.011293751982587278 -0.3882720025478113 112 111 113
0.8396623151522471 0.008093295598036404 -0.3880242603661334 188 188 190
0.8671842024151217 0.006515806553932751 -0.3899064946247913 173 181 180
0.9304250799058197 0.005606778854351787 -0.3884763778182409 44 33 37
0.9257625202140629 0.0033262348089995266 -0.3824925561357518 33 39 39
0.928364705323236 0.0028094209279969718 -0.3893729506403799 30 36 36
0.9814911041892209 -0.0028956135011507563 -0.3888991016169628 53 53 55
0.8923812449015351 -0.0025584533562636037 -0.38808933010252483 29 35 33
0.9174839825587677 -0.007781275076325491 -0.38895817300578633 177 180 181
0.8926420618875095 -0.008292533702521438 -0.3895121226121204 173 181 180
0.9129893823483063 -0.012945495789864718 -0.3900863172217564 30 30 30
0.9710386472949323 -0.018874106811126987 -0.39818115151609595 185 193 192
0.8400763818310966 -0.014475219185769888 -0.38834427566869295 172 172 176
0.9603928173327704 -0.018489114539768915 -0.38759894221575664 186 192 192
0.8404129507468618 -0.016424617191862816 -0.3888368026802328 177 180 181
0.8416572774833483 -0.017506171779513146 -0.38832770105214043 125 124 128
0.8409461950998113 -0.020173073628737062 -0.39059239342533525 130 129 131
1.0112609194750517 -0.029346506267169434 -0.393404809844436 43 51 52
0.948928919561334 -0.03242702983359746 -0.39000341663359717 36 39 40
0.948928919561334 -0.03242702983359746 -0.39000341663359717 36 39 40
0.9550570628961036 -0.03281404989254001 -0.38875835838986883 190 196 196
0.8964864811764077 -0.030152392409399518 -0.3887223130367725 34 37 36
0.985940352799803 -0.03734366793642693 -0.388343551426069 192 195 196
0.9794552777369654 -0.03797775036972128 -0.38903407261438405 36 38 44
0.9490400635394973 -0.03818111939205376 -0.3887963637826028 184 190 188
0.9490400635394973 -0.03818111939205376 -0.3887963637826028 184 190 188
0.8401303131061267 -0.03508512463360819 -0.3885120749002426 104 100 103
0.8401303131061267 -0.03508512463360819 -0.3885120749002426 104 100 103
0.9422526343259385 -0.042771867755043824 -0.3881586151291877 44 47 46
1.0072705387135394 -0.05202874737716402 -0.3922042648286868 176 179 178
0.9441987731222258 -0.05043991976102032 -0.3907102516936961 175 181 179
0.9993083620482318 -0.05725695458113842 -0.38844955855644625 169 175 175
0.9344179331351687 -0.05297327963020793 -0.387907122419849 43 37 43
0.9344179331351687 -0.05297327963020793 -0.387907122419849 43 37 43
0.9312949961049151 -0.05630265386934284 -0.38832437945662357 43 34 39
0.8930736520167217 -0.06443330220198704 -0.38748913263663964 27 27 27
0.9179839235486074 -0.06962867095127478 -0.3882848318060886 178 179 175
0.9179839235486074 -0.06962867095127478 -0.3882848318060886 178 179 175
0.9633732246953104 -0.074165494179695 -0.388409289167072 186 197 197
0.913413500849823 -0.07421691681408933 -0.3881247271717933 22 28 30
0.9127432363775319 -0.07850715937233997 -0.3857670747239227 27 31 26
0.9787000844046706 -0.0895660006655332 -0.3971734194875477 168 174 172
0.9251184918067362 -0.09408632414195436 -0.38700102816685195 28 31 30
1.0048391618286918 -0.14825287649454003 -0.3950620953964513 25 25 27
1.009243736857637 -0.15022573254469232 -0.3924944115322766 20 20 22
0.8387071691936334 0.10755704941877749 -0.38947788815168416 189 189 191
0.8400588788464312 -0.018353420104167652 -0.3901583284758838 187 187 189
0.8400588788464312 -0.018353420104167652 -0.3901583284758838 187 187 189
1.0008646186382026 0.006514608504997102 -0.3929724583231021 161 169 166
0.9759277503626804 -0.01222261253712132 -0.39181382926739444 39 50 50
0.934870105482396 -0.0466768204529809 -0.3894471072876948 38 38 38
0.945003190017969 -0.05537251474327588 -0.3907125289793493 23 23 23
0.9816377267185528 -0.06970910844489685 -0.3917038969491639 183 183 185
0.9929999399375632 -0.032573039919229836 -0.3998094861297486 50 56 56
1.004397151004183 0.003956094221998053 -0.3881333002599279 53 66 63
1.018222654883226 -0.05986397250614755 -0.4094425501679731 178 181 180
1.018222654883226 -0.05986397250614755 -0.4094425501679731 178 181 180
1.021920194066818 -0.0630258578391502 -0.41100284586469776 57 59 65
0.8524027025409373 -0.055618199773295476 -0.40874513928369094 166 169 168
1.0224048256151983 -0.07304924709988257 -0.4075969279232104 43 45 51
0.8970850020362274 0.10427508595984925 -0.3881388225435119 32 35 34
0.886573209062216 0.028725484618307866 -0.3916612872058657 28 31 30
0.886573209062216 0.028725484618307866 -0.3916612872058657 28 31 30
0.9265244545533292 0.02987454146434159 -0.39740940117679857 28 36 33
0.9265244545533292 0.02987454146434159 -0.39740940117679857 28 36 33
0.9497517382429422 0.03019068626542553 -0.3935493134796016 46 54 55
0.9419833523844102 0.0022272286798960092 -0.3979855862546848 40 48 49
0.9590435130755467 -0.0011482091727673552 -0.39738098087979973 39 47 46
0.9024133370551761 -0.028392499474302103 -0.39987437623514166 158 164 162
0.886626570004441 -0.046749915466518445 -0.40611896365955763 22 25 24
0.9420090339471344 -0.059762507342584856 -0.4037340836300247 185 188 189
0.9615085861235673 -0.06551341640728864 -0.4003159763262085 28 34 34
0.9918638572852991 -0.07006037597591831 -0.39747193944698217 29 34 39
0.9918638572852991 -0.07006037597591831 -0.39747193944698217 29 34 39
1.0114913488095336 -0.14978398711865878 -0.40852354056438606 26 25 25
1.0006075996362371 0.09861212463067784 -0.4189471135663248 56 64 63
0.9924996260632936 0.004664248829969875 -0.3941345591835066 49 56 60
0.9497663050504228 -0.0009913103967096235 -0.39362483283699534 180 188 185
0.9639077034287471 -0.030376643280087694 -0.4020778014755558 46 52 54
0.9482669854661248 -0.03674175604317275 -0.38916338974938885 185 188 189
0.988667236988249 -0.03948751352131064 -0.38878149499042824 40 45 50
0.9395031168944207 -0.047986959693562745 -0.3889867127002384 141 149 148
0.9889912248541081 -0.05814953964408063 -0.3887930722219287 40 45 52
0.9994453951828378 -0.06792608243646751 -0.41216650325591925 187 190 191
0.8814128473387218 -0.05983689796303078 -0.3915664759500845 16 19 18
0.9854586334720512 -0.06698927685735732 -0.3877912396336142 33 39 41
0.966042612050828 -0.07547665462230088 -0.40476438330654485 32 39 47
0.9657240886161602 -0.07481281300858525 -0.3958982444830277 185 195 198
0.9753169318391852 -0.08423779542720437 -0.3939895426957172 41 40 47
0.9633624010555724 -0.08395760295959714 -0.38986107743872545 176 176 178
0.963347506895106 -0.09009133482775948 -0.3896354023974757 27 35 36
0.9307053889592135 -0.03491516630499678 -0.4076013053016676 23 29 27
0.9512601290768558 -0.04345270337980414 -0.4037965660118827 33 32 39
1.0006513061729323 -0.04984259155674011 -0.4036518158776933 183 189 189
0.9994453951828378 -0.06792608243646751 -0.41216650325591925 187 190 191
0.9872056692040939 -0.07654116877476838 -0.4093909625278767 37 39 47
0.9887915676105363 -0.07732460922791357 -0.4121179191523402 37 39 47
0.9809233179398908 -0.08789353633800283 -0.4046512489922745 38 37 46
0.9840334364193856 -0.08969241354691083 -0.4102000176252159 38 37 46
1.0090985952201152 -0.15289406737825675 -0.40177909289231595 28 34 32
1.007745041151212 -0.1569910278188728 -0.40259261381785943 18 18 14
1.0200962197076313 -0.006883399758161605 -0.4058501513644539 51 56 61
0.9483645596404524 -0.04645934315608276 -0.40325111888246384 168 176 173
0.9484349459952962 -0.04639917203509197 -0.403601162709522 168 176 173
0.9761401140697974 -0.08765906461101519 -0.39445002086012493 184 192 193
1.0208425978230353 -0.1589424768015312 -0.4123027612492584 18 21 20
0.8370441662859281 0.08313376120915673 -0.39311145014594734 184 192 193
0.8539079621276153 0.08355278155867728 -0.39494501058521475 187 190 191
0.8707594577722797 0.07913690792076163 -0.3929215998565875 175 186 186
0.8707594577722797 0.07913690792076163 -0.3929215998565875 175 186 186
0.83795309198331 0.07547803751857003 -0.3927817680911786 127 130 133
1.009265205195352 0.08304613058568389 -0.401441420968179 181 187 185
0.8710426979816274 0.07142324399481872 -0.3931951179412734 177 185 184
1.020062448820288 0.07339971644988046 -0.37095832301882226 193 196 195
0.9377317585672739 0.07125486958796091 -0.3916346508521074 26 34 33
0.9264410537218098 0.06732584662385492 -0.38173395632327034 175 175 175
0.9264410537218098 0.06732584662385492 -0.38173395632327034 175 175 175
1.0049841786189109 0.07418880676940433 -0.3930769292664259 184 190 190
0.9942289281083038 0.07073754165661823 -0.3939719675580862 71 74 77
1.0080407299420873 0.06654405911414704 -0.3934136283762292 72 79 83
1.0080407299420873 0.06654405911414704 -0.3934136283762292 72 79 83
0.8389265274065972 0.05625480639593013 -0.39295753764619273 101 104 105
0.9669914859162392 0.04285441526565738 -0.39457264065340014 42 45 46
0.9827045136648617 0.04265824185536543 -0.4038626486407556 57 64 68
0.9661799397365255 0.03756880502756684 -0.39348482362136106 181 189 188
1.0138994073838048 0.029794942567545713 -0.39314278013132115 71 76 81
0.9873731942775504 0.02573651023016252 -0.3939894080720024 185 191 191
0.9496425796372049 0.02509241750844828 -0.39374804415794545 181 187 187
0.925784809419069 0.021105621691106028 -0.3885963757263231 40 40 44
0.8396031727487708 0.022017406607124954 -0.39318419606193084 172 178 178
1.001104841306454 0.01825286276710815 -0.3940598542025429 186 192 190
0.9949549526797469 0.007899739622290026 -0.3942024648816558 52 52 56
0.9949549526797469 0.007899739622290026 -0.3942024648816558 52 52 56
0.9318824990926649 0.00654053943976813 -0.39408558057165444 36 30 34
0.9924996260632936 0.004664248829969875 -0.3941345591835066 49 56 60
0.8672589277552888 0.007426906795919839 -0.3931202745315092 165 171 169
0.9463631279617819 0.0026729527607922674 -0.3941045211091284 40 46 48
0.8713536594006199 0.002789039012402993 -0.38870422946786665 141 154 153
1.011436833819712 -0.007801448906111781 -0.3953193322640433 47 53 55
0.8408924217821544 -0.003777798732763077 -0.38898517165597435 128 122 128
0.971018021989607 -0.01290407245240085 -0.394084111081364 184 190 190
0.8403072589861607 -0.009420091111506358 -0.39425455747583427 153 153 155
0.902707898141927 -0.01956002179577979 -0.38884034256679223 23 23 25
0.9027854047909935 -0.01956379765343875 -0.3888404661865567 23 23 25
0.9092774280230376 -0.024179980035131537 -0.3938219078360016 127 145 143
0.8410169328617804 -0.01961878534884034 -0.39443651961217807 110 111 107
0.9087025278336798 -0.02584409873818406 -0.39707824498508226 37 33 34
0.9816204349784916 -0.03201720470624479 -0.393914288309855 187 190 189
0.9884865043754103 -0.037075737007323424 -0.39456935281588157 192 192 192
0.9372454741764874 -0.04322372035817738 -0.3895238353482756 179 185 183
0.9434324734806193 -0.050683350677164084 -0.38999892953842724 180 191 189
0.9434324734806193 -0.050683350677164084 -0.38999892953842724 180 191 189
0.9950931249244831 -0.05605869618488022 -0.39426442011281193 184 191 185
0.9990678329532195 -0.055375099442024484 -0.3887463207990628 191 194 195
0.9345438907485655 -0.0535968917315586 -0.3892762597216724 41 40 42
0.9053836978376444 -0.0522406994140436 -0.3900271226351786 15 19 14
0.9144576930417968 -0.07593120521701671 -0.39208872363320724 16 22 20
0.9000237731637654 -0.07755309115058467 -0.38974374718591037 146 152 150
0.9102880650120837 -0.08243964151695937 -0.39424326530189946 22 25 24
1.0115190164348178 -0.15013101635543463 -0.40104311909201384 30 34 29
1.0197701713142533 -0.1542348859329019 -0.40204146707165156 27 35 34
1.0125671588606038 -0.15241066150169583 -0.3996540465291443 18 21 20
1.007745041151212 -0.1569910278188728 -0.40259261381785943 18 18 14
0.8380092209306663 0.13594913651313179 -0.3938826213632587 190 186 189
0.8387844173008754 0.0853035074536174 -0.3926131339853273 190 190 192
1.0048643015012833 0.07779052780015612 -0.3931569344883004 55 55 57
1.0889769091455384 0.07734525841027073 -0.3988603472033319 100 96 99
0.9284169046702125 0.06638430026279747 -0.3933684647194388 30 33 36
1.0852530652051493 0.05879126010643086 -0.39865737121149447 139 138 138
1.0847890678450667 0.033722389954064125 -0.39981647493900063 113 112 112
0.9368346238853769 0.00130548797578358 -0.3881731109835249 18 27 20
0.9627842589714862 -0.011389368907022772 -0.3949230102716043 175 183 182
0.9627842589714862 -0.011389368907022772 -0.3949230102716043 175 183 182
0.9007932858486616 -0.016353362453238405 -0.39325711361018423 27 24 21
0.9714557757291705 -0.020126674594286863 -0.39563169224009165 40 47 51
0.9082577203500047 -0.021539501360042308 -0.39427157607819635 178 186 185
0.8403694765146139 -0.027217501362956028 -0.3944326837983105 185 188 191
0.8420341505833617 -0.029132717096523004 -0.3942257697808162 109 109 111
0.8397251256969069 -0.035524668180762164 -0.38829206612694017 85 82 77
0.9044821903659308 -0.08117732517481449 -0.3886865057094021 19 20 16
0.9356196822061055 -0.08532458268841835 -0.38674382095607196 13 20 14
0.9652159275312095 0.1057335925421876 -0.3942632087892411 41 36 34
0.9286692066370088 0.07790565212912356 -0.3945768358924379 26 32 30
0.9062968334441336 0.04852308799932162 -0.3942981935225231 33 33 29
0.900163673503064 0.04730612117540886 -0.3942969237869011 36 27 20
0.9712324357942529 0.03451264734444001 -0.39556950454494205 36 42 40
0.9329328646875923 0.005958928032189773 -0.3885216060761253 182 190 189
0.911506602355427 -0.08627198209094608 -0.39442101979186855 146 152 150
0.8398998322477661 0.12933165320457138 -0.39954889657606907 124 123 125
0.9737774732711414 0.11371184813738826 -0.391614086721735 52 52 54
1.0134699921426849 0.10291486231784405 -0.40545298456923046 69 77 76
0.9461139905145587 0.08703965242807088 -0.38807392613983627 184 190 188
0.9920739937484345 0.09039673041256736 -0.4030224165251265 183 183 183
0.9179118826567698 0.055747792845062455 -0.3944054162157145 175 176 172
0.974635090619985 0.04961614216404052 -0.402842636957823 56 62 60
0.9943537172173369 0.0319313420839694 -0.404774524344527 60 71 69
0.9501992615842304 0.021301710749682748 -0.40321022138967694 43 50 54
0.8539844127808264 0.01136646769867236 -0.40531235971768825 174 180 180
0.9337979502844875 0.003107357817020984 -0.4043316834562126 30 36 36
0.8793907447218944 0.0033904772464500113 -0.3897855508660266 30 33 32
0.9731814897816072 -0.018491631522291028 -0.4038192639564136 178 181 182
0.8991551877711811 -0.014670884696952408 -0.3887764188594191 51 40 44
0.9793262317425452 -0.026164994694437352 -0.4048609179510011 179 182 183
0.8557989747319581 -0.022399543376255052 -0.4086360248062679 169 175 175
0.9647929523646684 -0.027478092029980382 -0.3885681119185416 41 47 49
0.9009417314002791 -0.03129145265342689 -0.4047248696106444 30 34 29
0.9009417314002791 -0.03129145265342689 -0.4047248696106444 30 34 29
0.9877656312652278 -0.03955695467507853 -0.4049015058685087 46 51 56
0.8865014008581468 -0.038181684972717726 -0.3898794360307551 187 187 187
1.007629462360384 -0.050103657982344195 -0.40595026343487245 49 57 58
0.8689222148757666 -0.06455578090317822 -0.40572637582012266 31 31 31
0.9188211259025906 -0.07744977244115671 -0.4045114620581313 25 25 25
0.8842465845833644 0.0855348362413753 -0.38818547182495844 193 198 203
0.9864500074808116 0.08460231574643659 -0.388394518623771 62 68 70
0.9600870950115098 0.03815722563543393 -0.3883498570300045 45 33 33
0.8951776718929779 0.035089553193887554 -0.38679272925448427 88 69 67
0.8951776718929779 0.035089553193887554 -0.38679272925448427 88 69 67
0.885608844296985 0.023764384612019004 -0.38955849546075616 190 196 198
0.9377864021457629 0.014835494895729785 -0.39111819834118333 189 195 195
0.8417501030786403 0.0143212613893643 -0.3874213254801935 195 198 199
0.8402178213543524 0.012467036208210297 -0.38867551036027925 125 125 129
0.8676823178542225 0.005218445965603271 -0.38684212705180415 38 26 26
0.8916863259089401 -0.0013733486762369201 -0.38872831292807697 35 38 37
0.8387361719405869 -0.0038787865470679196 -0.3894616828520548 189 189 193
0.839749262930606 -0.013232436373237627 -0.3892159007944569 190 189 196
0.839749262930606 -0.013232436373237627 -0.3892159007944569 190 189 196
0.8710594340671638 -0.019989594303306848 -0.3897061107191309 29 32 31
0.9540321036528043 -0.03145517919265742 -0.38839225392725163 186 189 188
0.9540321036528043 -0.03145517919265742 -0.38839225392725163 186 189 188
0.9542921694891255 -0.036696683910576226 -0.3888144702084487 31 34 37
0.9542921694891255 -0.036696683910576226 -0.3888144702084487 31 34 37
0.8404273220550561 -0.030666861604755537 -0.38912578884484617 98 97 101
0.8404273220550561 -0.030666861604755537 -0.38912578884484617 98 97 101
0.8922374089292067 -0.037996112836142404 -0.38857317412937903 30 33 34
0.8922374089292067 -0.037996112836142404 -0.38857317412937903 30 33 34
0.8865014008581468 -0.038181684972717726 -0.3898794360307551 187 187 187
0.933785469307868 -0.04942440310065015 -0.3889504863951533 195 198 199
0.8720604128683915 -0.05632916882675204 -0.38813411619546273 37 36 40
0.9105345651890063 -0.07564657728532993 -0.3895504258093383 38 37 37
0.8977818256748611 0.10373348706991978 -0.3886470392382014 27 30 29
0.9636173107698381 0.10902288755068179 -0.38747280983640964 60 52 49
0.9712743615059471 0.10409396391530161 -0.38727775674301035 45 53 52
0.9712743615059471 0.10409396391530161 -0.38727775674301035 45 53 52
0.9712743615059471 0.10409396391530161 -0.38727775674301035 45 53 52
0.958863167390929 0.09602148059537359 -0.3876030866476406 44 47 48
0.9837752529425682 0.08574582275543434 -0.38655748590298533 187 186 186
0.8387703108088926 0.07452256854625186 -0.3855353582523384 133 130 127
0.8698736025641631 0.07640917027868686 -0.3855909107855581 181 181 183
0.9254227888725806 0.07862090064980312 -0.3839919586673195 32 38 40
0.9398679873196922 0.07828508522064524 -0.38625977881882717 182 182 182
0.9398679873196922 0.07828508522064524 -0.38625977881882717 182 182 182
1.0026161958557134 0.07941254598574964 -0.3874437859696295 183 187 182
0.9400085798714984 0.07507681524206133 -0.38798702706672766 179 182 181
0.9312687267192716 0.0733760030150954 -0.3815148120063922 180 183 182
0.9290966610189983 0.07321573946131597 -0.3869118361372254 42 37 35
0.9290966610189983 0.07321573946131597 -0.3869118361372254 42 37 35
0.9646165737018847 0.07218260506301512 -0.3868137899497489 46 52 52
0.9989279953364988 0.07132144632031805 -0.38776487776929774 83 79 82
0.8632960612719914 0.06133346396189356 -0.3859391028322912 38 38 38
0.8367790987754516 0.05599328859137455 -0.38565546519902527 185 185 185
0.8402567860309599 0.04937099276754641 -0.3840959345172795 181 181 183
0.9139563526237832 0.050575626896689194 -0.3886272927522994 41 41 43
0.9139563526237832 0.050575626896689194 -0.3886272927522994 41 41 43
0.8958047818261224 0.04796050796831252 -0.3861351687953559 30 33 34
0.9716383705609616 0.049555725342982505 -0.38718956202866944 60 66 66
0.8981515585518229 0.045254202808137044 -0.38567087786425436 45 40 36
0.9093167778066716 0.044290627051142215 -0.3877539830577266 28 34 32
0.9650502785185062 0.040970444824206816 -0.38818424861175294 55 61 59
0.959253952225097 0.03369906630559852 -0.38880000762137734 41 49 48
0.8382063007677736 0.03338890091815665 -0.3845392281651338 125 125 127
0.9752027713417176 0.03254677349844476 -0.3873918692768993 60 66 68
0.9022531739587887 0.03170393435720545 -0.38736185138240997 31 34 33
0.9128136353192479 0.03143892093223985 -0.3866416520348304 33 39 37
0.8392160688976807 0.030392073285315485 -0.3847338797401563 117 113 114
0.8392160688976807 0.030392073285315485 -0.3847338797401563 117 113 114
1.0116386118908207 0.027870475138347714 -0.38708482242516995 75 75 77
1.0116386118908207 0.027870475138347714 -0.38708482242516995 75 75 77
0.8395543312568503 0.029036753053838498 -0.3849714553825707 176 179 180
0.9260750411193193 0.0192927052882392 -0.38628405370900976 39 39 43
0.9416020181165919 0.016947824550013018 -0.3867937073057454 175 183 180
0.9416020181165919 0.016947824550013018 -0.3867937073057454 175 183 180
0.8397916225193702 0.016108637669874824 -0.384858060184856 179 184 189
0.9365147654384572 0.012904535040271309 -0.385656023738997 181 184 183
0.9267936495477531 0.012124707786877235 -0.3868774345487099 36 39 40
0.9913932001471668 0.009478939144241603 -0.3869730993884238 176 182 182
0.9332210666798344 0.008348738691365255 -0.38636294785115227 49 45 50
0.9332210666798344 0.008348738691365255 -0.38636294785115227 49 45 50
0.9979426247472195 0.005931880363890937 -0.3870149104267811 177 183 181
0.8402231866860344 0.010725376773405617 -0.3841980970137697 102 101 103
0.8402231866860344 0.010725376773405617 -0.3841980970137697 102 101 103
0.8674923322039994 0.007707721977140749 -0.38496878314060234 170 178 177
0.9296608096581246 0.005116541484095327 -0.38576468768887473 50 46 47
0.9296608096581246 0.005116541484095327 -0.38576468768887473 50 46 47
0.8392764166771056 0.007565107016112869 -0.3842296773233119 176 179 182
0.8660216134816199 0.006093146359190174 -0.38375047293845566 165 176 176
0.8660216134816199 0.006093146359190174 -0.38375047293845566 165 176 176
0.9279424517244725 0.0022400475001677633 -0.38742618990613087 30 36 36
0.9279424517244725 0.0022400475001677633 -0.38742618990613087 30 36 36
0.8389098410595017 0.00633523584930286 -0.3811641657163523 149 148 155
0.8746608613042894 0.0037758745699365067 -0.384816939055488 37 36 36
0.8790629823537723 0.00157721495916099 -0.38526597446055777 24 27 28
0.8390952709579704 9.236781948782976e-05 -0.3836438649590429 176 182 184
0.8390952709579704 9.236781948782976e-05 -0.3836438649590429 176 182 184
0.885820813233185 -0.0034002303398312276 -0.3859407018920841 168 176 175
0.8409303158262698 -0.0053502417439960466 -0.3843789755454943 105 105 101
0.9117413021774696 -0.013212357639820779 -0.38585097200809676 25 31 29
0.8968026812040992 -0.013550788489360368 -0.3859001118383044 23 26 25
0.9645571593554044 -0.01819962748655994 -0.3853408843529429 176 182 180
0.8397466116928358 -0.01055907009625841 -0.3855609084319824 158 161 162
0.9024550473053067 -0.015224312555655308 -0.385663953361838 162 173 171
0.9024550473053067 -0.015224312555655308 -0.385663953361838 162 173 171
0.8992373321590733 -0.016375156450042117 -0.3859625105280123 32 23 18
0.8399192627845131 -0.018543426004594122 -0.3838357024657421 168 176 177
0.9657935358266859 -0.02940907442908905 -0.3880024969507184 41 47 49
0.8403894966654679 -0.020267015187114712 -0.38523179321355033 109 112 113
0.9031689544203588 -0.027856391739912372 -0.3854262364313951 159 167 166
0.8406606637956001 -0.02727117539832114 -0.3847482423398625 167 170 173
0.8412015617712694 -0.029710501910027796 -0.3844218247203303 80 83 84
0.8412015617712694 -0.029710501910027796 -0.3844218247203303 80 83 84
0.8396682047694856 -0.029929289010090884 -0.3842713439168428 94 97 98
0.9924392138126246 -0.044662194085865387 -0.3871723916552055 174 182 179
0.840436536003888 -0.030859071372459832 -0.38426331740955977 164 170 172
0.840411277213318 -0.03201748226022098 -0.3844710270967132 88 88 90
0.8403966468858687 -0.03304156013649513 -0.38438106437931613 169 175 175
0.8413217499645597 -0.03487094148736071 -0.38455731690414713 82 82 82
1.0033838770109926 -0.05116647022433777 -0.38549251559800113 176 182 182
0.8397129409773039 -0.035092798804377615 -0.3841598744125067 86 86 88
0.93985275235638 -0.047661100240877434 -0.3870932371247936 178 184 184
1.0047660162944256 -0.05694312518716854 -0.38738732906840484 175 181 179
1.0047660162944256 -0.05694312518716854 -0.38738732906840484 175 181 179
0.9306418253362585 -0.04983173789310905 -0.38614479370716415 173 181 180
0.9338378216053103 -0.05323634210269086 -0.3857978202025802 45 44 51
0.9303474137196053 -0.05634923658291513 -0.3853282433405643 40 39 39
0.8681366396081618 -0.05829332582698934 -0.38485484205026244 152 160 159
0.8649985423005557 -0.06153194320927792 -0.3848731213592108 23 27 22
0.9998884970752141 -0.08347022596713312 -0.387844159610646 27 33 33
0.912524974717359 -0.07409852969770074 -0.3848276903135458 22 25 24
0.9616689608623656 -0.08912417760835396 -0.38494860571763934 32 35 38
1.0059902261317581 -0.15192733971730038 -0.39360569059436473 27 30 29
0.9903729880301756 -0.15309491835428587 -0.3907183239819239 25 25 19
0.9904705861285429 -0.15639970361593228 -0.39449430917219197 14 14 10
0.9801466741925099 0.1144960996168184 -0.3797769167102934 37 43 45
0.9604888462817278 0.09656958364125184 -0.3801189704768627 43 32 25
0.9190795975621396 0.08340482045464537 -0.38029228503651236 188 196 195
1.0962553893328137 0.08897737467238565 -0.38542239763723546 106 102 103
1.0890341503865304 0.06420783488665398 -0.38265314161235814 147 150 149
0.9795383057806251 0.05411450071925408 -0.3787348934823537 35 43 42
0.9801617812954115 -0.006394335060701406 -0.377035811163613 36 42 44
0.9416601878374224 0.11369636080466768 -0.38326557942786754 38 46 47
0.9501723403961466 0.08511243035010424 -0.38248239926427163 36 36 38
0.8898229459672303 0.05881809707357054 -0.3823590400887245 34 40 42
0.9542060064059983 0.049565899629682185 -0.3820194690175143 42 41 41
1.0904916078893347 0.048268730690851865 -0.388342522401166 97 96 96
0.9554710500383886 0.03421442064929009 -0.38176727021144125 32 40 41
0.890536063863903 0.022630786414047425 -0.3829641215644122 34 37 38
0.8743168836156899 0.012393539983618343 -0.3833170856132015 191 194 195
0.9213061919438181 -0.007111106378345676 -0.38211406273211895 32 35 36
0.9824128224806871 -0.030521615015013343 -0.38123076869437955 42 48 50
0.9349683568221873 -0.043088831805702235 -0.3811842017902788 179 185 183
0.9824264350685026 -0.06123098081040504 -0.3808534276050038 188 188 188
0.9478400989889862 0.0903484001130155 -0.39213590783348046 44 44 44
0.9478400989889862 0.0903484001130155 -0.39213590783348046 44 44 44
0.9112505219953334 0.04753868175355006 -0.38665355722013023 38 37 39
0.9619255971524806 0.03493807446534922 -0.37788290767717264 40 46 48
1.1146322812856646 0.028144962012268647 -0.4039870039237885 131 139 136
0.8704148443965215 0.014323832863821422 -0.3801659372841255 34 37 40
0.8856877923162985 -0.005122863922201122 -0.3893510862770326 188 191 194
0.8980165399395191 -0.02982017366515317 -0.3886096539869248 181 184 187
0.8980165399395191 -0.02982017366515317 -0.3886096539869248 181 184 187
0.9497039765968219 -0.03488543250634 -0.3932823076188254 41 44 43
1.1050557956612157 -0.042498765745199 -0.39551520378590466 94 100 102
0.9552141995247433 -0.06583393484376429 -0.388772488298504 41 47 49
0.8723177355898756 -0.060714060825609546 -0.39109441910521753 34 34 38
0.9884170241685934 -0.0718768268685839 -0.39173645981540167 40 45 50
0.9176043231044317 -0.06663141960818672 -0.3898951430464397 31 34 33
1.013660154392236 -0.15626303027546273 -0.40033902911758473 25 24 24
0.9977655136518786 -0.15762619215532764 -0.39592984773746154 23 23 19
0.9895091507790696 -0.15897775927382693 -0.3955141627746357 21 21 17
0.9821891860904848 0.08905883791802878 -0.38655364565055145 55 63 62
0.9384210739995454 -0.047305079496838806 -0.3921486626768644 181 189 190
1.0093294573163627 0.09246192387675987 -0.39180687255180746 68 79 79
0.8780993099164102 0.06561134617349038 -0.3919713115555819 36 38 44
0.8823203557745933 0.0555797245924028 -0.38054242492875134 197 200 203
0.892758864052345 0.03127079321850809 -0.38069584047939714 58 42 39
0.8882788757513231 0.025207313983374644 -0.38026488534408226 191 197 199
0.9555337268895168 0.1019275523645462 -0.37521682138335316 49 44 42
0.9360966982144109 0.07492751816043039 -0.3742507472590359 48 44 47
0.939186301682988 0.053732584542064296 -0.3734437298532883 192 195 194
0.9723420693325532 0.04480931485458163 -0.39281234786543134 147 158 154
0.8810701694925882 0.02364759175836648 -0.37526710910964456 34 37 38
0.9602674443665332 0.034515798104579165 -0.39303903965958387 22 30 29
0.8862628600876679 0.017385038695925656 -0.3727948996794467 35 37 43
0.9390544251637013 0.013194304628854563 -0.392867375149703 169 172 171
0.9314368628987625 -0.05462344746945078 -0.39176291938289803 151 154 153
0.9672698439121822 0.10606388127907507 -0.39163857946736585 66 65 67
0.9648501498629474 0.10454644598090776 -0.3920497733844276 201 213 215
0.9648501498629474 0.10454644598090776 -0.3920497733844276 201 213 215
1.089861324512566 0.12606731268707533 -0.4003116289858333 140 143 144
0.8771670409240524 0.07167576960609678 -0.3909286061935155 45 44 46
0.9555769564404353 0.0427542469932526 -0.3784501827548941 184 187 186
1.0906225937173424 0.042738646448291354 -0.39487713790669127 108 114 116
0.9292763363183315 0.014565712231672705 -0.3908817507113238 192 198 198
0.9959647440380641 0.01146357586598914 -0.39201737302227924 75 75 79
1.1140619293602605 -0.02648669368351066 -0.40021787090392136 114 114 114
0.9962264300168813 -0.05188286207819628 -0.39069865922263025 57 62 67
0.9962264300168813 -0.05188286207819628 -0.39069865922263025 57 62 67
0.9441016841333895 -0.052791165736542287 -0.3928783759956844 182 190 191
0.9441016841333895 -0.052791165736542287 -0.3928783759956844 182 190 191
0.8798920901423875 -0.0528869464145863 -0.3909262904293924 186 189 192
1.0035156085903427 -0.15116618935313017 -0.3942779513991609 27 27 29
0.9356930808946421 0.1055445782179657 -0.3730753475487003 41 44 47
0.8630256888754456 0.06996964421924219 -0.3732859441092444 51 34 34
0.9395826944289477 0.07886597815860437 -0.3746414638748648 193 196 195
0.9395826944289477 0.07886597815860437 -0.3746414638748648 193 196 195
0.909741987378418 0.023265555730178994 -0.37234209935486495 195 203 204
0.9648836862414373 0.0976891388055579 -0.39247219655072707 59 48 43
0.9518242484575938 0.08923452296956148 -0.3892582674419272 197 203 205
0.9149897460481247 0.0828841207289242 -0.3913072736355905 40 39 41
0.8686075069196056 0.06897558315135141 -0.390430606398799 208 206 213
0.8686075069196056 0.06897558315135141 -0.390430606398799 208 206 213
0.8652037308185339 0.06352319524107349 -0.3893979915217898 201 201 205
0.8652037308185339 0.06352319524107349 -0.3893979915217898 201 201 205
0.9290019275200458 0.07255157129080021 -0.391020570284307 56 42 38
0.862373364915935 0.06040608341846436 -0.39008867674016773 41 40 42
0.963620600522999 0.07016958752550569 -0.38838362937039805 34 45 43
0.9952072404686402 0.07362631417877251 -0.3910713714749379 65 65 65
0.889736503888144 0.056525274510053146 -0.38660767114329814 35 38 39
0.9533370564920837 0.05861714260376215 -0.38907607677367606 40 48 49
0.9533370564920837 0.05861714260376215 -0.38907607677367606 40 48 49
0.9776321890611513 0.058586668493735956 -0.38985288689565756 55 58 59
0.9843524824682693 0.058750243004287626 -0.39058360001678843 194 202 203
0.9842045282922856 0.05386467989889904 -0.391023898324509 63 68 73
0.9599872377833629 0.04155507149558399 -0.3746013831266804 43 35 32
1.0813865163968075 0.059897125958719634 -0.40016238063856446 193 197 192
1.0872861183013691 0.058448763525992244 -0.3969166359705054 136 142 142
1.0820577984932873 0.04451965422254088 -0.39602071577865267 169 177 178
0.9674673519118872 0.030864331651985332 -0.3900277517068566 46 52 54
0.9467900035552451 0.02661717331086651 -0.3889355943757954 42 48 48
1.1040427168990274 0.04220204052964857 -0.3976937809545014 99 105 107
1.0996131295247484 0.029879737051951582 -0.3939472812369004 154 162 159
1.1086203238741754 0.027578174185178644 -0.3982011244346928 132 140 139
0.9373525075216133 0.011232491221325696 -0.39013362885332104 197 202 207
0.9373525075216133 0.011232491221325696 -0.39013362885332104 197 202 207
0.8786489730828922 0.005318410489348968 -0.38979207449029313 194 201 205
1.0959453543723947 0.017760500071668024 -0.39694228905634754 156 162 160
1.088907077779866 0.012924686231992633 -0.3973461232940818 111 111 113
1.0993169496155546 0.010615247477983644 -0.3976362277142 97 103 101
1.09613762521477 0.007467696620183487 -0.3964655612185691 148 159 157
1.0888182874735934 0.006687637867441837 -0.3964838325424426 124 127 130
0.8857721940792815 -0.004969879888748603 -0.3906338069590184 195 198 201
0.8916651812577325 -0.010860501702279387 -0.3902777264471237 196 196 200
0.8916651812577325 -0.010860501702279387 -0.3902777264471237 196 196 200
1.0981560934491554 -0.0015061660139017677 -0.3947833369766013 108 111 112
0.9167248484326367 -0.010229001107695519 -0.3901665522628891 191 197 199
0.9167248484326367 -0.010229001107695519 -0.3901665522628891 191 197 199
1.0957961018266356 -0.006048193670964855 -0.3953912663466595 161 169 168
1.0922340046409473 -0.008848967143446821 -0.39717293617988636 164 175 175
1.1034300371872663 -0.011001464618403437 -0.39863788542218853 104 111 115
1.1016578501831884 -0.014000316663101732 -0.39708824601697507 107 113 115
1.110218882573015 -0.013969233575043701 -0.3990502305177444 100 106 104
1.0832320872811263 -0.015503628200614034 -0.39689743109538456 110 113 116
1.0832320872811263 -0.015503628200614034 -0.39689743109538456 110 113 116
0.959814605921928 -0.021329002763296988 -0.3889528394032276 196 204 205
0.9659513820342248 -0.02124638410888418 -0.39108087484238246 191 199 200
0.9659513820342248 -0.02124638410888418 -0.39108087484238246 191 199 200
1.106512180569929 -0.018652552925954014 -0.4023191405822866 107 107 109
1.092919427724848 -0.01942879486414967 -0.39744421427199284 159 170 168
1.0996154751271106 -0.02517690090132453 -0.39997462615121043 160 171 171
0.961198912215255 -0.028250272721242562 -0.3905315703561015 189 200 200
0.961198912215255 -0.028250272721242562 -0.3905315703561015 189 200 200
0.961198912215255 -0.028250272721242562 -0.3905315703561015 189 200 200
1.085888636668252 -0.02620277325814111 -0.39668365513891884 165 178 175
0.9495857156369908 -0.035307301106038406 -0.39271611958787256 40 46 46
0.9495857156369908 -0.035307301106038406 -0.39271611958787256 40 46 46
1.1061611354728957 -0.03444541316303422 -0.40046146826040196 107 107 109
0.8919627394195131 -0.0364152064984721 -0.3904266770213231 189 195 197
0.8919627394195131 -0.0364152064984721 -0.3904266770213231 189 195 197
0.955411032296217 -0.040736408425487904 -0.3917388472102678 40 46 48
0.955411032296217 -0.040736408425487904 -0.3917388472102678 40 46 48
1.1135384614879873 -0.0406517693009153 -0.3990276810003085 108 107 109
1.1073439058603187 -0.04243346501987227 -0.39913644209609855 137 145 146
1.0954581110785815 -0.043940451738314554 -0.39746696003659726 119 119 121
1.0839946529315863 -0.05082380582961083 -0.3937354134092449 152 160 159
1.0813452700038668 -0.05396474023434045 -0.39594571137048695 147 154 158
1.0909100843084811 -0.055218555092804864 -0.39578384441953224 149 157 156
0.9419917456855944 -0.0554768182167784 -0.3908101850565806 45 44 48
0.9419917456855944 -0.0554768182167784 -0.3908101850565806 45 44 48
0.9344150244678665 -0.055916734140191195 -0.39056598421345073 57 51 57
1.081438139745982 -0.05990285956004703 -0.39605085366224346 146 154 155
1.08900317982475 -0.06189279292701907 -0.3986502110337809 132 138 138
0.886437577293728 -0.06763307002515304 -0.38942841930842653 184 190 192
0.9179838579333344 -0.07270702563452991 -0.39055591661005773 182 188 188
0.9081082575850883 -0.07081803698098812 -0.3635782812753812 168 179 177
0.886850940715114 -0.07324551627399226 -0.3902439308612668 30 30 30
0.974057499037929 -0.0820760608343047 -0.3917908303268921 61 57 60
0.8996663071381434 -0.08011395854184669 -0.3904610508905328 186 189 188
0.9689516782145716 -0.0860867659946226 -0.3902708596147292 193 199 201
0.9043788296772121 -0.08385780703749833 -0.390370762707854 34 33 35
0.9741937379683662 -0.09302894273157741 -0.39086336521756804 49 51 57
1.0163512819254017 -0.15286889409363394 -0.3910161370733051 23 23 19
0.8770415741602297 0.10342455039317003 -0.36965608591830224 33 33 33
0.9617467848793876 0.08446510431295323 -0.3679430354097714 50 50 50
0.9332202247616328 0.05480844694527627 -0.3680955759490379 41 44 43
0.9332202247616328 0.05480844694527627 -0.3680955759490379 41 44 43
0.9135486709207369 -0.07488252621021702 -0.38967914659872616 25 28 29
0.8404308168906442 0.030784903580123518 -0.38919373026601506 91 90 92
0.953453928004884 0.02859651850498756 -0.38845496158077675 144 159 154
0.8402025034832409 -0.005320772150383921 -0.3901228929005727 150 149 158
0.9169678096036831 -0.008237491166684648 -0.38891037619847696 138 149 147
0.8389831342617273 -0.01795958095336665 -0.38814233684408594 97 103 103
0.904594121168286 -0.028402134211269896 -0.3916293299869815 150 158 157
0.8719174318156963 -0.05806903635249404 -0.38906131090154267 22 22 26
0.8930702881369863 -0.07057815402271339 -0.38968085576013367 148 151 150
0.8725529001543736 -0.08537456823723041 -0.3877529174168889 11 17 15
0.8368106436684696 0.05704615947028229 -0.38994489752787825 183 186 187
0.978772457176192 0.029277257106157657 -0.389023434663626 147 165 159
0.8397096121997369 0.13482922928727725 -0.391388669326551 195 194 194
0.8385007753972367 0.07669426925174262 -0.3875408386130322 181 181 181
0.8630348970212648 0.06165345208855965 -0.3884416742671307 30 31 27
0.8390905806844982 0.04863580203763814 -0.3882066154274358 133 132 132
0.8909372506984148 0.05279286143827937 -0.388354908333235 144 159 158
0.8390562816631315 0.041103409934549376 -0.3890325337842605 194 193 200
0.9780239570084723 0.05508572570552059 -0.3888123382183392 153 166 161
0.9125653498340792 0.03138675245687245 -0.3880262836637749 17 20 19
1.0057429890385576 0.038733276339998235 -0.3865461081882049 50 61 59
0.9917173973272987 0.0214346907658499 -0.3938233719054389 48 56 57
0.8666077501097142 0.0062574167444644346 -0.38860682376264394 140 155 154
0.984905923457592 -0.001839238223634018 -0.3882127989511018 156 169 166
0.984905923457592 -0.001839238223634018 -0.3882127989511018 156 169 166
0.9798300703830544 -0.0038325267762681554 -0.3868749195272137 36 44 43
0.9829148403663808 -0.005808414458611089 -0.3877368853655177 43 45 51
0.8395874970479256 -0.016862949282619256 -0.38812703726540737 155 161 163
0.9580524366308943 -0.011114345403260254 -0.3894124694385314 42 44 50
0.8399927112087441 -0.018825488900847804 -0.38804280592635115 150 163 160
0.899396534961586 -0.01649667734284675 -0.38848523530647405 27 24 21
0.83791877238601 -0.020535349838105198 -0.38958947851918674 167 170 171
0.9714965048092755 -0.015143560045408075 -0.38801844894780124 35 41 41
0.9714965048092755 -0.015143560045408075 -0.38801844894780124 35 41 41
0.9620868998209947 -0.022200891208717214 -0.3886086591669517 25 33 34
0.8402900873653566 -0.029837973521698362 -0.38872176266974395 122 122 124
0.9705479440457421 -0.025614916159443855 -0.3882386994414429 182 190 189
0.9609841879022172 -0.026159451556305797 -0.3888287078910632 177 185 184
0.9685003427949644 -0.026131388554074708 -0.388530247600809 155 163 162
0.9685003427949644 -0.026131388554074708 -0.388530247600809 155 163 162
0.8414234284923449 -0.03527019386215717 -0.3885948395168374 79 75 76
0.9851280198360332 -0.03285342480699984 -0.3886796678020051 34 42 41
0.9395031168944207 -0.047986959693562745 -0.3889867127002384 141 149 148
0.9919640587430424 -0.04861683477630308 -0.3885551312698295 166 174 171
0.9951312170238756 -0.049455942794897755 -0.3881091749978947 45 48 49
1.0040984468843073 -0.05172474488334551 -0.38841456847198563 168 174 172
1.0043847920055915 -0.05171568692340898 -0.3889478128180773 168 174 172
0.9922258783517236 -0.05668422632549197 -0.3886223817292611 179 185 183
0.9921912842941496 -0.05668897404867941 -0.388763643243623 170 176 174
0.9922258783517236 -0.05668422632549197 -0.3886223817292611 179 185 183
0.9998418782375764 -0.05726048371128464 -0.38909578567764985 181 187 187
0.8683458935914756 -0.05885172880099645 -0.3885277047535546 166 177 177
0.9586962636178248 -0.07290360756975198 -0.389410163252694 25 28 29
0.8628715074307234 -0.07259850089650234 -0.38988381159564667 16 20 15
0.8998007879148127 -0.07749819680179111 -0.38877338651860577 168 176 175
0.903667772916814 -0.07829226352624437 -0.3894400497564736 22 23 19
0.8858195270614183 -0.09513728108183585 -0.38844118237978503 21 24 23
0.8387071691936334 0.10755704941877749 -0.38947788815168416 189 189 191
0.8383997458698129 0.08525730323377399 -0.3891984137729373 184 183 183
0.8790405275053299 0.07825919094075748 -0.38950579685619346 22 25 24
1.0055329985379884 0.06445686340634044 -0.3885908195929276 66 77 77
0.9721077835147506 0.049966314272351216 -0.38954831106382987 37 43 45
0.8642342168722673 0.01828773167020222 -0.3898777006185106 27 30 31
0.9052476988452482 0.009727450918373784 -0.39225253957194106 14 20 18
0.8795890049295207 0.0016774474926731153 -0.389407225776987 21 24 23
0.9018530397362556 -0.02487399584165191 -0.38950674290128984 162 166 161
0.8368483096908642 0.14363134103296601 -0.3913425065358888 113 109 110
0.838698709870793 0.1155320707712028 -0.3926869196530109 133 127 129
0.8377434413775877 0.11507825948782206 -0.39250435125726246 197 193 194
0.8378395465645797 0.11301201459848655 -0.389765511624864 179 175 178
0.8377573287402265 0.11256701771262753 -0.38982647242809104 190 189 191
0.9449947942345641 0.11559010164866296 -0.38922974803003135 36 42 42
0.8375585404498603 0.0738681635181888 -0.389687596377547 118 117 117
0.8737538050964271 0.07677353693123616 -0.39018396918749165 38 38 38
0.8385571884377755 0.06603585974163104 -0.38943406347683945 178 178 178
0.8385571884377755 0.06603585974163104 -0.38943406347683945 178 178 178
0.9885761851462724 0.08369371971885681 -0.3908291949638482 61 67 69
0.8396264609118903 0.047108032315190035 -0.3895752494387629 119 118 120
1.0101204221658544 0.055242366725251325 -0.39065798360783277 59 70 70
0.8414443477547797 0.03611076916008927 -0.38798959049637005 178 181 182
0.9055306243361091 0.03816364514830237 -0.38944882872369696 32 35 34
0.8398543878046281 0.022797509213501408 -0.39024744797197203 162 161 161
0.8735766221143052 0.016714718541083647 -0.39067834879879293 23 26 25
0.880283298183217 0.015974545644445698 -0.39092323453586464 21 24 23
0.8420769765304141 0.012781329664234344 -0.38996676769591726 172 175 176
0.8405247219475445 0.010902952238479176 -0.38947604980629263 83 83 79
0.8387204522257491 0.01077843513163423 -0.38956796981302017 97 105 104
0.8400475738026003 -0.0034393635130421847 -0.39058237504794246 156 163 167
0.8392575568075833 -0.01033428512256069 -0.3900010626937676 99 95 98
