# 3D point list with one line of data per point:
# POINT3D_ID, X, Y, Z, R, G, B, ERROR, TRACK[] as (IMAGE_ID, POINT2D_IDX)
# Number of points: 434, mean track length: 2.1364749082007344
526 0.9261204943306381 0.018935213843560474 -0.39317799905653245 30 36 38 0.13911629450946167 3 1441 10 742
527 0.9959077868715382 0.008449728404287479 -0.3923443049486291 66 68 74 0.056687374671926256 3 1475 10 812
528 0.8740986419232205 0.01120267909131702 -0.39234171428716036 164 175 173 0.09524609845954857 3 1476 10 758
529 0.8740986419232205 0.01120267909131702 -0.39234171428716036 164 175 173 0.09524609845954857 3 1477 10 759
530 0.9929779070207899 0.0056422956269650175 -0.39303828041893873 52 52 56 0.023715944099134863 3 1487 10 828
531 0.9929779070207899 0.0056422956269650175 -0.39303828041893873 52 52 56 0.023715944099134863 3 1488 10 829
532 0.9988261605026296 0.0053255752787865224 -0.39273156171919127 185 191 189 0.08748220627191357 3 1489 10 830
533 1.0052612430503913 0.0032211363709154215 -0.3919429467643808 57 65 66 0.026682135956631176 3 1492 10 843
534 0.8781369168613088 0.006629200039199632 -0.39245953548688584 163 171 170 0.07495166194922673 3 1493 10 788
535 0.9905089878711997 0.0024115522163394637 -0.3929578792333902 49 56 60 0.10316192435954238 3 1496 10 846
536 0.9905089878711997 0.0024115522163394637 -0.3929578792333902 49 56 60 0.10316192435954238 3 1497 10 847
537 0.9905089878711997 0.0024115522163394637 -0.3929578792333902 49 56 60 0.10316192435954238 3 1498 10 844
538 0.9275762579461716 0.001598147353231602 -0.3934999389436968 31 34 35 0.05985938080426072 3 1509 10 832
539 0.8360841168774664 0.004479868120756516 -0.39255611491763054 172 178 178 0.12301862974646324 3 1516 10 785
540 1.0094026976080746 -0.010109638860612013 -0.39407649139172185 47 53 55 0.0518408286776644 3 1548 10 912
541 0.9544476812874033 -0.00833157393356263 -0.39333142395643117 186 189 190 0.11580587575881379 3 1550 10 895
542 0.8394731977241894 -0.006018623019660134 -0.39238621640247145 109 108 110 0.04622700452398097 3 1559 10 851
543 0.9731263508742949 -0.019349714068076913 -0.3930467036338188 185 191 191 0.06559440701637197 3 1586 10 960
544 0.9731263508742949 -0.019349714068076913 -0.3930467036338188 185 191 191 0.06559440701637197 3 1587 10 961
545 0.8979748608183752 -0.020127099917993392 -0.39309725144969965 160 171 169 0.07816763489637979 3 1605 10 946
546 0.8978417226897278 -0.02881729605249065 -0.3927460271898913 160 166 164 0.03464570197443994 3 1636 10 987
547 0.8978417226897278 -0.02881729605249065 -0.3927460271898913 160 166 164 0.03464570197443994 3 1637 10 988
548 0.9794879242010162 -0.03425069514578215 -0.39259019232889053 187 190 189 0.040662066036901486 3 1639 10 1034
549 0.9863356346134952 -0.03932791850925664 -0.39321927095272996 192 192 192 0.002277951601393687 3 1653 10 1057
550 0.9863356346134952 -0.03932791850925664 -0.39321927095272996 192 192 192 0.002277951601393687 3 1654 10 1056
551 0.8389032397310119 -0.03328890948482761 -0.39248488990284464 109 109 109 0.033496104708779055 3 1670 10 1005
552 0.8389032397310119 -0.03328890948482761 -0.39248488990284464 109 109 109 0.033496104708779055 3 1671 10 1006
553 0.9925788078088668 -0.049994343232114984 -0.3924472138843309 183 189 189 0.0574262099611504 3 1693 10 1100
554 0.9398491435023457 -0.04941552754795598 -0.39387764083679105 172 175 174 0.10456951415823296 3 1701 10 1099
555 0.997231292759306 -0.05397578220524478 -0.39274244574951567 187 190 189 0.07881470288384869 3 1702 10 1123
556 0.9308671182008204 -0.05167539778754979 -0.3934704992045927 163 167 162 0.07555178369608337 3 1710 10 1107
557 0.9969105082140662 -0.05770751355238697 -0.3928731305104142 49 47 58 0.07488735366894146 3 1712 10 1150
558 0.9928694278787438 -0.05832383259042342 -0.39283019650693085 184 191 185 0.042941548333156145 3 1715 10 1156
559 0.9928694278787438 -0.05832383259042342 -0.39283019650693085 184 191 185 0.042941548333156145 3 1716 10 1158
560 1.0000618972626172 -0.05888359999591722 -0.3924102558031493 185 188 191 0.0737061453851566 3 1717 10 1161
561 1.0000618972626172 -0.05888359999591722 -0.3924102558031493 185 188 191 0.0737061453851566 3 1718 10 1162
562 0.9365912487739841 -0.05510036661826711 -0.39274875932046055 176 182 180 0.11572564460782588 3 1720 10 1137
563 0.9897373503016659 -0.06179421523979826 -0.3926499554836857 41 40 47 0.12896500708701444 3 1730 10 1177
564 0.9437799638091394 -0.060738206016013804 -0.3929444117167594 30 36 36 0.4528627207597285 3 1734 12 930
565 0.9714652298590906 -0.07842950463081327 -0.393127251563798 187 190 189 0.07631215527094462 3 1785 10 1250
566 0.9656239465063574 -0.08198744578620698 -0.3926386583222415 47 46 46 0.12684542858101835 3 1792 10 1264
567 0.9656239465063574 -0.08198744578620698 -0.3926386583222415 47 46 46 0.12684542858101835 3 1793 10 1265
568 0.9731685841587029 -0.08689315295904988 -0.393214776952925 38 37 46 0.06971383560954829 3 1807 10 1275
569 0.9737992639194561 -0.08986111635943775 -0.3928943755971548 184 192 193 0.13694707966407194 3 1812 10 1280
570 0.9737992639194561 -0.08986111635943775 -0.3928943755971548 184 192 193 0.13694707966407194 3 1813 10 1281
571 0.7797872221035452 0.08835678359216705 -0.40483387662496384 54 54 54 0.11510778969022395 3 1074 26 438
572 0.8376520776643493 0.08313743729068378 -0.39903750681018174 180 182 188 0.02872792580014882 3 1116 26 546
573 0.8387054206121541 0.07053875749297578 -0.39980681250740346 124 127 128 0.04845472631605373 3 1195 26 593
574 0.8703078222650275 0.06732581987225791 -0.40062996933625505 178 181 182 0.058018470390529736 3 1223 26 691
575 0.8395375905629919 0.057611534852699146 -0.399379003034029 112 112 112 0.08449979176847329 3 1275 26 683
576 0.838458043196119 0.05184260537500983 -0.39956764556884966 114 114 116 0.02211196897297851 3 1303 26 710
577 0.838458043196119 0.05184260537500983 -0.39956764556884966 114 114 116 0.02211196897297851 3 1304 26 711
578 0.8380182351066725 0.03376588115848186 -0.39994583176710097 121 117 120 0.07902271677263531 3 1370 26 818
579 0.838479499218428 0.030346905375597803 -0.39974656103705863 100 100 102 0.1095801722306507 3 1393 26 839
580 0.8627005594305681 0.028785324075252784 -0.4032655479983915 22 28 26 0.12665174368739548 3 1400 26 894
581 0.839377504080928 0.015704422985271915 -0.4001019885700721 176 184 185 0.058992183248550156 3 1453 26 925
582 0.8690593105496495 0.0068296896197081475 -0.40180598412314206 171 179 180 0.1144724327614868 3 1491 26 1031
583 0.9006255848684045 -0.02791803913547252 -0.4013105872466287 158 169 167 0.0972620236877566 3 1625 26 1265
584 0.8692178379264311 -0.05779292159093214 -0.38485818531789223 37 36 40 0.10201384521349632 3 1755 31 2189
585 0.9416702912492579 0.11429673018582627 -0.38581145640533093 39 44 49 0.13382496225771348 3 1003 31 873
586 0.958662571149277 0.1070687421586042 -0.38231514350544094 52 52 54 0.07949501126857564 3 1029 31 894
587 0.9432323840443745 0.08454611749566118 -0.3851932547570189 184 190 188 0.04261986554982369 3 1120 31 1111
588 0.8758956954220204 0.07691022863124027 -0.38525791265011744 34 37 38 0.39957781491228583 3 1145 31 1238 28 606
589 0.9901637076748594 0.07308661130602459 -0.38289792747316553 67 73 75 0.1328354595222615 3 1197 31 1126
590 0.9907806405460391 0.06658962279798543 -0.383844675435316 188 191 190 0.019284907238946505 3 1238 31 1179
591 0.9231156390796622 0.06340012616625673 -0.38445607076742955 30 33 34 0.11896162530303307 3 1249 31 1279
592 0.9129056852079535 0.05301792672444901 -0.38568862405495735 190 196 198 0.024991213766118205 3 1294 31 1372
593 0.9058200573041484 0.04396672083213548 -0.38572593316849324 29 32 33 0.1325805721651969 3 1325 31 1445
594 0.8991334346449574 0.03834381674325575 -0.38545040113683254 191 197 199 0.00888329024104603 3 1347 31 1491
595 0.956933884062535 0.0358867639473225 -0.3852083531803778 45 33 33 0.004875623886226359 3 1354 31 1427
596 0.956933884062535 0.0358867639473225 -0.3852083531803778 45 33 33 0.004875623886226359 3 1355 31 1428
597 0.8924607989248213 0.033030542486140096 -0.38384961341169627 88 69 67 0.12350591824759671 3 1371 31 1530
598 0.8924607989248213 0.033030542486140096 -0.38384961341169627 88 69 67 0.12350591824759671 3 1372 31 1531
599 0.8988220149868568 0.031429112373592104 -0.38516988828914905 35 38 37 0.027624484683278248 3 1383 31 1539
600 1.0010980173257753 0.01849510898497895 -0.38578076932289246 43 53 56 0.07401546651569192 3 1439 31 1483
601 0.9379602558528845 0.016444077504788573 -0.3854146144594402 185 198 195 0.13846252418848168 3 1447 31 1576
602 0.9347152013292737 0.012761461518589434 -0.3879253705997718 189 195 195 0.07707611702944556 3 1460 31 1610
603 0.962250087797062 0.010173550464008658 -0.386064249525964 26 32 30 0.07255736774985651 3 1470 31 1588
604 0.962250087797062 0.010173550464008658 -0.386064249525964 26 32 30 0.07255736774985651 3 1471 31 1589
605 0.9874105337917681 0.0091508462278412 -0.38512535603850734 188 196 195 0.11694623072430486 3 1472 31 1555
606 0.8392875425459857 0.012521482333545296 -0.384521543736497 195 198 199 0.11064889984584853 3 1474 31 1774
607 0.9299293938073673 0.008140901502398759 -0.38535963896807335 51 50 54 0.01904394216009693 3 1482 31 1642
608 0.9299293938073673 0.008140901502398759 -0.38535963896807335 51 50 54 0.01904394216009693 3 1483 31 1643
609 0.8377586854178268 0.010678502595956839 -0.385762134215958 125 125 129 0.06450768901393907 3 1484 31 1798
610 0.9298679883189747 0.0039574298218100715 -0.38532552176909973 182 190 189 0.04885653653133049 3 1502 31 1669
611 0.8635563960669835 0.005881527816512536 -0.3852192021519123 186 192 192 0.07964972158875645 3 1504 31 1778
612 0.8635563960669835 0.005881527816512536 -0.3852192021519123 186 192 192 0.07964972158875645 3 1505 31 1779
613 0.924286978006854 0.00212247203591366 -0.3856536112181332 33 39 39 0.06472715266368989 3 1511 31 1692
614 0.836352524826655 -0.0012158963171783428 -0.38602497132239033 122 118 123 0.11207201221567797 3 1540 31 1905
615 0.8362414860086829 -0.005576430568487884 -0.386481633267002 189 189 193 0.09207965621234046 3 1560 31 1959
616 0.9566164535687227 -0.014082572434733754 -0.38525727049974273 184 192 191 0.0035976684252535312 3 1571 31 1755
617 0.9678830057027276 -0.01541798480633606 -0.38520043543400656 47 47 49 0.016542021191691746 3 1573 31 1749
618 0.9593189276093963 -0.01653390544505313 -0.3854755537151948 188 194 194 0.04468579460678255 3 1580 31 1773
619 0.8370232364540324 -0.010583876569670974 -0.3861996050249586 178 174 179 0.04002339902228896 3 1583 31 1989
620 0.8962585851671937 -0.016459713862865932 -0.38559434101635714 51 40 44 0.05636670607593048 3 1598 31 1902
621 0.8962585851671937 -0.016459713862865932 -0.38559434101635714 51 40 44 0.05636670607593048 3 1599 31 1903
622 0.9542041458407007 -0.022202759700570358 -0.38544612917076077 38 41 44 0.01652501474718207 3 1606 31 1831
623 0.9035071823160495 -0.022595402077917468 -0.38620478068144287 181 189 188 0.13085153692835774 3 1614 31 1949
624 0.83893121058609 -0.025300635368465652 -0.38668590060412467 132 128 131 0.036250735211797676 3 1640 31 2084
625 0.83893121058609 -0.025300635368465652 -0.38668590060412467 132 128 131 0.036250735211797676 3 1642 31 2085
626 0.9506767261841887 -0.03326790006214317 -0.3849561727575424 186 189 188 0.013741875258935117 3 1645 31 1933
627 0.9506767261841887 -0.03326790006214317 -0.3849561727575424 186 189 188 0.013741875258935117 3 1646 31 1934
628 0.9200426576275589 -0.03348076966728332 -0.3855302036970077 35 38 39 0.12923614131962669 3 1650 31 1993
629 0.8892981492926746 -0.03422858517941917 -0.385798297650796 186 186 186 0.12827135277319374 3 1659 31 2060
630 0.9509159221278219 -0.03847483207676461 -0.38535037574613595 31 34 37 0.03117295315681304 3 1661 31 1975
631 0.9509159221278219 -0.03847483207676461 -0.38535037574613595 31 34 37 0.03117295315681304 3 1662 31 1976
632 0.9849883829776638 -0.04132259630762284 -0.38517609271119724 40 45 50 0.06978087731641892 3 1667 31 1922
633 0.8388402213978282 -0.035085046557412035 -0.38659754797500756 106 99 108 0.125082102936157 3 1681 31 2140
634 0.8836171721271441 -0.03979661533987715 -0.3866255996690902 187 187 187 0.017534404126003954 3 1686 31 2095
635 0.9387734442521923 -0.04516243285851771 -0.38600840480815135 183 191 190 0.08748550353080481 3 1695 31 2045
636 0.9387734442521923 -0.04516243285851771 -0.38600840480815135 183 191 190 0.08748550353080481 3 1696 31 2044
637 0.9339809630312893 -0.04492016395191705 -0.3860850953102979 179 185 183 0.04602830645576876 3 1697 31 2053
638 0.9339809630312893 -0.04492016395191705 -0.3860850953102979 179 185 183 0.04602830645576876 3 1698 31 2054
639 0.9306862989598027 -0.04619179700551042 -0.38508414298930843 48 47 47 0.11203045934926724 3 1699 31 2065
640 0.9306862989598027 -0.04619179700551042 -0.38508414298930843 48 47 47 0.11203045934926724 3 1700 31 2066
641 0.9392017041038984 -0.050320064251611285 -0.3855168583124121 179 182 183 0.12161514953282873 3 1708 31 2072
642 0.9392017041038984 -0.050320064251611285 -0.3855168583124121 179 182 183 0.12161514953282873 3 1709 31 2073
643 0.9381635022475036 -0.05283477199435178 -0.38588974340059656 51 50 54 0.07775411896318404 3 1719 31 2086
644 0.9406297023259849 -0.05476745390145902 -0.38631808745895724 27 33 31 0.024078144185349627 3 1725 31 2093
645 0.8771264723498687 -0.050445756634733156 -0.386473759615209 185 185 185 0.11670681241946625 3 1728 31 2153
646 0.9546769913188481 -0.07246018252649396 -0.38547394461018164 32 37 42 0.139907585047461 3 1776 31 2151
647 0.9546769913188481 -0.07246018252649396 -0.38547394461018164 32 37 42 0.139907585047461 3 1777 31 2152
648 0.96901114163303 -0.07912966624099042 -0.3850816367785758 41 43 51 0.13430181940080538 3 1789 31 2160
649 0.9000475204909646 -0.07363371539994475 -0.3860685698782795 27 30 31 0.055289893733809166 3 1796 31 2213
650 0.9044148152425547 -0.07693693466746415 -0.3862492428053558 178 178 178 0.11771538265931782 3 1804 31 2217
651 0.969162700207686 -0.08423085166757578 -0.3857668233897388 45 44 46 0.06969405272012007 3 1806 31 2179
652 0.9589933559414726 -0.08339412682757444 -0.3855843219811429 183 183 183 0.024476215819292522 3 1809 31 2186
653 0.8967067268133352 -0.07714997760869693 -0.3863541623378128 177 180 181 0.024540144575722463 3 1810 31 2225
654 0.8701898865806806 -0.08519940170117206 -0.38722975574026886 22 25 24 0.08858692580558258 3 1827 31 2238
655 0.9993614942285987 -0.1545601059387614 -0.39192563115525914 16 17 13 0.11293591572037276 3 1877 31 2296
656 0.9773686311128195 0.11202630567121366 -0.37772815426295797 37 43 45 0.045378780124075514 4 1257 31 843
657 0.9766247919808675 0.08204402590355497 -0.3769134144241954 193 199 199 0.05662005563578443 4 1436 31 1052
658 1.0926910854559877 0.08619493683506785 -0.38297136346204685 106 102 103 0.09678354967613101 4 1468 31 914
659 1.085447272925476 0.0615739777312921 -0.3801805410388542 147 150 149 0.12796643159363802 4 1630 31 1095
660 0.9469543725446571 0.05149446736418485 -0.3775360482285316 192 200 199 0.09824104538749136 4 1671 31 1309
661 1.0881010275980536 0.10216911995229028 -0.3838531930561329 98 95 92 0.06349806401199509 5 1414 31 827
662 1.0804663978808502 0.08512271006632396 -0.3838030277943493 86 86 86 0.058325322051673435 5 1513 31 934
663 0.8920671314541336 0.0464317786513373 -0.38090498376731446 34 37 40 0.045870003765845914 5 1739 31 1437
664 0.8920671314541336 0.0464317786513373 -0.38090498376731446 34 37 40 0.045870003765845914 5 1740 31 1439
665 1.086664811642528 0.045647946712851835 -0.385508982162417 97 96 96 0.039598452678055056 5 1758 31 1211
666 0.8878758822679602 0.020747038141690342 -0.38066669941918185 34 37 38 0.07207443685087966 5 1917 31 1620
667 0.9818537157177625 0.019079264891208793 -0.3790462690541388 40 50 55 0.09711468247452879 5 1920 31 1501
668 0.9791255121996008 -0.0324162074536505 -0.37858859280230145 42 48 50 0.03885093590534831 5 2249 31 1860
669 0.8729536534768653 0.009581743988870751 -0.3720604115524128 28 34 36 0.05074600069539482 7 1211 10 743
670 0.9275514596438412 -0.04927437027693773 -0.37748026590588646 54 45 50 0.03487151872373117 6 1854 10 1095
671 0.8748665861916451 -0.05982363883988403 -0.39130504693312235 180 183 186 0.02776005168928076 6 1960 7 1760
672 0.8748665861916451 -0.05982363883988403 -0.39130504693312235 180 183 186 0.02776005168928076 6 1961 7 1761
673 0.9151076663057252 -0.06853010189973699 -0.38890966810941513 31 34 33 0.07248135538445853 6 1997 7 1819
674 0.9151076663057252 -0.06853010189973699 -0.38890966810941513 31 34 33 0.07248135538445853 6 1998 7 1820
675 0.9751147018388012 0.08435096827766492 -0.37693611755260487 41 49 48 0.1114689112532529 6 890 10 372
676 1.0139551241682756 0.0932566279727174 -0.4010656170534793 68 79 79 0.057477940911819146 6 901 8 635
677 0.9102594159386871 0.04621690682260601 -0.3893484783318662 38 37 39 0.024878004954816034 6 1133 8 860
678 0.9995478048688762 -0.1497525402914102 -0.39397932022867366 26 25 25 0.11411033109642571 6 2198 8 1959
679 0.9568368762666661 0.1028950170153275 -0.37982546962800773 49 44 42 0.05175497868320168 6 721 10 275
680 0.9597310630844736 0.10037350411713947 -0.37968858473070555 48 42 46 0.09551250466329518 6 741 10 286
681 0.9597310630844736 0.10037350411713947 -0.37968858473070555 48 42 46 0.09551250466329518 6 742 10 287
682 0.9047802010850681 0.08872434646523035 -0.37982444631098833 64 71 77 0.01340694443506333 6 778 10 314
683 0.906776659150531 0.08815353162495919 -0.3801104298859728 44 43 45 0.018960674873364957 6 789 10 321
684 0.910265953630734 0.08457311323761858 -0.3799769078498375 196 202 204 0.13871273154395147 6 817 10 338
685 0.910265953630734 0.08457311323761858 -0.3799769078498375 196 202 204 0.13871273154395147 6 818 10 339
686 0.9632070658441659 0.08542972570589542 -0.3729474049615671 50 50 50 0.21510086152051053 10 352 7 675
687 0.9667979185606411 0.08856495082342583 -0.37910745086957676 50 50 50 0.02067530431456795 6 854 10 353
688 0.9098929493469965 0.07840593278301675 -0.3800580773254202 37 37 39 0.09935582119996737 6 876 10 365
689 0.9098929493469965 0.07840593278301675 -0.3800580773254202 37 37 39 0.09935582119996737 6 877 10 366
690 0.9751147018388012 0.08435096827766492 -0.37693611755260487 41 49 48 0.1114689112532529 6 891 10 373
691 0.9372626511579052 0.0759208563398299 -0.3797490786987947 48 48 52 0.10254104220427727 6 922 10 404
692 0.9869518869991742 0.06946168133393117 -0.37252319185924687 60 59 61 0.15861037634314767 10 451 7 832
693 0.9869518869991742 0.06946168133393117 -0.37252319185924687 60 59 61 0.15861037634314767 10 452 7 833
694 0.9222939653296853 0.06483138397937642 -0.37965084398539095 195 201 203 0.1111199870501581 6 1012 10 454
695 0.9928662912353676 0.06666795731157417 -0.37246197996463143 67 70 73 0.08494685284574571 10 477 7 863
696 0.9369204701563185 0.05767443075907628 -0.3788698614436011 44 44 46 0.00708110243202518 6 1067 10 509
697 0.9885767170110885 0.05922163470651357 -0.3713596210391259 195 195 195 0.12877597899149396 10 513 7 922
698 0.9403310353961768 0.054244652880591465 -0.3787698778756938 195 203 204 0.03489927768149554 6 1087 10 528
699 0.8806330082213409 0.04802586454872129 -0.38103072119777986 33 33 35 0.036869284952988635 6 1097 10 540
700 0.9105554806270193 0.04855265182014233 -0.3795992111971073 195 200 205 0.13881219462879266 6 1110 10 548
701 0.9141276368534094 0.0458151707193245 -0.37353835477992314 39 41 47 0.06515442645352279 10 553 7 968
702 0.8909828900951781 0.04339931803791532 -0.37997677043401845 35 38 39 0.08954950834313992 6 1135 10 567
703 0.8965114767263572 0.030409238011441592 -0.3791409623612271 58 49 54 0.140163720828496 6 1231 10 629
704 0.8964825649299385 0.027226801592141154 -0.3790915485040157 39 38 40 0.017640621031519633 6 1263 10 653
705 0.9044386087867787 0.02473542486503734 -0.3719500542136647 39 39 41 0.07197196192997365 10 664 7 1106
706 1.0008237214066225 0.02560499953696753 -0.3790658961476013 72 83 83 0.05365825904036184 6 1308 10 709
707 0.9307650458432414 0.008513703497294257 -0.37895478054142223 190 196 198 0.09016866704869984 6 1398 10 773
708 0.9274503877292646 0.006658602326860841 -0.37182852228110336 193 196 195 0.04898583676647034 10 775 7 1256
709 0.9227502834709778 0.004061572026887956 -0.3782597829165259 185 193 194 0.04712512078101534 6 1432 10 799
710 0.9296523038576323 0.00333419188756616 -0.37776172686588927 187 195 194 0.010225728460838166 6 1440 10 806
711 0.9032840559410372 -0.018455542084811472 -0.37107366233179745 32 38 40 0.014254915104603198 10 914 7 1426
712 0.8940574843997298 -0.02417762586537246 -0.3700424241863594 58 48 58 0.18167664373196038 10 950 7 1476
713 0.8903180159169194 -0.0337194381629529 -0.3780281459362384 38 38 42 0.01170046702703283 6 1752 10 1007
714 0.929989266035881 -0.047765374904289205 -0.37703847782341376 181 189 190 0.0269401806041226 6 1848 10 1087
715 0.8664488510506638 -0.057717649806031904 -0.3764035617214795 180 183 184 0.09405873378057676 6 1963 10 1144
716 0.898539600861544 -0.0802553922741146 -0.39079920555748165 162 170 167 0.24898062397608917 15 1444 17 1260 18 1060 16 1273
717 0.9721170448676952 0.10424140788343644 -0.3710428137231019 41 44 47 0.0308968677290848 8 480 12 134
718 0.9664535487610262 0.08181636295273495 -0.37258190994560575 193 197 192 0.25386279152275115 7 708 10 371
719 0.9340164218324115 0.07275058634476818 -0.3729837008210173 48 44 47 0.1650234004427892 7 735 10 405
720 0.9929284484341747 0.07345051894856523 -0.3720896055551499 68 68 72 0.04925476031693664 7 806 10 433
721 0.9929284484341747 0.07345051894856523 -0.3720896055551499 68 68 72 0.04925476031693664 7 807 10 434
722 0.989800308001362 0.06651644847712535 -0.37234249697217253 71 67 72 0.04269815756822618 7 859 10 474
723 0.989800308001362 0.06651644847712535 -0.37234249697217253 71 67 72 0.04269815756822618 7 860 10 475
724 0.989800308001362 0.06651644847712535 -0.37234249697217253 71 67 72 0.04269815756822618 7 861 10 476
725 0.9339193621515673 0.054459492613957196 -0.37188030671271904 43 46 45 0.021810484134588578 7 903 10 510
726 0.9339193621515673 0.054459492613957196 -0.37188030671271904 43 46 45 0.021810484134588578 7 904 10 511
727 0.9769125219129008 0.05663473735602589 -0.371885531611852 55 61 61 0.09853901603930401 7 937 10 519
728 0.9141276368540389 0.04581517071975631 -0.3735383547812676 39 41 47 0.06515442645380347 7 969 10 554
729 0.9588543487190183 0.03614372056739111 -0.37174468149939577 190 194 189 0.00777179276994213 7 1067 10 615
730 0.9853475984193792 0.010100761456170249 -0.37125066530587975 191 194 193 0.0574433367935529 7 1250 10 771
731 0.9512258758726138 -0.0214278606206162 -0.3699315117608609 190 196 194 0.13301817454462225 7 1454 10 944
732 0.8945298553028249 -0.03232696051739236 -0.36912377896062853 185 192 196 0.1759980301150457 7 1538 10 997
733 0.9962127997535501 -0.03583489402370741 -0.37139808119115475 68 78 81 0.06928680574359253 7 1552 10 1029
734 0.8719038995177723 -0.061587196561257676 -0.36587944324269 27 30 29 0.07457651316319158 7 1787 10 1172
735 0.8572902765766546 0.087639838873132 -0.39001076848291577 34 37 38 0.01800185312021041 7 576 9 316
736 0.9969974828104674 0.1045837137470605 -0.3927027821704968 53 61 62 0.022699690341177612 7 633 9 407
737 0.9969974828104674 0.1045837137470605 -0.3927027821704968 53 61 62 0.022699690341177612 7 634 9 408
738 0.8720956325540489 0.07068265389877779 -0.39075233332613246 202 202 206 0.14286245830145605 7 716 9 437
739 0.8720956325540489 0.07068265389877779 -0.39075233332613246 202 202 206 0.14286245830145605 7 717 9 438
740 0.9353457230223109 0.07835467719216156 -0.39171712785392054 46 46 50 0.06252628834380058 7 732 9 484
741 0.9606525828586338 0.04426048019655881 -0.39259105579990017 197 203 205 0.11988482156173255 7 1043 9 754
742 0.8944280794336968 -0.029473784389919645 -0.3842323895914357 186 192 194 0.04411964070486511 7 1523 9 1243
743 0.8839744088748066 -0.03796881144759305 -0.3902960319720069 32 35 36 0.0067682053058907374 7 1584 9 1304
744 0.8844412570981034 -0.04395831897454525 -0.3909648613858632 187 190 193 0.14262778777205753 7 1621 9 1337
745 0.9426754438509837 -0.04746189145283122 -0.3931361827377951 137 150 149 0.13870498756226546 13 1370 18 928
746 0.9860615414807797 0.06657069258746907 -0.3722530692200273 194 194 194 0.019789325808541286 7 853 10 472
747 0.9860615414807797 0.06657069258746907 -0.3722530692200273 194 194 194 0.019789325808541286 7 854 10 473
748 0.9900362927902358 0.06312181512311792 -0.37209928634445427 194 194 196 0.005713811079884969 7 892 10 491
749 0.9860336620552668 0.062427226631944804 -0.37200333315484685 74 74 70 0.009354994929823498 7 893 10 498
750 0.9432091414899464 0.05185777356983737 -0.37253993017683634 35 41 39 0.01572223953379364 7 944 10 531
751 0.9432091414899464 0.05185777356983737 -0.37253993017683634 35 41 39 0.01572223953379364 7 945 10 532
752 0.9372304669732465 0.04596855047295682 -0.37372549402002975 39 44 49 0.004748593704244342 7 996 10 563
753 0.97222664646697 0.04718070313183827 -0.3723830365990332 60 63 66 0.09523090635548309 7 1011 10 573
754 0.97222664646697 0.04718070313183827 -0.3723830365990332 60 63 66 0.09523090635548309 7 1012 10 574
755 0.9468983102503977 0.04308537640723747 -0.37304179458451237 46 49 52 0.040638926903794476 7 1021 10 587
756 0.9078513206265554 0.015954253841680907 -0.37282119774696526 36 36 38 0.04831736105510383 7 1178 10 721
757 0.9078513206265554 0.015954253841680907 -0.37282119774696526 36 36 38 0.04831736105510383 7 1179 10 722
758 0.9274503877156849 0.006658602320814387 -0.37182852225061497 193 196 195 0.04898583676355486 7 1255 10 774
759 0.8730406295358752 -0.003826044046643023 -0.3715505795203686 31 34 37 0.032722662253816516 7 1322 10 820
760 0.8730406295358752 -0.003826044046643023 -0.3715505795203686 31 34 37 0.032722662253816516 7 1323 10 821
761 0.9188427851957663 -0.0030992890717594745 -0.3730014829906934 35 41 43 0.13962427193008292 7 1337 10 831
762 0.9368343523156288 -0.007972891530216028 -0.3699834276820003 187 195 192 0.031889726226924923 7 1368 10 864
763 0.9677773065048136 -0.009135509712240563 -0.3696141561715056 69 72 73 0.023374541614563267 7 1382 10 872
764 0.9588836354768754 -0.020347556574452398 -0.3687412249518075 49 48 50 0.13821158395624167 7 1447 10 938
765 0.957106916410502 -0.027676792078266385 -0.36975242000325803 51 57 59 0.04631048920877595 7 1505 10 981
766 0.9399411596316315 -0.05483657295146607 -0.3894964952624024 27 27 31 0.007987853423957213 10 1128 13 1404
767 0.877896468108078 -0.0563587087043046 -0.3905650657127893 30 29 29 0.2682930086012601 15 1362 17 1177 18 961 16 1190
768 0.8664287437435281 -0.06303676784659408 -0.3672151041387696 28 31 32 0.09793622145738651 7 1809 10 1179
769 0.9755072981443866 0.07272470162126123 -0.3722589111478649 47 47 49 0.5782552173194219 8 670 12 287
770 0.8723080967015034 0.008019072050354204 -0.38900674338090596 194 197 200 0.14423753201215025 8 1112 9 971
771 0.8765627487415082 0.003542633311594135 -0.38928383105212444 194 201 205 0.12424105956522981 8 1165 9 1014
772 0.8586394169078495 -0.013895172195562158 -0.3901266788940604 35 38 41 0.14050031391300138 8 1265 9 1118
773 0.8895246228776867 -0.01268775283482989 -0.3896946059383121 196 196 200 0.1012423664456783 8 1267 9 1133
774 0.8895246228776867 -0.01268775283482989 -0.3896946059383121 196 196 200 0.1012423664456783 8 1268 9 1134
775 0.8999310959344067 -0.019189632606393253 -0.3893623247966392 190 195 200 0.1051569776297573 8 1314 9 1171
776 0.8966163011239224 -0.02026802745661599 -0.3889975647308652 45 34 38 0.11875543202466313 8 1324 9 1179
777 0.8987578705860172 -0.0292128666943732 -0.38957383374512794 193 196 199 0.059120825240785935 8 1388 9 1251
778 0.8897255647184839 -0.038255865185270646 -0.3897314031497814 189 195 197 0.13794355700274455 8 1464 9 1308
779 0.8897255647184839 -0.038255865185270646 -0.3897314031497814 189 195 197 0.13794355700274455 8 1465 9 1309
780 0.9947627094727447 -0.05449224189850842 -0.38804367753455465 169 177 176 0.11397462587394439 12 894 13 1394
781 0.868599363361668 -0.05965921996925413 -0.3881011298836488 185 188 191 0.023363798830263703 8 1634 9 1474
782 0.8653437050792252 -0.06297408651984797 -0.38866944774397855 185 188 191 0.14359771034002886 8 1657 9 1501
783 0.8653437050792252 -0.06297408651984797 -0.38866944774397855 185 188 191 0.14359771034002886 8 1658 9 1502
784 0.9213821105925231 -0.06898893298882043 -0.38936164627028935 182 188 190 0.096179807736053 8 1687 9 1543
785 0.9156095673241028 -0.07462378710096608 -0.3897005280261338 182 188 188 0.06776558146661273 8 1732 9 1583
786 0.9156095673241028 -0.07462378710096608 -0.3897005280261338 182 188 188 0.06776558146661273 8 1733 9 1584
787 0.8595622050471159 -0.07611675362431922 -0.3909056195830415 28 31 34 0.004123515651748806 8 1762 9 1609
788 0.9049255253837646 -0.08171620490356599 -0.38917612666394913 183 189 191 0.08067904414387359 8 1780 9 1634
789 0.897263547463961 -0.08197374226861907 -0.38957553679104395 186 189 188 0.12210746737712821 8 1791 9 1638
790 0.9019612869841908 -0.08572976794296307 -0.38946899782345257 34 33 35 0.1069466921315174 8 1809 9 1667
791 0.8742566225355479 0.10082549719368392 -0.36915392677678727 31 34 33 0.09005695198928387 8 399 10 215
792 0.9627325447886058 0.07856046459651032 -0.3660485033783731 193 197 192 0.1102770121500964 8 607 10 370
793 0.9488775481715129 0.059483384704381706 -0.36258046238221764 32 40 39 0.09994993151543123 8 722 10 465
794 0.9816802295682747 0.05941917746269969 -0.36514949117417717 74 74 70 0.12800545499307966 8 765 10 495
795 0.9864092765451933 0.04075415876458656 -0.3592670169324871 67 73 75 0.06273925932512499 8 927 10 591
796 0.9440528831560212 0.024338028091993452 -0.36521643714855145 40 47 51 0.1410311439330754 8 1019 10 674
797 0.9228525418654424 -0.0003307420268989693 -0.36282689585830374 191 199 198 0.017343576943778256 8 1193 10 805
798 0.9102059526063381 -0.009798209485884795 -0.362947164495002 191 199 200 0.07040828463782096 8 1247 10 861
799 0.9102059526063381 -0.009798209485884795 -0.362947164495002 191 199 200 0.07040828463782096 8 1248 10 862
800 0.9044675427159267 -0.015079693823599697 -0.36221667990106865 191 197 199 0.07012055323555948 8 1273 10 883
801 0.9928889531994607 -0.026720712976135947 -0.3680128875532597 61 73 75 0.025727425924750323 8 1375 10 980
802 0.8916578621589457 -0.03346458403903559 -0.36090125576394216 187 195 196 0.05235041982787246 8 1412 10 996
803 1.0607122954575237 0.0506005634381035 -0.3765693290937437 188 185 182 0.08548269519395255 8 942 12 453
804 1.0762338775968459 0.04531134770387246 -0.37630509207160484 94 94 96 0.09754733584575388 8 984 12 479
805 1.0762338775968459 0.04531134770387246 -0.37630509207160484 94 94 96 0.09754733584575388 8 985 12 480
806 1.070990394930033 0.036700686498792545 -0.37629858804237326 132 131 131 0.12715141346246311 8 1029 12 518
807 1.06993593226112 0.03312494052668687 -0.37489015254391883 132 132 132 0.07980971208121264 8 1049 12 525
808 1.06993593226112 0.03312494052668687 -0.37489015254391883 132 132 132 0.07980971208121264 8 1050 12 526
809 1.0619412776604231 0.029334579283840898 -0.3753941364916885 100 99 108 0.04813900774017703 8 1066 12 545
810 0.9927641326199365 0.0207943723841659 -0.36646915796257856 66 74 73 0.016969900412062037 8 1074 12 546
811 1.0625201016950274 0.02333068045971371 -0.37565030236073527 113 112 112 0.07109349017082876 8 1099 12 568
812 0.9970160084757606 -0.012761876602397769 -0.3727293900379782 67 75 76 0.05007314828778971 8 1287 12 705
813 1.0058687167788407 -0.009783777142105743 -0.3857690684908725 61 67 67 0.033060695881436425 12 706 17 947
814 1.0597451790154089 -0.030712194022254367 -0.37272082068380485 159 162 161 0.02708972705084923 8 1408 12 810
815 1.0585044477345342 -0.03499061679144999 -0.37091081060273134 152 160 159 0.03564906739357539 8 1438 12 832
816 1.059369513802218 -0.055873583127731656 -0.37145201077504164 148 154 154 0.1146473328579681 8 1565 12 907
817 0.9524960925445617 -0.0551340721142062 -0.3660712217726819 33 41 40 0.08213119521500443 8 1573 12 883
818 0.9811606672121744 -0.08535303773699549 -0.36315392185479534 39 50 50 0.12469939084435012 8 1788 12 1006
819 0.9426754438509837 -0.04746189145283122 -0.3931361827377951 137 150 149 0.13870498756226546 13 1371 18 929
820 0.9399479940956179 -0.05036582401382623 -0.39361790034014116 141 149 148 0.05213417975338102 18 935 13 1388
821 0.9332686365516676 -0.056068278326000746 -0.39029869592917776 32 28 31 0.1916966034157529 15 1328 16 1169 17 1163 18 968
822 0.9332686365516676 -0.056068278326000746 -0.39029869592917776 32 28 31 0.1916966034157529 15 1330 16 1170 17 1164 18 969
823 0.9324568427428371 -0.05552254536872268 -0.3884096793545273 32 28 31 0.011795578557372111 12 901 15 1331
824 0.9063709229371225 -0.08006168938819494 -0.3907375141101122 157 168 166 0.18887956870065886 15 1435 17 1257 18 1057 16 1271
825 0.8360791795863475 0.12147858114194149 -0.38968655899071 191 185 187 0.09620853514623903 10 160 13 526
826 0.836946517211364 0.11330753719655505 -0.3875986298071341 185 185 185 0.06882913806438481 10 187 13 534
827 0.8359080739531133 0.11073776319501819 -0.38770469339073177 177 173 174 0.10172356125085838 10 193 13 539
828 0.8378656610476597 0.10955797052564542 -0.38737832358345525 189 188 188 0.06641751520365037 10 196 13 544
829 0.8362159945440609 0.08953182909468567 -0.3884197266283583 137 136 136 0.03438339061498482 10 273 13 588
830 0.8362159945440609 0.08953182909468567 -0.3884197266283583 137 136 136 0.03438339061498482 10 274 13 589
831 0.8366082740081058 0.07280482871051654 -0.38858581150014493 173 176 179 0.06633592303330262 10 361 13 662
832 0.8364390783832456 0.0702588210117722 -0.38862341908245707 179 179 181 0.13784189920311782 10 386 13 682
833 0.8348558857663821 0.048835820150734774 -0.38871867216439343 176 179 180 0.11976124556008587 10 516 13 802
834 0.9115916205406106 0.03793951138653585 -0.3906469135975324 16 22 20 0.004219783461310058 10 614 13 904
835 0.8376732024009764 0.02108459094824367 -0.38854810569350656 149 149 149 0.0018681216003565506 10 683 13 984
836 0.9206872215932103 -0.035373194589505524 -0.38639480389910746 15 21 19 0.14931097320674475 10 1020 13 1325 16 1083
837 0.920675660558686 -0.03536755733097637 -0.38645088268289457 15 21 19 0.10149249986700047 10 1021 13 1326
838 0.9103934433975026 -0.0763419976014883 -0.38666770809816725 17 20 19 0.12692436733525966 10 1244 13 1508
839 0.9103934433975026 -0.0763419976014883 -0.38666770809816725 17 20 19 0.12692436733525966 10 1245 13 1509
840 0.9692155130382927 -0.08619873647233034 -0.38546376681445194 38 37 39 0.12947649296061522 10 1273 13 1533
841 0.8939472189142867 0.04776442633994328 -0.39125924862078165 21 27 25 0.11754885388030087 11 1077 14 573
842 0.8346611385677282 0.025617412453203103 -0.39095344672867677 170 176 176 0.030474057166787243 11 1312 14 712
843 0.9771273327244248 0.02737406019237147 -0.38867749168901294 147 165 159 0.3075513132883282 12 535 13 993 16 744 15 954 25 1594
844 0.9834239874098323 0.02226515490008273 -0.38882632623076707 184 187 188 0.14763762770899472 12 564 13 1011 16 770
845 0.8372675056440533 0.1114374302541659 -0.389999009428751 189 189 191 0.061003266591575 11 288 14 226
846 0.881603689724827 0.11470066246327502 -0.39130453392119263 29 35 35 0.10730726267323559 11 307 14 228
847 0.8957717244386486 0.09698706296251346 -0.3911296118675276 181 187 185 0.020352027735767466 11 470 14 295
848 0.8884436864282738 0.0896837025420299 -0.3910604429958331 181 187 187 0.0714402778671416 11 546 14 327
849 0.8828549334752337 0.084157550456938 -0.39132548726723493 178 184 184 0.015648917646004387 11 607 14 363
850 0.8619805356242836 0.07836960568292874 -0.39111377799038294 28 31 30 0.12614211257281807 11 652 14 387
851 0.867884649113448 0.07675739657520907 -0.390614646191717 177 183 183 0.08176142023959139 11 674 14 396
852 0.8337446804390634 0.07054489692672686 -0.390853822336263 183 186 187 0.09357231934766778 11 715 14 432
853 0.8721446644858281 0.07301106835220517 -0.390626656190586 176 184 183 0.09162163977540684 11 724 14 424
854 0.8721446644858281 0.07301106835220517 -0.390626656190586 176 184 183 0.09162163977540684 11 725 14 425
855 0.86822913544345 0.07268028667700381 -0.3906086183056803 30 30 26 0.10424849317663683 11 727 14 426
856 0.8679141328678363 0.06868264142689055 -0.3899423584335156 173 184 182 0.13333608612262537 11 769 14 452
857 0.8720556389282323 0.0689303248995997 -0.39098058685021936 32 32 28 0.028577728958152443 11 780 14 453
858 0.877470309999127 0.06308699915367838 -0.3907508748849084 20 26 24 0.03069727659693726 11 868 14 491
859 0.8380302165132159 0.04955120627863167 -0.3902642653398707 176 179 180 0.11513766908192982 11 998 14 562
860 0.9702215109145848 0.049048964195045786 -0.39094153292364764 46 54 55 0.08793099417000011 11 1113 14 575
861 0.9001176136367648 0.03823878568039188 -0.3904701852548786 168 176 173 0.07772910513504926 11 1203 14 634
862 0.9029502517511667 0.03733439774474124 -0.3898316595876242 29 35 33 0.07279230151427671 11 1218 14 641
863 0.8362939138313185 0.029849182402614003 -0.3898816165291985 89 89 93 0.02381164542860163 11 1260 14 681
864 0.8371126952899389 0.028771042251456862 -0.39020136955404106 172 175 176 0.006051530699925791 11 1272 14 685
865 0.837198075392538 0.026636755931492 -0.3901210218653328 149 152 153 0.017773329661233267 11 1298 14 709
866 0.9202766940218778 0.027776624717451143 -0.38993955514874284 23 29 27 0.07635471321269732 11 1335 14 695
867 0.8651178659300055 0.014073716880058033 -0.3908618437381557 164 170 168 0.029509000552575698 11 1460 14 761
868 0.8378049913872979 0.010236115412712866 -0.389893348159721 85 84 84 0.0910235366903249 11 1487 14 789
869 0.8688332804879783 0.010237512651233266 -0.3903578231650229 35 38 37 0.11334814021337367 11 1505 14 782
870 0.8368791514984839 0.008285777301366674 -0.38996718587229895 138 139 135 0.06448417634224697 11 1511 14 803
871 0.8759484275243848 0.009722532752257646 -0.3898407520868353 39 42 43 0.019605064405754317 11 1515 14 784
872 0.8759484275243848 0.009722532752257646 -0.3898407520868353 39 42 43 0.019605064405754317 11 1516 14 785
873 0.8640395651706311 0.0055267283152761245 -0.38942250835064807 157 163 161 0.04709054203947081 11 1569 14 813
874 0.836904458598615 0.0016496649286376654 -0.39006670659489173 85 84 84 0.06723481488866752 11 1604 14 840
875 0.836904458598615 0.0016496649286376654 -0.39006670659489173 85 84 84 0.06723481488866752 11 1605 14 841
876 0.8631168361203144 0.0008674018866797447 -0.3910562313257914 26 26 26 0.07012902368864588 11 1631 14 836
877 0.8370592909141483 -0.011333257600251046 -0.39019644880024634 155 155 155 0.02690211641504955 11 1770 14 909
878 0.8388796891607294 -0.026030174358500954 -0.38992834813225663 95 86 89 0.0658987628761502 11 1986 14 977
879 0.9054336651313476 -0.02504798957071292 -0.3909479346537205 149 157 154 0.10635516741528872 11 1994 14 951
880 0.9054336651313476 -0.02504798957071292 -0.3909479346537205 149 157 154 0.10635516741528872 11 1995 14 952
881 0.8381156827756435 -0.02826523442273141 -0.3901161377665051 164 164 164 0.07817119815454103 11 2029 14 991
882 0.9014377808183299 -0.029073681270539636 -0.3906402897438054 153 159 157 0.1304052760021866 11 2058 14 972
883 0.8377758531652656 -0.031955010889423936 -0.3897833079402602 158 164 162 0.0850906611752491 11 2080 14 1017
884 0.8785742108637903 -0.045967971762632016 -0.390170879830309 20 23 22 0.05375315559263567 11 2279 14 1055
885 0.8785742108637903 -0.045967971762632016 -0.390170879830309 20 23 22 0.05375315559263567 11 2280 14 1054
886 0.877453998704797 -0.05158574185652972 -0.3901971737799734 160 161 157 0.08275669330914856 11 2358 14 1082
887 0.9008130665062087 -0.07509254092788742 -0.3904463195904506 18 21 20 0.06307118132076227 11 2673 14 1158
888 0.994442534174872 0.07340288617522599 -0.3896670632546695 59 59 59 0.20404909249429007 12 336 13 756 16 522
889 0.8371324213616709 0.04714148303294763 -0.3877213212812772 133 132 132 0.15257172565656577 12 359 13 812 16 596
890 0.8837645334849076 0.051702857781948816 -0.3901295187280647 15 21 19 0.08779918122778106 12 372 13 814
891 0.8837645334849076 0.051702857781948816 -0.3901295187280647 15 21 19 0.08779918122778106 12 373 13 815
892 0.9770646292514056 0.053687134445936736 -0.38954160932781884 153 166 161 0.02549322282997305 12 426 13 841
893 1.0065453424424922 0.05195618080031517 -0.3886868049849829 61 69 70 0.13570723169170007 12 437 13 870 16 633
894 0.9601332385102724 0.04558941136714864 -0.389435923607141 184 187 186 0.12739021834084274 12 448 13 883 25 1408
895 0.966175514685909 0.03419127639721119 -0.38820187359399566 29 40 40 0.08164508574568231 12 501 13 938 25 1483
896 0.9702565938590719 0.034301594949470375 -0.38849012926119464 144 159 156 0.03591379340889461 12 505 13 942
897 1.0035688113017869 0.002161502053708773 -0.3886090245147282 53 66 63 0.2611974591256825 12 659 13 1115 25 1859 16 879
898 0.9784800276196098 -0.005681638389444315 -0.38688603601188765 36 44 43 0.12599114306122988 12 685 13 1152
899 0.981563997926887 -0.0076779790601797 -0.3877299615738452 43 45 51 0.002533046200169943 12 692 13 1161
900 0.9728691162196398 -0.013841772677648322 -0.38920606554026566 27 38 38 0.4250895036121841 12 723 13 1199 25 1876
901 0.8974084598519331 -0.01826708017615696 -0.38791790956705985 41 38 33 0.07301415858570919 12 726 13 1220 16 999
902 0.9616766716713419 -0.018346027654262916 -0.3888914116529476 183 189 189 0.16282451978243534 12 747 13 1221 15 1177 16 987
903 0.9711736833169445 -0.020202234753949874 -0.3887258244137947 178 184 184 0.34310415488089735 12 751 13 1227 15 1185
904 0.933943468317388 -0.0224005674552035 -0.3885601114369258 19 26 20 0.005982529341805303 12 758 16 1012
905 0.9605417650136503 -0.02409765295595747 -0.38846786810350853 25 33 34 0.13380334058066976 12 770 13 1248
906 0.9670813651329083 -0.025021586270206106 -0.3871509231393109 50 53 56 0.1959092345514027 12 776 13 1252 16 1019
907 0.9670813651329083 -0.025021586270206106 -0.3871509231393109 50 53 56 0.1959092345514027 12 777 13 1253 16 1020
908 0.9593187098367547 -0.028074321190574715 -0.38865313309092814 151 162 158 0.12593243449236774 12 791 13 1269
909 0.9669579297592255 -0.028061071888800592 -0.3883558206996429 155 163 162 0.008364671700010155 12 799 13 1266
910 0.9669579297592255 -0.028061071888800592 -0.3883558206996429 155 163 162 0.008364671700010155 12 800 13 1267
911 0.9836074503692048 -0.034853341202889104 -0.3884428420359811 34 42 41 0.08495194212846366 12 829 13 1309
912 0.9949841855997161 -0.05027187587075819 -0.3876286703427551 43 51 50 0.07858478745070176 12 866 13 1375
913 0.9903701019190196 -0.05069010214482019 -0.388192049396043 166 174 171 0.10139500110746728 12 872 13 1382
914 0.9935421820550678 -0.05153918338315715 -0.3877360466990459 45 48 49 0.10322104918191019 12 874 13 1384
915 0.9344187372899064 -0.05245797320255272 -0.3884976545091722 157 158 154 0.39996292098830905 13 1397 15 1315 16 1157
916 1.0028110813367364 -0.05383164708846558 -0.38855232519127636 168 174 172 0.05288156438395013 12 889 13 1392
917 0.9905502513154226 -0.05878816775466731 -0.3883425876840363 170 176 174 0.09552876766405209 12 919 13 1413
918 0.9905502513154226 -0.05878816775466731 -0.3883425876840363 170 176 174 0.09552876766405209 12 920 13 1414
919 0.9905502513154226 -0.05878816775466731 -0.3883425876840363 170 176 174 0.09552876766405209 12 921 13 1416
920 0.9977743226472499 -0.05937605521926552 -0.3881142187411248 181 187 187 0.10374615645080076 12 924 13 1418 15 1314
921 1.0047604023111933 -0.06180904564601468 -0.387680539565342 50 53 54 0.08657696079477228 12 937 13 1421
922 0.9692714820543076 -0.07863918776888486 -0.3885777013839106 174 177 176 0.014242746653482876 12 989 13 1504
923 0.9707550426651624 -0.08144743965585115 -0.3879231225838965 37 35 44 0.09936930592771273 12 997 13 1510
924 0.9027923239141572 -0.08328433103343395 -0.3893313540888077 25 28 29 0.3731561537891401 12 1004 13 1538 15 1451
925 0.9667088664698387 -0.08563463777585745 -0.3881792075969866 178 181 180 0.047260415153505174 12 1008 13 1529
926 0.9606667674785555 -0.08591189183951141 -0.38802925520653214 176 176 178 0.017906618520938403 12 1009 13 1531
927 0.9336413667482808 -0.08733689119017896 -0.38611146691848713 13 20 14 0.04618910645809909 12 1014 13 1547
928 0.9251742227215891 0.07750822609087794 -0.3887331334711876 27 30 31 0.42904629314626186 12 257 15 676 16 457
929 0.8614568561032928 0.060438826735398375 -0.38885276286390363 31 34 33 0.1351838163815692 12 308 15 758
930 0.9356956262172017 0.06885165201518655 -0.3895806995800991 32 35 34 0.02198007620797679 12 323 15 734
931 1.0040657311378864 0.06258402684955576 -0.38830477351925763 59 62 61 0.17372498515310028 12 395 15 775 16 582
932 0.8979835943017753 0.03708281388246601 -0.3899633446515677 182 188 188 0.3217460744897442 12 454 15 902 16 668
933 0.8658917723920316 0.006290646205022003 -0.3886086124750101 167 173 171 0.01836265857744095 12 585 15 1072
934 0.9010149405656768 -0.021306882784463837 -0.38887558156483476 43 35 34 0.3072698945071723 12 743 15 1210 13 1237 16 1017
935 0.9015876388872577 -0.021565176804144735 -0.39069118169587325 37 36 38 0.11544554259930796 15 1208 16 1015 18 802
936 0.9010149405656768 -0.021306882784463837 -0.38887558156483476 43 35 34 0.3072698945071723 12 746 15 1209 13 1236 16 1016
937 0.9691258561196602 -0.02750864675104042 -0.38814319713179285 182 190 189 5.348320507793988e-06 12 787 15 1211
938 0.9300439767757317 -0.05267187116103566 -0.3908817365754926 168 176 173 0.1673185131466065 15 1317 16 1158 17 1145 18 946
939 0.9291288058910108 -0.056461288678482366 -0.3904992934342875 148 152 147 0.16756814058851488 15 1335 17 1168 18 976 16 1175
940 0.9420122803488417 -0.056867214083151166 -0.38818495729842145 32 38 38 0.08884167419852099 12 914 15 1333 16 1174
941 0.9301477516406267 -0.05932520270461897 -0.39072943152266976 31 26 24 0.18044656891671132 15 1342 17 1182 18 986 16 1184
942 0.8667103669378972 -0.061281992721820874 -0.39067064489229786 161 169 168 0.22291027195409674 15 1383 16 1214 17 1199 18 993
943 0.8664402936319755 -0.06060603498600575 -0.3886882293349386 159 159 161 0.017885728046112704 12 926 15 1384
944 0.8986260111199009 -0.09173420358762772 -0.3904981679298765 157 165 164 0.14564587045493446 15 1461 16 1292 17 1284 18 1084
945 0.9103683867287667 -0.09296027205794176 -0.38818389630229777 28 34 34 0.4231982178443877 12 1024 15 1462 16 1294
946 0.9404077269239176 0.002391211180603669 -0.39030912209111845 164 172 169 0.12893599638997003 18 682 16 875 17 876
947 0.9446255561834921 -0.04469812965843186 -0.3916386871825453 25 28 29 0.0047966487627842955 18 918 17 1126
948 0.9340126336694279 -0.049083109796236084 -0.39104354581108197 36 36 36 0.04465748211883191 18 931 17 1136
949 0.837816366113283 0.13332332358253612 -0.3906868925765573 195 194 194 0.13608015409264332 13 494 15 430
950 0.8331894492025573 0.12130625086348933 -0.39005120128786547 194 194 194 0.10981275060331057 13 525 15 465
951 0.8577688349576966 0.08894981983181831 -0.38841054145598913 27 30 29 0.20023589344744613 13 601 15 581 16 343
952 0.8363967945084281 0.08378074004792468 -0.38872962176036374 184 183 183 0.0712425799420224 13 609 15 599
953 0.8374291387098333 0.079780489246053 -0.3881566560687266 188 187 187 0.11727189528697142 13 627 15 619
954 0.8373131207504614 0.0717823477309889 -0.3883276692056041 175 175 177 0.18782601749735164 13 670 15 672 16 430
955 0.8373131207504614 0.0717823477309889 -0.3883276692056041 175 175 177 0.18782601749735164 13 671 15 673 16 431
956 0.8771891593656971 0.07667688214777744 -0.3893345693971975 22 25 24 0.2427022161111845 13 675 15 654 16 429
957 0.9866510487368766 0.08173719548683413 -0.3898765980463986 61 67 69 0.13807887329393778 13 718 15 674
958 0.8367573464243048 0.04983826852756968 -0.38877820446242733 115 115 119 0.2278591823286055 13 796 15 820 16 585
959 0.8376234496002607 0.04569986456687122 -0.3898264444846659 119 118 120 0.3928709421838981 13 825 15 849 16 605 18 329
