# 3D point list with one line of data per point:
# POINT3D_ID, X, Y, Z, R, G, B, ERROR, TRACK[] as (IMAGE_ID, POINT2D_IDX)
# Number of points: 427, mean track length: 2.147783251231527
1119 0.8367405139772331 0.06422375255710357 -0.38923278929151117 187 187 189 0.1150443927791914 15 725 16 483
1120 1.0024288012718787 0.07226708398979376 -0.38916870994946406 79 82 81 0.11744591559847108 15 731 16 527
1121 0.8781787790816208 0.06153776426655756 -0.38805590628027614 23 26 25 0.32622667066738353 15 755 16 528 25 1066
1122 0.8361834433281349 0.05632531623746914 -0.38918560671803587 110 113 114 0.01661353805840577 15 771 16 538
1123 0.8376348013522036 0.056365092606119147 -0.3893366944413608 185 188 187 0.04646116638621131 15 772 16 540
1124 0.8376536595375372 0.05123417328583456 -0.3887461944545471 120 119 121 0.12374580956246024 15 808 16 571
1125 0.8897013484813904 0.05143172712499431 -0.3898781896527461 173 181 182 0.04809145116490816 15 814 16 593
1126 0.9213575115667682 0.05235006468108217 -0.3911834826645478 27 30 29 0.004101532555128975 15 816 16 603
1127 0.9528527594219027 0.052653022517905324 -0.3902914019554136 171 174 173 0.09355364545182906 15 824 16 612 17 643
1128 0.8371532916955611 0.0467668976775981 -0.3897767073731175 126 125 127 0.12251820587510652 15 844 16 598
1129 0.9994065648839253 0.05087712598707266 -0.39034364707862046 60 71 69 0.08453136679369809 15 845 16 636
1130 0.9558111760362458 0.04879989134700878 -0.3888303372201155 45 52 56 0.15174456950652399 15 848 16 632 25 1372
1131 0.9981701971520279 0.04352397836929854 -0.39010448650064744 56 64 63 0.006410958866314612 15 872 16 660
1132 0.8363743491404386 0.03877741002190788 -0.3898135661958994 119 118 118 0.13290954862119225 15 884 16 644 17 645
1133 0.8379119017519646 0.03800539226802003 -0.38958427053301303 105 104 106 0.062125582707069894 15 888 16 647
1134 0.8685475324189101 0.038278609049916056 -0.3911700711185496 18 24 22 0.08180818981232942 15 889 16 658
1135 0.9640484698591495 0.03884864853789965 -0.39009600314058074 36 42 42 0.13563865857507507 15 893 16 678
1136 0.8372890399809326 0.036754817904433704 -0.3894887118146607 102 102 104 0.04960104219019011 15 899 16 657
1137 0.971602048394705 0.034063082029098926 -0.39025721232218963 165 171 171 0.036169932120917334 15 914 16 706 17 731
1138 0.9670421958614437 0.03381500372703549 -0.3891446791876371 42 45 44 0.05153816838123145 15 915 16 701
1139 0.9670421958614437 0.03381500372703549 -0.3891446791876371 42 45 44 0.05153816838123145 15 916 16 702
1140 0.8382767991687239 0.03161147211718452 -0.38958890257514006 189 189 193 0.05852202154935404 15 929 16 687 17 676
1141 0.8371767501085869 0.029848200156502556 -0.38972759895514747 111 111 115 0.00881062221205474 15 942 16 696
1142 0.8846718071050031 0.02595169951679827 -0.3914483477443625 23 26 25 0.027284227236363597 15 961 16 725
1143 0.8846718071050031 0.02595169951679827 -0.3914483477443625 23 26 25 0.027284227236363597 15 962 16 726
1144 0.8375024567040905 0.025570862912929596 -0.38952647792636635 182 182 184 0.07674776651883926 15 968 16 717
1145 0.9789911419297341 0.02188844206400459 -0.39147923724639666 48 53 58 0.11599375204634396 15 978 16 767
1146 0.9790743811386405 0.021904537174992984 -0.3916080541962672 46 57 57 0.1579667129486893 15 979 16 768 17 787 18 603
1147 0.9164240641969371 0.021061552379535244 -0.3914178404484354 25 25 25 0.12136751637849094 15 987 16 761
1148 0.98908310680337 0.018481583681643578 -0.3913831102513309 61 67 69 0.20914359010671807 15 999 16 779 18 622
1149 0.9886530223836434 0.01847468517273152 -0.3906383791236907 54 62 63 0.10389887724028384 15 1000 16 780
1150 0.9406650849075168 0.01444571023392847 -0.3905992176524178 161 172 168 0.11149053456449085 15 1014 16 793 17 810
1151 0.8719630662301829 0.014650764200254393 -0.3911464886686571 23 26 25 0.09230711043621692 15 1019 16 784
1152 0.8367008758557501 0.015255101405888954 -0.3892330901954905 112 111 111 0.03865789807683685 15 1022 16 782
1153 0.9889838698199643 0.010994998358136667 -0.3911172997887394 47 53 55 0.10560957256804082 15 1025 16 813 17 842
1154 1.0055695883123739 0.00929039271089892 -0.39163799975068697 55 63 62 0.001516289419891758 15 1033 16 832
1155 0.8367856085515049 0.008770939454803523 -0.38986287741863795 109 109 109 0.14153000056827608 15 1064 16 823
1156 0.8780086995886272 0.005112999987560232 -0.390481676474244 179 185 187 0.10128407059747153 15 1074 16 851 18 624
1157 0.9296203459779498 0.002996647342307095 -0.39092153434553517 37 28 21 0.10391116525226725 15 1076 16 871 17 870
1158 0.929678209714699 0.0029869135393231984 -0.39111796236432744 37 31 33 0.16610074003570258 15 1077 16 872 18 671
1159 0.86685169311827 0.001882369758469895 -0.39090138871942953 36 27 22 0.21438723800539458 15 1100 16 878 17 854 18 645
1160 0.9534474431938281 -0.004123822997683733 -0.389749753477548 32 38 36 0.07803117661649273 15 1109 16 911
1161 0.9534474431938281 -0.004123822997683733 -0.389749753477548 32 38 36 0.07803117661649273 15 1110 16 912
1162 0.9477822215804128 -0.004645622940471369 -0.3909215084249575 166 177 173 0.1533192963952991 15 1112 16 917 17 912
1163 0.9477822215804128 -0.004645622940471369 -0.3909215084249575 166 177 173 0.1533192963952991 15 1113 16 918 17 913
1164 0.9158887539292172 -0.004799586340438864 -0.39053924977209437 24 27 26 0.022975845674021236 15 1119 16 919
1165 1.007150236313258 -0.009135641006204525 -0.38690847391710326 42 50 51 0.09166830275703777 15 1124 16 934
1166 0.8903482874248273 -0.005414830673728449 -0.3890524527638268 23 26 25 0.02919738490420563 15 1131 16 927
1167 0.838119318152232 -0.00555362924854703 -0.3912748978653412 171 171 173 0.09706653784902938 15 1142 16 931
1168 0.8907780308622564 -0.010883681432244986 -0.390229852404361 162 165 164 0.04383611011669313 15 1157 16 956
1169 0.8907780308622564 -0.010883681432244986 -0.390229852404361 162 165 164 0.04383611011669313 15 1158 16 957
1170 0.9683589399874307 -0.016676142719963916 -0.3906802491331628 164 172 169 0.1927698029896746 15 1164 16 975 17 973 18 796
1171 0.9713318749854769 -0.017767628136335974 -0.38991465714373885 49 48 52 0.19552208214890449 15 1169 16 979 17 985
1172 0.9713706117084528 -0.017771310388221953 -0.38995032100319066 41 40 40 0.19111050666786342 15 1170 16 980 17 986 18 807
1173 0.9015129341120905 -0.01759180920608713 -0.38968697430775223 160 166 164 0.12847422003655387 15 1193 16 989
1174 0.9015129341120905 -0.01759180920608713 -0.38968697430775223 160 166 164 0.12847422003655387 15 1194 16 990
1175 0.9048216640281629 -0.028802701512476773 -0.3894885614678318 29 29 31 0.1064029494335997 15 1230 16 1045
1176 0.9048216640281629 -0.028802701512476773 -0.3894885614678318 29 29 31 0.1064029494335997 15 1231 16 1046
1177 0.9025219346654098 -0.03057186449496367 -0.39041029030729124 150 158 157 0.14533996681056832 15 1241 16 1056 17 1061 18 849
1178 0.8945437443157747 -0.03300117559626721 -0.3893755356340896 22 25 24 0.09505550578418522 15 1250 16 1080
1179 0.9159406551106712 -0.036408757393148014 -0.38915873037124693 165 168 167 0.09839470965340723 15 1256 16 1086
1180 0.9891567501561552 -0.04437137571849009 -0.39065706137936934 35 41 43 0.2659514827063691 15 1260 16 1111 17 1125 18 919
1181 1.0027972470021942 -0.04805046179017895 -0.39014215339617725 32 38 38 0.0016179883081583713 15 1272 16 1123
1182 0.9226532058408099 -0.04188555480189144 -0.3907689521761648 160 164 159 0.25034327406408696 15 1278 16 1115 17 1117 18 906
1183 0.9224435198074102 -0.041782737727247506 -0.39021642486402897 160 164 159 0.15338019576997064 15 1279 16 1116 17 1118
1184 0.943762462214541 -0.04496792049728659 -0.38979787802435933 26 26 26 0.020006347822628043 15 1284 16 1127
1185 0.996370439270614 -0.05144192534200736 -0.38972912989017555 33 41 40 0.03184318327575755 15 1287 16 1136
1186 0.92903168081781 -0.046746431790878507 -0.3893440044845574 20 23 22 0.01850335934060775 15 1296 16 1134
1187 0.9912840101567553 -0.05454678860571283 -0.3913346877222255 27 26 35 0.01368360918916729 15 1305 16 1146
1188 0.9903774308582617 -0.05592947283198092 -0.3916473026446175 30 33 36 0.06718068573177227 15 1307 16 1153
1189 1.006886111717715 -0.0628765378559815 -0.3901447717955293 55 61 63 0.15110968173067799 15 1321 16 1178 17 1189
1190 1.0074117375884615 -0.0631088556500809 -0.3909202655629033 36 41 46 0.06070273960229396 15 1322 16 1179
1191 0.9406910167729677 -0.05582740597920669 -0.38984410455829444 30 30 34 0.14803052450301862 15 1323 16 1161 17 1161
1192 0.9406910167729677 -0.05582740597920669 -0.38984410455829444 30 30 34 0.14803052450301862 15 1324 16 1162 17 1162
1193 0.9893782383070211 -0.06329971779639738 -0.3904746400535023 41 49 48 0.1761693826771355 15 1332 16 1182 17 1193
1194 0.986258855330855 -0.06710862249875879 -0.39087580389640736 180 183 184 0.1926337769412388 15 1343 16 1192 17 1200
1195 0.9420526350444481 -0.061168130179023686 -0.3881123162717083 22 29 23 0.4278423435484595 15 1347 16 1189 17 1192
1196 0.9276577740390737 -0.06238177600067689 -0.3896251930436119 22 25 24 0.3232829476828718 15 1360 16 1195 17 1195
1197 1.0104391460586035 -0.07349711358921003 -0.3916728589586107 34 37 38 0.09462290100519978 15 1361 16 1207
1198 0.9542694530483985 -0.06765292593181434 -0.3905925940692135 20 26 24 0.02392170126353915 15 1365 16 1203
1199 0.9237654348652854 -0.06814017039790422 -0.3924180109823202 164 167 166 0.032192635403817636 15 1376 16 1217
1200 0.91720240924796 -0.06813666433615366 -0.3920731585249356 20 20 20 0.08212246591050625 15 1381 16 1220
1201 0.91720240924796 -0.06813666433615366 -0.3920731585249356 20 20 20 0.08212246591050625 15 1382 16 1221
1202 0.8825020366263867 -0.06503226830750584 -0.39050074919317906 24 27 26 0.21974057443705747 15 1390 16 1222 18 1005
1203 0.8825020366263867 -0.06503226830750584 -0.39050074919317906 24 27 26 0.21974057443705747 15 1391 16 1223 18 1006
1204 0.8914661000262502 -0.06839150592732166 -0.39064650905048043 21 24 23 0.04065133430287364 15 1398 16 1232
1205 0.9711070075685471 -0.07987833496177388 -0.3910211996434494 181 187 187 0.08550502182135604 15 1401 16 1243 17 1241
1206 0.8861523508824288 -0.07368054133833915 -0.39125886657519626 20 20 20 0.10115757806174903 15 1417 16 1250
1207 0.8861523508824288 -0.07368054133833915 -0.39125886657519626 20 20 20 0.10115757806174903 15 1418 16 1251
1208 0.912217111956694 -0.07801439687338704 -0.3906281302586568 23 24 20 0.29466334288254453 15 1420 16 1258 17 1245
1209 0.9123330228121068 -0.0781054960376106 -0.3909022695748202 23 24 20 0.3038240281538049 15 1421 16 1259 17 1246 18 1051
1210 0.9021670860873737 -0.0772031843716223 -0.39103649450605704 20 20 22 0.04120649127510578 15 1426 16 1260
1211 0.8953808719554978 -0.07715940272545593 -0.3909184462488269 23 23 23 0.16117923423841485 15 1429 16 1264 17 1249 18 1047
1212 0.8953759291555811 -0.07717055927032287 -0.3909605749488032 23 23 23 0.14196814251415724 15 1430 16 1265 17 1250
1213 0.9624598861351686 -0.08723309467739175 -0.39067358584978423 188 191 194 0.17954774642543406 15 1431 16 1272 17 1267
1214 0.9094745270701932 -0.08052575632112152 -0.3904818798684425 31 32 28 0.0551844260212253 15 1434 16 1269
1215 0.9730499394446179 -0.091222093162748 -0.3900958904843437 176 182 182 0.26574458751815694 15 1440 16 1278 17 1273 18 1080
1216 0.8981638151519976 -0.09183342613624261 -0.3883878644343743 157 165 164 0.28642343752838645 15 1461 17 1284 18 1084
1217 0.8369338507980033 0.07294360613991026 -0.38965884371396414 194 193 193 0.16846207315615833 15 662 17 423 16 420
1218 0.8381302800650626 0.05756667606949351 -0.3898537297652035 94 93 95 0.03383417411171649 15 769 17 525
1219 0.8381908566019187 0.055212146498608956 -0.38959241787117144 99 98 100 0.03827559358466963 15 779 17 539
1220 0.8349280756833418 0.051025130850411965 -0.3916244003726616 181 184 185 0.2754814664019359 15 809 16 577
1221 0.9634424413089543 0.04587567478846077 -0.39058292191030397 182 190 187 0.23521098390068126 15 858 17 670 18 449
1222 0.8374822263365199 0.04158943605188188 -0.3899697195661085 123 122 124 0.10197382241836979 15 869 17 621
1223 0.9007567739721665 0.03321672967455221 -0.39007277171917015 30 30 30 0.10300641520952881 15 919 17 699
1224 0.8378835607595886 0.013221151367233478 -0.390888367433292 160 163 166 0.2237695419134827 15 1035 17 781 16 789
1225 0.9915724496553922 0.007163913513941859 -0.3905199140019265 183 189 189 0.03883451465845824 15 1043 17 860
1226 0.903394769948169 0.007573886138950312 -0.3913450152701045 18 21 20 0.2663937918273099 15 1050 17 833 18 635
1227 0.8769937529049866 0.008406429604991578 -0.3896763396663488 37 37 39 0.05256539003023884 15 1051 17 816
1228 0.8769937529049866 0.008406429604991578 -0.3896763396663488 37 37 39 0.05256539003023884 15 1052 17 817
1229 0.998083441445751 0.003589391985693519 -0.39022451041166206 183 189 187 0.00752757050157486 15 1059 17 882
1230 0.8386271539698414 0.008894986051199509 -0.3897630987705224 112 108 109 0.16653798122424518 15 1060 17 801 18 580 16 819
1231 0.8379099439934671 -0.0017954051800964505 -0.3900467637835607 177 183 185 0.1613299524693801 15 1125 17 869 18 646
1232 0.8846997952910506 -0.005488288363768252 -0.39022949745161534 162 168 168 0.034046050667094076 15 1134 17 897
1233 0.8370906487825798 -0.003164670717580598 -0.3898548460228611 111 110 112 0.146245518943717 15 1136 17 875 16 916
1234 0.9541370241515735 -0.009825655844579183 -0.3913769528300275 164 170 168 0.19057554362449305 15 1137 17 939 16 942 18 752
1235 0.8386265058026625 -0.003992455770638232 -0.3899796417724387 137 131 133 0.22021800079826787 15 1139 17 881 16 923
1236 0.9577836758052786 -0.013549760180305273 -0.3910842748964959 34 39 44 0.0342278129658782 15 1147 17 953
1237 0.968407987353464 -0.020612144454736487 -0.39061514142278575 40 38 45 0.23756886863144808 15 1183 17 994 18 812 16 994
1238 0.968407987353464 -0.020612144454736487 -0.39061514142278575 40 38 45 0.23756886863144808 15 1184 17 995 18 813 16 995
1239 0.972614063014442 -0.020972602116933303 -0.3906876833048714 183 191 188 0.08045364084249398 15 1185 17 999
1240 0.9727492307877292 -0.020999415237049648 -0.3910167744273741 166 174 173 0.1927158317196294 15 1186 17 1000 16 997 18 817
1241 0.9675327183243244 -0.02382689830943034 -0.3898709142370855 38 41 42 0.026063979648786623 15 1200 17 1021
1242 0.9678024379334996 -0.023834312396197557 -0.39044238929132563 34 40 42 0.3217183774130262 15 1201 17 1022 16 1011 18 829
1243 0.947433752960607 -0.03581323035693679 -0.39011499632381136 25 29 24 0.06397591168024579 15 1245 17 1092
1244 0.9167424115990797 -0.07319957274364507 -0.3904874364628617 157 160 161 0.264413397825041 15 1406 17 1230 16 1239
1245 0.9167424115990797 -0.07319957274364507 -0.3904874364628617 157 160 161 0.264413397825041 15 1407 17 1231 16 1240
1246 0.9694246278342995 -0.09072750244301148 -0.39061306338529167 46 42 47 0.07189004042053544 15 1438 17 1272
1247 0.8355757129951015 0.14099814133227836 -0.39025673443928943 183 179 184 0.006542658345884935 15 315 18 37
1248 0.8355757129951015 0.14099814133227836 -0.39025673443928943 183 179 184 0.006542658345884935 15 316 18 38
1249 0.835694622443685 0.13769122150846516 -0.39068435288135167 162 156 158 0.19889292338789347 15 368 18 47 16 158
1250 0.8689590276935788 0.10320641926208918 -0.3924298309980817 22 28 26 0.05116577162624345 15 525 18 123
1251 0.8386490765103025 0.02885142121246793 -0.3900664469765504 100 96 99 0.01660308093874734 15 946 18 443
1252 0.8389736259883639 0.009703588924926046 -0.38967366329842384 166 165 165 0.012578010632452067 15 1053 18 570
1253 0.9327605525872915 0.0019983387057903833 -0.39057710778452326 156 164 163 0.12033687583464443 15 1083 18 676
1254 0.8651663282795757 -0.04805619108721652 -0.3908170251988723 18 21 20 0.12836137410014523 15 1327 18 923
1255 0.9429262717947603 -0.05767774389505678 -0.38958273040924885 23 23 23 0.13727807929675237 15 1334 18 983
1256 0.9065148863394372 -0.08040938410813117 -0.3905390476715521 160 159 161 0.011568849644981286 15 1436 18 1058
1257 0.9065148863394372 -0.08040938410813117 -0.3905390476715521 160 159 161 0.011568849644981286 15 1437 18 1059
1258 0.9845179475329111 0.08487564550192273 -0.39111985499384855 183 186 185 0.001877233170723789 16 447 17 491
1259 0.9261209523756052 0.07442015620066034 -0.39137122020358256 28 32 27 0.256926425719109 16 477 17 512 18 269
1260 0.9261209523756052 0.07442015620066034 -0.39137122020358256 28 32 27 0.256926425719109 16 478 17 513 18 270
1261 0.8769884755492221 0.06775275373840253 -0.39021494084322916 181 187 189 0.06730045939237747 16 493 17 497
1262 0.8373080451432551 0.06348460639294216 -0.39027434164568936 158 157 161 0.0969928653166914 16 495 17 481
1263 1.0027431245948812 0.07798520690761993 -0.39065153998838265 178 181 180 0.1811540882634435 16 502 17 542 18 312
1264 0.9359993400206975 0.06868407463212417 -0.39028352287360196 33 39 39 0.03590403613597459 16 514 17 545
1265 0.9911927108526781 0.06998381507752562 -0.39064708865038417 181 188 182 0.0036974439910038067 16 536 17 572
1266 0.9911927108526781 0.06998381507752562 -0.39064708865038417 181 188 182 0.0036974439910038067 16 537 17 573
1267 0.9953904590822181 0.06587386873884135 -0.3902187794629477 178 184 182 0.11313734677149036 16 559 17 594
1268 0.9953904590822181 0.06587386873884135 -0.3902187794629477 178 184 182 0.11313734677149036 16 560 17 595
1269 1.086280758195594 0.07313123576282114 -0.3957993531975705 75 78 79 0.139365955585445 16 564 17 613
1270 0.8351295606029818 0.0509473010747851 -0.390988905813161 185 188 187 0.06178878242559948 16 576 17 564
1271 0.9196542700756546 0.05149597538131843 -0.3867888621862524 35 38 39 0.10946794406543107 16 602 25 1249
1272 0.8382988269637567 0.04215156232173719 -0.3905284404348069 179 179 181 0.07499621740808764 16 629 17 617
1273 1.0916681687865384 0.05394224754798042 -0.4070771001188284 103 103 103 0.11925094670437805 16 652 17 703
1274 0.8375640939535068 0.03617865324443761 -0.38986311915619176 136 132 133 0.07080583235050669 16 659 17 658
1275 0.9980022115425211 0.040291517443850365 -0.3888521643560489 55 66 64 0.08816392384005274 16 677 17 710
1276 0.8370111345243274 0.03066029291066823 -0.3889843584123957 174 177 178 0.05990214000210418 16 690 17 680
1277 0.9715332800231666 0.03403746708669451 -0.3901472700183741 176 184 181 0.024080206235235366 16 705 17 730
1278 0.8937182301350091 0.0294574950833476 -0.3905767843954957 24 27 26 0.12307414060195827 16 711 17 717 18 489
1279 0.9160855745346266 0.0209940557715086 -0.3906157148672411 21 24 23 0.01837142464361985 16 762 17 771
1280 0.8377009658395722 0.012522780717938305 -0.39078566240011153 123 123 125 0.12047448345840996 16 797 17 784 18 549
1281 0.9968899115985796 0.012327236176014639 -0.39125926452297133 70 73 76 0.011606954263799882 16 808 17 836
1282 0.9968899115985796 0.012327236176014639 -0.39125926452297133 70 73 76 0.011606954263799882 16 809 17 837
1283 0.8739144601215246 0.009714172805379366 -0.39063353778017884 179 182 183 0.055825613889008835 16 814 17 812 18 604
1284 0.965250836753212 0.008219873732081388 -0.39070976511596006 26 34 31 0.017871018823103067 16 834 17 845
1285 0.8358366881912258 0.0032116389690451455 -0.3920177255185997 183 186 187 0.16513070925579082 16 867 17 835 18 615
1286 0.8734678795839214 0.0018828885117996822 -0.3902653088640729 33 32 34 0.002244019033743449 16 880 17 857
1287 0.8378863060737828 -0.017114790001657443 -0.3896401997011685 161 161 163 0.1380462102850658 16 1001 17 955
1288 0.9691925341511088 -0.02569096360588945 -0.39035751194664997 54 54 54 0.09224897267981018 16 1019 17 1030
1289 0.9691925341511088 -0.02569096360588945 -0.39035751194664997 54 54 54 0.09224897267981018 16 1020 17 1031
1290 0.8390413658224716 -0.02498368048707491 -0.3900510792569082 160 163 164 0.10757459691531801 16 1038 17 1012 18 794
1291 0.8390413658224716 -0.02498368048707491 -0.3900510792569082 160 163 164 0.10757459691531801 16 1039 17 1013 18 795
1292 0.9753953962642571 -0.03207803976507904 -0.3906535330904492 43 51 52 0.13727445754644987 16 1048 17 1069 18 877
1293 0.957870539110038 -0.0324239985765294 -0.39135257998405076 34 40 38 0.10609052807638358 16 1050 17 1072 18 874
1294 0.9577550174225816 -0.03240581111816167 -0.3911113928415708 36 39 40 0.10383971611351875 16 1051 17 1073
1295 0.9025880487726424 -0.03055969471338658 -0.39059306602337485 151 162 158 0.13028517271584217 16 1055 17 1060 18 848
1296 0.9845488060436417 -0.03550219289737153 -0.38921855162816577 38 46 45 0.13480514580278274 16 1066 17 1086
1297 0.9845488060436417 -0.03550219289737153 -0.38921855162816577 38 46 45 0.13480514580278274 16 1067 17 1087
1298 0.9477793349083601 -0.04131827586252249 -0.38993738828992175 164 170 170 0.004458654945193897 16 1107 17 1113
1299 0.933601666879496 -0.05648794105702158 -0.3906039628740996 34 35 31 0.24637637206765048 16 1171 17 1165 18 970
1300 0.9331913984157493 -0.056328739615299855 -0.38965053729214794 30 29 29 0.13833938588010472 16 1172 17 1166
1301 0.9364419636058279 -0.06013096473944742 -0.39017322862918485 168 176 173 0.24686876356067855 16 1185 17 1185 18 988
1302 0.9339134714654818 -0.06054748229747366 -0.3896539062641337 151 155 150 0.05845495366368732 16 1188 17 1187
1303 0.9478106322217258 -0.06710123549444212 -0.3891765043257156 164 168 163 0.1269819667163307 16 1205 17 1208
1304 0.9478106322217258 -0.06710123549444212 -0.3891765043257156 164 168 163 0.1269819667163307 16 1206 17 1209
1305 0.9228902859973693 -0.07304635162703144 -0.3896490364661818 18 21 22 0.0456318066627548 16 1238 17 1228
1306 0.8985864847149155 -0.08053820024243982 -0.390323411633717 155 155 151 0.14130296630886496 16 1274 17 1261
1307 0.8960661308817163 -0.09606497699361045 -0.39157134551673073 23 24 20 0.018250017523041725 16 1299 17 1289
1308 0.835369339321788 0.13521643121155863 -0.39113235310865546 119 119 115 0.045333791059561965 16 171 18 50
1309 0.8358792573516556 0.13431187350462176 -0.3909802637966255 165 161 162 0.11839869402887927 16 173 18 53
1310 0.8358792573516556 0.13431187350462176 -0.3909802637966255 165 161 162 0.11839869402887927 16 174 18 54
1311 0.8344124112530281 0.07703651785289405 -0.39237658283252197 187 187 187 0.1050380926656845 16 398 18 170
1312 0.9262869639730567 0.06300665081437283 -0.39123871496703566 26 32 30 0.13524031367119677 16 551 18 324
1313 0.9466854937634691 0.05812017769716984 -0.3907671053760798 178 186 183 0.11221240739756892 16 583 18 368
1314 1.0068908515224384 0.036819549386190684 -0.38949362495818396 57 68 68 0.09571940559551759 16 697 18 527
1315 0.9156381137892825 0.02608836958849082 -0.39022784728967 173 181 178 0.08257311365112678 16 732 18 522
1316 0.8739186844252668 0.009718385579512928 -0.39062534074461724 167 175 176 0.05011777253602554 16 815 18 605
1317 0.8377722604601497 -0.010306190869782251 -0.3898938614362427 176 179 180 0.06654933527789021 16 959 18 695
1318 0.8377722604601497 -0.010306190869782251 -0.3898938614362427 176 179 180 0.06654933527789021 16 960 18 696
1319 0.8391686589533982 -0.016049793638943016 -0.3899980916678567 168 168 168 0.01299266107508305 16 992 18 737
1320 0.9582561230503914 -0.024743506457040737 -0.39194341843121366 36 39 38 0.16487061108271253 16 1018 18 834 17 1026
1321 0.8792955473127418 -0.0619032690381603 -0.3902110305294444 16 19 18 0.12193276817479703 16 1209 18 998
1322 0.9744186243672277 -0.08498748035357072 -0.3896797482378433 22 30 31 0.07187446307416911 16 1261 18 1066
1323 0.9744186243672277 -0.08498748035357072 -0.3896797482378433 22 30 31 0.07187446307416911 16 1262 18 1067
1324 0.8879801751661311 0.08105655383692127 -0.3848706321403819 27 27 29 0.033322396994391996 16 401 25 972
1325 0.838027203130837 0.04927097720047473 -0.3823845096146511 172 173 169 0.09832809901714688 16 580 25 998
1326 0.8882261798191389 0.05030003557302366 -0.38429202681362556 172 175 174 0.1077836838858398 16 592 25 1162
1327 0.946028998256521 0.05224533771492664 -0.3887446788052026 45 48 49 0.08323335794305901 16 607 25 1320
1328 0.8359055581391711 0.04161556449077774 -0.38281843715945907 135 135 135 0.1001708424961267 16 620 25 1038
1329 0.9697370105815378 0.04734934101884556 -0.3877457495322896 62 68 68 0.08227236881541448 16 639 25 1421
1330 0.9836390387779751 0.02717339635646037 -0.38849086920823844 63 71 70 0.013274370375460191 16 741 25 1618
1331 0.9831642170473222 -0.004116683829293778 -0.3872281433961045 174 180 178 0.00170208276775529 16 907 25 1849
1332 0.9713085343192963 -0.014209031606767515 -0.3863216213222863 55 61 61 0.13090707948653407 16 966 25 1876
1333 0.9722909629279145 -0.07415753101991308 -0.3844514693365971 32 38 38 0.07963215656395174 16 1228 25 2219
1334 0.9656859294217007 -0.08530055689431322 -0.38554468868648456 185 188 189 0.011852934258448862 16 1267 25 2235
1335 0.9833223836624391 -0.09500207579914204 -0.3839457447905749 29 35 35 0.007577709593989767 16 1284 25 2251
1336 0.8833312957670338 -0.09638612322882226 -0.38468815778596127 20 23 24 0.11038414567173063 16 1302 25 2195
1337 0.8362854383848025 0.11959210347480205 -0.3929052119069296 197 193 196 0.040925397931157736 17 295 18 82
1338 0.83650647212426 0.11420829605825746 -0.39372187448296586 193 193 193 0.11543755880553658 17 304 18 93
1339 0.9081570852399387 0.1089209716158928 -0.39335967312782094 189 189 189 0.09049151041882461 17 332 18 135
1340 0.9081570852399387 0.1089209716158928 -0.39335967312782094 189 189 189 0.09049151041882461 17 333 18 136
1341 0.9712061371416034 0.10999449658441146 -0.3926681973100909 185 188 187 0.05063580357221905 17 361 18 166
1342 0.889311308565816 0.08910923498251644 -0.3912500067985882 186 186 186 0.02569757878865601 17 394 18 168
1343 0.889311308565816 0.08910923498251644 -0.3912500067985882 186 186 186 0.02569757878865601 17 395 18 169
1344 0.8617017068847375 0.06057781561878926 -0.390773534734811 35 34 34 0.10553644747314628 17 528 18 274
1345 1.0032389054883024 0.07446126618553518 -0.3917752609763257 62 62 62 0.11038022417216918 17 555 18 331
1346 0.9437417397827708 0.0615648234554101 -0.3912497113398293 31 35 30 0.06121011146107759 17 585 18 343
1347 0.9159218960170523 0.05794066763498857 -0.39182277378746905 23 27 22 0.005177716436460771 17 586 18 337
1348 0.9159218960170523 0.05794066763498857 -0.39182277378746905 23 27 22 0.005177716436460771 17 587 18 338
1349 0.890217591023812 0.051852860635945824 -0.3916299525157521 174 177 178 0.12711794065828133 17 605 18 355
1350 0.978722262626024 0.05915552317988614 -0.39208420170571956 41 47 47 0.009815790706646755 17 622 18 406
1351 1.008233256774558 0.05163947818180477 -0.3913300354560972 60 66 66 0.12148324228903014 17 669 18 454
1352 1.0086081178246786 0.0483080545150489 -0.39300554260340054 50 58 57 0.08175154601560658 17 683 18 477
1353 0.8937873921333076 0.030654743959282634 -0.38786796292892534 27 16 7 0.0882456846890432 17 708 18 478
1354 0.8937873921333076 0.030654743959282634 -0.38786796292892534 27 16 7 0.0882456846890432 17 709 18 479
1355 0.9688125807896006 0.037711516174069135 -0.39209659342671765 36 39 42 0.07891441435683073 17 712 18 503
1356 0.8849400979718152 0.020560150864124202 -0.39182645451336817 169 172 173 0.08487326301830665 17 764 18 541
1357 0.9223252883531822 0.02129838949599306 -0.3921649020848085 164 170 170 0.09625223117318513 17 775 18 562
1358 0.9540108784289056 0.021814300673663474 -0.3922614613577828 29 32 33 0.12370457562731078 17 782 18 593
1359 0.9540108784289056 0.021814300673663474 -0.3922614613577828 29 32 33 0.12370457562731078 17 783 18 594
1360 0.9796847096929949 0.022206246826691065 -0.39261650897982925 43 49 51 0.04963884156107435 17 786 18 602
1361 0.8791420327528531 0.01396291580867691 -0.39211832244378375 20 24 19 0.08894386274876659 17 793 18 583
1362 0.9038716966814817 0.00794990645956155 -0.39289090790627224 16 19 18 0.08481612517175954 17 832 18 634
1363 0.8380600939307167 0.0018831578422559706 -0.39012984554222074 176 179 182 0.07101210779615796 17 843 18 621
1364 0.8381532451217347 -0.00748783753570916 -0.39019481036351733 160 160 156 0.11965326858625389 17 898 18 678
1365 0.8381532451217347 -0.00748783753570916 -0.39019481036351733 160 160 156 0.11965326858625389 17 899 18 679
1366 0.9225682816808907 -0.010099247465771392 -0.3921243790995425 21 24 23 0.038216289949745005 17 931 18 747
1367 1.009393994215687 -0.01054940798180239 -0.39169004484742126 62 68 68 0.11734945065765562 17 951 18 778
1368 0.9017983356880811 -0.021948683468019904 -0.39074319495429477 31 30 30 0.12760232808618419 17 997 18 800
1369 0.8697399015370374 -0.02412592290501186 -0.392011293726233 16 19 18 0.10223744657956037 17 1009 18 808
1370 0.8377223367824747 -0.025052383229803396 -0.3895401546959801 177 180 181 0.1263948438815169 17 1014 18 791
1371 0.8391543626453128 -0.026968102273982917 -0.38967947792090063 186 186 188 0.11483147173183697 17 1029 18 809
1372 1.0089971300369682 -0.02691423216210416 -0.39224293922824255 47 55 56 0.1171145378284959 17 1041 18 861
1373 0.9165211903533085 -0.03655379337455324 -0.39058670405807594 154 162 161 0.07757829329120404 17 1099 18 885
1374 0.8788616087890729 -0.05336009307604035 -0.39092941758332433 158 164 164 0.0067785407694295 17 1157 18 942
1375 0.870505516333494 -0.060878480271371195 -0.39032242363707914 27 30 31 0.06913772718665026 17 1197 18 989
1376 0.8635965957111187 -0.06494380310895685 -0.3903428431914855 26 26 26 0.0005658402381863982 17 1213 18 1004
1377 0.8607793728243495 -0.07492687810378512 -0.3916082876842266 20 23 24 0.037704998689567046 17 1247 18 1042
1378 0.9974220694870768 -0.15413959605355967 -0.3949959952925407 35 42 36 0.0851668401772928 17 1345 18 1131
1379 1.013685381379197 -0.15673280669318754 -0.39388559010997315 27 33 31 0.00327228202369737 17 1348 18 1136
1380 1.0043367531021024 -0.15756024194566431 -0.393192536703248 31 35 30 0.08649422267713446 17 1362 18 1143
1381 1.0050114612864165 -0.16068804887928587 -0.3987628103438655 13 20 14 0.1322657568426805 17 1369 18 1146
1382 1.0050114612864165 -0.16068804887928587 -0.3987628103438655 13 20 14 0.1322657568426805 17 1370 18 1147
1383 0.9871653416912995 -0.15675484962211614 -0.39478700948949963 27 30 29 0.10330255878809566 17 1371 18 1144
1384 0.9868853482408264 -0.14595651607664195 -0.39066245359670315 27 38 36 0.019665840193281554 17 1316 25 2290
1385 1.000511088446126 -0.15069275927369677 -0.38267132342814114 20 24 17 0.09707674136136822 17 1346 25 2345
1386 0.9110519429295763 0.07959971729959703 -0.3841355425745868 29 32 31 0.10455436954669428 24 329 26 674
1387 0.9342698984226437 0.0701917712061656 -0.3834221086244709 182 188 186 0.06187405738875715 24 402 26 761
1388 0.9286958226617874 0.03574226553637388 -0.38194614953893846 25 32 26 0.07789051403601914 24 619 26 940
1389 0.8816177813745772 -0.006471551342495652 -0.38314659749848373 176 182 182 0.07643787532744062 24 911 26 1131
1390 0.8816177813745772 -0.006471551342495652 -0.38314659749848373 176 182 182 0.07643787532744062 24 912 26 1132
1391 0.8983936995142706 -0.03080730866402827 -0.3816217665968898 163 171 168 0.13704143993952184 24 1102 26 1286
1392 0.9276081530145069 -0.04880350326903082 -0.3799449051562467 38 38 38 0.08001473164279664 24 1197 26 1408
1393 0.9276081530145069 -0.04880350326903082 -0.3799449051562467 38 38 38 0.08001473164279664 24 1198 26 1407
1394 0.9243814035720458 -0.0563435412294041 -0.38217089359718737 155 161 159 0.11372751216947978 24 1234 26 1425
1395 0.9025776848838779 -0.07919115506186347 -0.38283032891765756 166 167 163 0.1017838108561745 24 1325 26 1504
1396 0.9034993311675572 -0.08296678735084011 -0.38221081288063696 24 27 28 0.007816241040691391 24 1339 26 1520
1397 0.8954917099778158 -0.09084447037502505 -0.38374813335051267 164 164 164 0.09203031449247581 24 1351 26 1531
1398 0.8628985327249519 -0.02430845954768215 -0.36316495644709756 17 20 19 0.10499606578991003 24 1046 27 1082
1399 0.8937610096627986 -0.025071994081682182 -0.35933070895497643 172 178 178 0.04720581218532105 24 1061 27 1133
1400 0.8937610096627986 -0.025071994081682182 -0.35933070895497643 172 178 178 0.04720581218532105 24 1062 27 1134
1401 0.8968123986030835 -0.03006723341349883 -0.35796264246463405 22 28 26 0.1320146668613211 24 1103 27 1168
1402 0.8849907698808752 -0.03236068995000948 -0.3614360059410681 28 31 30 0.0468592089169404 24 1115 27 1166
1403 0.8819975910459302 -0.0357078653440272 -0.3623831105559771 170 173 172 0.08849954254406577 24 1148 27 1180
1404 0.8819085669814964 -0.04057303490385099 -0.3618022134742864 20 27 21 0.015256146615222088 24 1173 27 1207
1405 0.8760489538599052 -0.04059223340308167 -0.3604947411080947 173 173 173 0.12050693117818409 24 1174 27 1196
1406 0.8720775771814435 -0.04557754390624382 -0.36379236100062035 23 23 23 0.0817167187077701 24 1195 27 1221
1407 0.8720775771814435 -0.04557754390624382 -0.36379236100062035 23 23 23 0.0817167187077701 24 1196 27 1222
1408 0.8588992085210008 -0.04593834979812331 -0.36427218131130784 21 24 23 0.012259142718354049 24 1202 27 1214
1409 0.8603358633068865 -0.05079135700186123 -0.36363281700822264 167 170 169 0.029832183307491097 24 1227 27 1240
1410 0.8918893829487345 -0.051388995921173096 -0.35798155216900385 17 20 19 0.03261853343833242 24 1229 27 1280
1411 0.8706132061629357 -0.053670193390411805 -0.36365032361271105 29 29 33 0.06584889421130113 24 1245 27 1265
1412 0.8706132061629357 -0.053670193390411805 -0.36365032361271105 29 29 33 0.06584889421130113 24 1246 27 1266
1413 0.8608678958896289 -0.054461188580871366 -0.3642155462157977 27 26 28 0.07937504621135513 24 1254 27 1258
1414 0.9232290894386608 0.08527161388851481 -0.3938215977291842 176 177 173 0.02489178144851291 25 1075 28 577
1415 0.9232290894386608 0.08527161388851481 -0.3938215977291842 176 177 173 0.02489178144851291 25 1076 28 578
1416 0.9633947174397725 0.10321030501392345 -0.3967640448963579 177 177 173 0.06853743898905543 25 1099 28 465
1417 0.9664831014854302 0.1044740702755833 -0.3964647543970678 58 57 57 0.08234267211317044 25 1100 28 456
1418 0.9664831014854302 0.1044740702755833 -0.3964647543970678 58 57 57 0.08234267211317044 25 1101 28 457
1419 0.9558687755460517 0.09181723530850229 -0.39545272049233743 181 181 177 0.0768890852752051 25 1132 28 542
1420 0.9558687755460517 0.09181723530850229 -0.39545272049233743 181 181 177 0.0768890852752051 25 1133 28 543
1421 0.9230020933495382 0.058813644919220656 -0.3931801379366525 173 176 175 0.11929001981122399 25 1219 28 768
1422 0.9230020933495382 0.058813644919220656 -0.3931801379366525 173 176 175 0.11929001981122399 25 1220 28 769
1423 0.8363237819129725 0.003956882029491398 -0.38996877151413784 167 170 171 0.05034297330395595 25 1275 28 1206
1424 0.9024825207222611 0.030982233140392168 -0.39290326084491156 25 31 31 0.1190486229166726 25 1318 28 973
1425 0.8730813827604623 0.015629818669907924 -0.3914445856199176 19 25 23 0.05108186371069549 25 1324 28 1095
1426 0.8376927954412582 -0.006103576872276901 -0.38416154455239804 159 159 163 0.05166697015811038 28 1267 31 1951
1427 0.838964328404302 -0.018025539774256225 -0.3915576961912648 157 165 164 0.00372232680711483 25 1439 28 1332
1428 0.9038631325212195 0.008534150237645846 -0.3909982527533461 18 24 22 0.08123864078439007 25 1453 28 1150
1429 0.9907855031707132 0.044028438308730836 -0.3951871400970712 59 67 68 0.10015714724640591 25 1487 28 869
1430 0.8386906319276319 -0.029508958022000657 -0.3916308710172502 159 167 164 0.11547346234400738 25 1536 28 1383
1431 0.8389347034873729 -0.03170156801925145 -0.3923488162931806 79 80 76 0.13045738491724937 25 1564 28 1396
1432 0.8397385119463167 -0.034931205758085365 -0.3928947392426293 153 156 155 0.1344862451191581 25 1592 28 1415
1433 0.8714550131908818 -0.023278461635707962 -0.3951366673295059 13 19 17 0.059774486773085896 25 1610 28 1341
1434 1.0024345711190168 0.02923683323211609 -0.3936926432663731 72 83 83 0.039239715108347714 25 1665 28 992
1435 1.0006585049261103 0.02140266551792394 -0.39465333062998836 73 73 77 0.1169426072265242 25 1709 28 1053
1436 0.9978648094170469 0.01348596733525023 -0.39499360686413104 73 76 77 0.0807938535972842 25 1749 28 1101
1437 0.8638019466478202 -0.04563000032431128 -0.3846513878153196 28 34 36 0.011246364726460177 28 1480 31 2145
1438 0.9605430240683734 -0.014348924697650664 -0.3922230234434518 125 133 134 0.12858687749158765 25 1843 28 1287
1439 0.8974038853855298 0.10565250257441758 -0.3822816385726696 189 189 191 0.07407822795555505 28 401 31 968
1440 0.94285813429951 0.08334772025606348 -0.3836150262732769 187 190 189 0.11994213847274794 28 581 31 1110
1441 0.9865178925443933 0.07674051732244978 -0.38261728328806727 75 83 82 0.0062720202676430055 28 637 31 1103
1442 0.8712650968870231 0.0712231438693214 -0.3832085903484057 178 184 184 0.027579352856734195 28 648 31 1284
1443 0.9094937888110314 0.04857417855451257 -0.3839923800468894 37 40 41 0.13257366810013915 28 828 31 1401
1444 0.9094937888110314 0.04857417855451257 -0.3839923800468894 37 40 41 0.13257366810013915 28 829 31 1402
1445 0.8828753631647521 0.0209837720719518 -0.3851347878662356 169 180 178 0.04390196409233051 28 1063 31 1623
1446 0.8379453033724493 0.009894673452840041 -0.3840896382539388 100 100 100 0.1261602575365416 28 1147 31 1798
1447 0.8379453033724493 0.009894673452840041 -0.3840896382539388 100 100 100 0.1261602575365416 28 1148 31 1797
1448 0.8370035873329812 0.006713977386150131 -0.3840065110738016 176 182 184 0.05529582086357321 28 1179 31 1827
1449 0.8635797969432156 0.005135490283364235 -0.38347296026759936 166 177 173 0.03448867159346114 28 1189 31 1778
1450 0.8635797969432156 0.005135490283364235 -0.38347296026759936 166 177 173 0.03448867159346114 28 1190 31 1779
1451 0.8370386376094596 0.001447218948589462 -0.38415498171359674 86 89 88 0.10987175490561905 28 1224 31 1882
1452 0.8365611923793111 -0.0018909191134825055 -0.3846510025785036 85 91 91 0.12133558907222844 28 1247 31 1905
1453 0.8938150943037849 -0.014340016405057962 -0.3848631334471484 22 28 28 0.028693121888924995 28 1301 31 1889
1454 0.8938150943037849 -0.014340016405057962 -0.3848631334471484 22 28 28 0.028693121888924995 28 1302 31 1890
1455 0.8377590827611573 -0.013023300461271464 -0.38474410180122093 190 189 191 0.04642475010547896 28 1308 31 2002
1456 0.9562450868289196 -0.01974829534554115 -0.3837884480833857 186 189 190 0.11116534294502463 28 1317 31 1804
1457 0.9562450868289196 -0.01974829534554115 -0.3837884480833857 186 189 190 0.11116534294502463 28 1318 31 1805
1458 0.8366923438205118 -0.018502968334835227 -0.38442987374247684 147 143 148 0.10373188034804229 28 1335 31 2052
1459 0.8391818964525556 -0.02580682870650065 -0.38506112813542137 132 128 131 0.115152464086171 28 1372 31 2084
1460 0.8391818964525556 -0.02580682870650065 -0.38506112813542137 132 128 131 0.115152464086171 28 1373 31 2085
1461 0.8892241821548699 -0.0348099302115262 -0.3847609677765091 186 186 186 0.06626014260327058 28 1404 31 2060
1462 0.92718615296192 -0.050515226562827566 -0.3845710775276792 186 186 186 0.09874780243205891 28 1484 31 2089
1463 0.9019017218142933 -0.05236606339082863 -0.3848985464349715 22 25 24 0.05378960179391202 28 1495 31 2132
1464 0.8771599458863851 -0.05083629996227146 -0.3850623726392804 185 185 185 0.10813653704709722 28 1498 31 2153
1465 0.865288737278747 -0.05097702105611734 -0.3844775506453634 184 183 183 0.06063278183821648 28 1503 31 2171
1466 0.8593469967806306 -0.0714633579561438 -0.3849753279316783 28 31 30 0.04174408041874227 28 1588 31 2230
1467 0.9654278165694884 -0.08711365875977037 -0.384520195593847 40 38 54 0.030380212401945782 28 1597 31 2190
1468 0.8370189860230672 0.16418040476029563 -0.38232501834302735 30 31 27 0.04719797277721683 29 288 30 389
1469 0.8355723956601409 0.1215179759729912 -0.37835337707611805 158 157 157 0.13763067664895204 29 492 30 628
1470 0.9160581374105732 0.1102643879156468 -0.3725006531623328 33 39 39 0.08305962091916413 29 522 30 680
1471 0.8908157703006678 0.10721824812753009 -0.37603121848104526 33 39 41 0.12519773133741324 29 531 30 698
1472 0.8964168109653811 0.10501967487432959 -0.3754950223371962 185 188 187 0.03823389598337849 29 537 30 708
1473 0.9516069419791252 0.10777058046389221 -0.37488004896621424 41 44 47 0.03360660195192731 29 538 30 705
1474 0.8360553996279655 0.09995857890160734 -0.37823587626622124 183 189 191 0.12653493541616262 29 543 30 729
1475 0.9555791155145612 0.10505248679230067 -0.3734800711427653 60 57 52 0.14255658854448472 29 549 30 717
1476 0.9590434959078897 0.10263032886943209 -0.3741756044686704 60 57 54 0.045964362723805885 29 556 30 736
1477 0.8989084936231265 0.09988574180334442 -0.37763903348735556 35 38 39 0.020118501030214193 29 557 30 741
1478 0.8989084936231265 0.09988574180334442 -0.37763903348735556 35 38 39 0.020118501030214193 29 558 30 742
1479 0.8359112184937355 0.09588400366839268 -0.37889015279180427 140 140 142 0.05323444484063023 29 560 30 758
1480 0.9556277499750095 0.09922354138361156 -0.37533900610611143 46 45 45 0.03567475710301862 29 566 30 755
1481 0.9556277499750095 0.09922354138361156 -0.37533900610611143 46 45 45 0.03567475710301862 29 567 30 756
1482 0.8359414880855358 0.09130362271550628 -0.37860827891202037 127 123 126 0.01549865529371075 29 570 30 776
1483 0.9035781059878042 0.09519540987492517 -0.3776290187670255 181 189 186 0.06993021437491187 29 572 30 770
1484 0.8930807957357397 0.09385256775832135 -0.375633354613572 181 187 185 0.022896798318257992 29 573 30 771
1485 0.8359816075359919 0.0886118946243161 -0.37804082255218113 129 128 128 0.08617855163007028 29 579 30 800
1486 0.8897622449932382 0.09075132745999988 -0.37689334617530124 38 38 38 0.008675087815166157 29 582 30 791
1487 0.907440961104092 0.091324713338333 -0.37743737854222176 40 41 37 0.05279228896624599 29 583 30 792
1488 0.907440961104092 0.091324713338333 -0.37743737854222176 40 41 37 0.05279228896624599 29 584 30 793
1489 0.9507708357185733 0.09236100332443004 -0.3735080626938204 33 39 41 0.06747379176705767 29 585 30 780
1490 0.9507708357185733 0.09236100332443004 -0.3735080626938204 33 39 41 0.06747379176705767 29 586 30 781
1491 0.8569455938948962 0.08766563296632156 -0.3771904932753673 29 35 33 0.05375510132728981 29 587 30 805
1492 0.8361419790903061 0.08599725456283663 -0.37927947567060005 188 188 188 0.10206007003357283 29 589 30 831
1493 0.886357818625086 0.08717771269201512 -0.3768052053497181 181 189 188 0.0012228007946488556 29 594 30 813
1494 0.8864753585197719 0.08162293778618909 -0.37659327136396803 32 35 36 0.04396016159868048 29 612 30 870
1495 0.8864753585197719 0.08162293778618909 -0.37659327136396803 32 35 36 0.04396016159868048 29 613 30 871
1496 0.9161126443497984 0.08203927753132317 -0.3750765964200947 181 187 185 0.032854320147597885 29 615 30 863
1497 0.9161126443497984 0.08203927753132317 -0.3750765964200947 181 187 185 0.032854320147597885 29 616 30 864
1498 0.9407010005092457 0.08290272774558081 -0.37618809096376554 184 187 188 0.055049437726456284 29 618 30 855
1499 0.9407010005092457 0.08290272774558081 -0.37618809096376554 184 187 188 0.055049437726456284 29 619 30 856
1500 0.9460783846788047 0.08215845321553567 -0.37457285064594265 37 40 43 0.05093705547303622 29 620 30 868
1501 0.9460783846788047 0.08215845321553567 -0.37457285064594265 37 40 43 0.05093705547303622 29 621 30 869
1502 0.8338970361543413 0.07628448212155596 -0.3804986321320447 188 191 192 0.06950210625702884 29 626 30 906
1503 0.8612197054273458 0.07665473317801001 -0.37882745199516416 33 33 35 0.0939992617099516 29 627 30 901
1504 0.9372745692209681 0.07911288086052275 -0.37591242950716236 34 33 33 0.0163258896169491 29 628 30 891
1505 0.9302407428053866 0.07822607739184383 -0.3750759000446532 32 32 32 0.03012974828444201 29 630 30 897
1506 0.8754462589366373 0.07585295080973176 -0.3781360174983109 28 31 30 0.0020947760035203425 29 632 30 913
1507 0.8754462589366373 0.07585295080973176 -0.3781360174983109 28 31 30 0.0020947760035203425 29 633 30 915
1508 0.8754462589366373 0.07585295080973176 -0.3781360174983109 28 31 30 0.0020947760035203425 29 634 30 916
1509 0.866853184287785 0.07505870232909237 -0.3778678991132369 179 185 187 0.016044460692679695 29 638 30 924
1510 0.8365086792398474 0.07280966672376231 -0.3788924112306146 186 185 192 0.015076141520861062 29 644 30 940
1511 0.9263525393327503 0.07586852881359704 -0.37547615979240034 178 189 189 0.07850250058336754 29 646 30 918
1512 0.9340940055598318 0.0760776758923073 -0.37541723412015554 178 186 185 0.013768819441604945 29 647 30 910
1513 0.9340940055598318 0.0760776758923073 -0.37541723412015554 178 186 185 0.013768819441604945 29 648 30 911
1514 0.836439362379783 0.07230009342231407 -0.37843845170410634 191 194 197 0.04354692577161748 29 649 30 947
1515 0.93047070189117 0.07537269885168504 -0.375990395533229 42 34 31 0.04007734628466063 29 651 30 927
1516 0.93047070189117 0.07537269885168504 -0.375990395533229 42 34 31 0.04007734628466063 29 652 30 928
1517 0.83545060754243 0.07180962455818168 -0.37870331186019407 134 130 135 0.11908787065354122 29 653 30 952
1518 0.83545060754243 0.07180962455818168 -0.37870331186019407 134 130 135 0.11908787065354122 29 654 30 953
1519 0.8672547518583561 0.07118737368208944 -0.3780222390030992 37 32 30 0.01092674879325066 29 662 30 959
1520 0.8672547518583561 0.07118737368208944 -0.3780222390030992 37 32 30 0.01092674879325066 29 663 30 960
1521 0.8362865319445835 0.06964875325043272 -0.37739188345661323 186 189 192 0.0662946000998737 29 664 30 972
1522 0.9336619395592375 0.07289605880735403 -0.3759773266796987 182 190 189 0.08052213191431967 29 666 30 941
1523 0.9231022057335314 0.0710197631266392 -0.37478863216379166 45 34 25 0.07981965253902758 29 672 30 957
1524 0.9231022057335314 0.0710197631266392 -0.37478863216379166 45 34 25 0.07981965253902758 29 673 30 958
1525 0.9581305028656492 0.07024317454017784 -0.375958753431696 26 32 30 0.014235273838239025 29 682 30 971
1526 0.8708933703931289 0.06761330447239884 -0.3783557115081561 44 40 43 0.05931548530988732 29 683 30 991
1527 0.8748572552967987 0.06750847273706437 -0.3780879291145313 177 185 186 0.06643345432791885 29 684 30 992
1528 0.8639968371600496 0.0667693780050732 -0.37801647987916126 43 29 23 0.085390849131455 29 686 30 999
1529 0.8639968371600496 0.0667693780050732 -0.37801647987916126 43 29 23 0.085390849131455 29 687 30 1000
1530 0.9223759138709453 0.06802201458692414 -0.3754508620724952 180 188 187 0.02802837462027019 29 688 30 983
1531 0.9223759138709453 0.06802201458692414 -0.3754508620724952 180 188 187 0.02802837462027019 29 689 30 984
1532 0.9257600692044042 0.06781258391383413 -0.3763867537226854 181 189 188 0.03522215291722736 29 690 30 987
1533 0.9257600692044042 0.06781258391383413 -0.3763867537226854 181 189 188 0.03522215291722736 29 691 30 988
1534 0.8632455264261572 0.06342348338568146 -0.3772666164915732 180 183 184 0.042834330741532776 29 697 30 1021
1535 0.8632455264261572 0.06342348338568146 -0.3772666164915732 180 183 184 0.042834330741532776 29 698 30 1022
1536 0.9234135395697619 0.06494289084549065 -0.37536221518293755 42 31 24 0.05253357855535171 29 699 30 1008
1537 0.9234135395697619 0.06494289084549065 -0.37536221518293755 42 31 24 0.05253357855535171 29 700 30 1009
1538 0.8363555412950745 0.06146284676193836 -0.3800559879902418 187 187 189 0.06698022750960292 29 709 30 1038
1539 0.8363555412950745 0.06146284676193836 -0.3800559879902418 187 187 189 0.06698022750960292 29 710 30 1037
1540 0.8772211118955852 0.06254568438589916 -0.3818494895579488 25 28 27 0.017026169279377158 29 715 30 1033
1541 0.9211136632860402 0.062309338725177285 -0.37562125174177974 25 28 27 0.006709534759194783 29 717 30 1028
1542 0.8604602694149766 0.06046763513541997 -0.37885553613043577 39 39 43 0.09957044199143923 29 718 30 1040
1543 0.8375284660907333 0.057865834946671316 -0.37888104150664426 112 111 113 0.07786238236182792 29 724 30 1063
1544 0.9162151046496974 0.057251559139734565 -0.37460422905448615 177 185 184 0.08413759580124289 29 734 30 1056
1545 0.9162151046496974 0.057251559139734565 -0.37460422905448615 177 185 184 0.08413759580124289 29 735 30 1057
