# 3D point list with one line of data per point:
# POINT3D_ID, X, Y, Z, R, G, B, ERROR, TRACK[] as (IMAGE_ID, POINT2D_IDX)
# Number of points: 426, mean track length: 2.167570825798674
916 0.9893226237165578 -0.09704173342118397 -0.39467272542685505 30 36 36 0.09643424077086743 13 1556 15 1449
917 0.8361089521878954 0.11150056547778675 -0.38833088304096086 196 195 197 0.10181069997712212 13 537 16 248
918 0.8342319286406963 0.10950720088957204 -0.38780431020294 193 193 193 0.1196167454147698 13 540 16 253
919 0.9794990149025371 0.11276170106542559 -0.38457079699325847 36 38 44 0.07500429439681863 13 571 16 299
920 0.9794990149025371 0.11276170106542559 -0.38457079699325847 36 38 44 0.07500429439681863 13 572 16 300
921 0.9565530367046554 0.10829313616755476 -0.38683749675980866 33 39 41 0.07373219721423309 13 576 16 305
922 0.836767700474062 0.09050090359671152 -0.3887641198274083 188 188 188 0.05184495905830554 13 581 16 315
923 0.930432149056428 0.10161865755504834 -0.3847562246845209 26 32 30 0.054047946728203074 13 586 16 316
924 0.9655516881218841 0.10453168579249646 -0.38959490803196783 54 54 58 0.3068744596763356 13 596 16 334 15 544
925 0.9614232529474632 0.10135294003204147 -0.3866237208312328 170 178 177 0.05238626267969863 13 604 16 341
926 0.9614232529474632 0.10135294003204147 -0.3866237208312328 170 178 177 0.05238626267969863 13 605 16 342
927 0.8365842132931336 0.08375642297455406 -0.3883584868478313 193 193 195 0.05459875105368494 13 606 16 349
928 0.9671577247386174 0.09568080286828606 -0.3887377482297956 166 170 165 0.09290295768540563 13 629 16 380
929 0.9465340897277297 0.08905258886212317 -0.39125641366318553 34 41 35 0.05222977589084545 13 654 16 399 15 612
930 0.8375054950869503 0.07264950722810788 -0.3897604489592289 183 183 185 0.13802450099892313 13 660 16 419
931 0.8374450293832155 0.07204878942505262 -0.3890526333162475 182 182 184 0.06925127702064462 13 661 16 421
932 0.9759084057671128 0.08860193110593545 -0.3885449476027204 165 171 169 0.11226402560903936 13 668 16 406
933 0.9759084057671128 0.08860193110593545 -0.3885449476027204 165 171 169 0.11226402560903936 13 669 16 407
934 0.8729149384419738 0.0746563187982984 -0.39093991451830357 38 38 38 0.22066773062650946 13 680 16 437 15 667
935 0.9528887313075787 0.08405291957926689 -0.39231124256705835 38 41 44 0.30093175030483393 13 684 16 432 25 1160
936 0.9528887313075787 0.08405291957926689 -0.39231124256705835 38 41 44 0.30093175030483393 13 685 16 433 25 1161
937 0.8380262056719701 0.06733062402142796 -0.39023608504483526 122 118 119 0.04443488916088969 13 693 16 462
938 0.869909045525776 0.071350215874721 -0.3912859464942242 33 30 25 0.0771315988834182 13 697 16 455
939 0.869909045525776 0.071350215874721 -0.3912859464942242 33 30 25 0.0771315988834182 13 698 16 456
940 0.9431962642671894 0.0799242921335558 -0.3915358580498294 34 40 38 0.10670072599098955 13 700 16 450
941 0.9831343762478426 0.08383798977744948 -0.3899082102089844 167 170 169 0.04035158053303943 13 703 16 446
942 0.8374979262730293 0.06408495881902827 -0.38999374105339507 187 186 186 0.13543312299013274 13 715 16 482
943 0.8374979262730293 0.06408495881902827 -0.38999374105339507 187 186 186 0.13543312299013274 13 716 16 483
944 0.987384090511339 0.0813234817858823 -0.39185992448337925 58 64 66 0.27019338091457584 13 719 16 472 15 675
945 0.8375988273292191 0.06267980975375478 -0.39005258374057017 186 185 187 0.052061754420138835 13 724 16 499
946 0.9916967095889146 0.07752530325141516 -0.3915629915086782 60 68 67 0.2736240436071217 13 736 16 500 15 699
947 0.8388730902013323 0.05749071569461694 -0.3905764364358355 101 95 97 0.05248803032656902 13 746 16 532
948 0.9972287297854321 0.07320233461044132 -0.38958175438165343 170 173 172 0.017870574002066722 13 749 16 516
949 0.9972287297854321 0.07320233461044132 -0.38958175438165343 170 173 172 0.017870574002066722 13 750 16 517
950 0.837025976511814 0.056389378946364976 -0.39071430078094793 114 110 111 0.09108558286796271 13 759 16 539
951 0.9901838337762112 0.06941392977506612 -0.3904087991614967 166 169 168 0.13195849590792205 13 773 16 536
952 1.0015079990640543 0.0663023091174018 -0.3911794395984533 185 191 189 0.23649956744630804 13 790 16 558 15 760
953 0.8377763478366804 0.05059200306534995 -0.3903279888490406 185 185 187 0.031008572890833332 13 793 16 578
954 0.8377763478366804 0.05059200306534995 -0.3903279888490406 185 185 187 0.031008572890833332 13 794 16 579
955 0.9162971741364709 0.05730593574607701 -0.3925071259875579 23 30 24 0.012146893686724673 13 798 16 573
956 0.8605756021709047 0.04915191250152569 -0.3923074961793402 25 28 27 0.13667934395861636 13 813 16 595
957 0.8962469315511006 0.04695038945108323 -0.394186164769995 26 26 26 0.20731117115910652 13 845 16 624 15 853
958 1.0071910569124407 0.016987278812710796 -0.39499467473069355 53 63 66 0.017666881452545496 13 1039 16 786
959 0.8660117955440564 0.004552973253400063 -0.39127629798784447 161 169 168 0.1359552624899782 13 1086 16 859
960 0.8680925676568546 0.0023170395088303376 -0.3944220917680975 41 27 23 0.22367651335491698 16 877 17 853 18 644
961 0.8964603955552846 -0.015380939029010289 -0.3919247757378158 21 24 23 0.1386094611394803 13 1205 16 981
962 0.8394070056648473 -0.03498534514071043 -0.3895497960882549 157 160 159 0.04085423545279877 13 1336 16 1113
963 0.8405048272215767 -0.03733096371486432 -0.3932003956713534 84 78 82 0.09524279686477248 16 1121 18 869
964 0.8405004435833819 -0.03734199866753018 -0.3932145298515311 84 78 82 0.10122356054506258 16 1122 18 870 17 1106
965 0.8914859940305343 -0.041338514118421654 -0.39048390380368536 18 21 20 0.22138683306170218 13 1359 16 1129 15 1292
966 0.8776656374083888 -0.05507507287990709 -0.3873592066389403 27 26 28 0.09658067258569479 13 1423 16 1190
967 0.8776656374083888 -0.05507507287990709 -0.3873592066389403 27 26 28 0.09658067258569479 13 1424 16 1191
968 0.868198172429999 -0.06145269400790794 -0.39523606292222674 159 159 161 0.03493040693573343 17 1199 15 1383
969 0.8669374950501311 -0.060136146381707285 -0.3887487115190703 158 159 155 0.025930249812573643 13 1450 16 1215
970 0.8917879510484554 -0.06688739769579506 -0.391355013151288 21 24 23 0.11572737723326741 13 1473 15 1397
971 0.8365293340874219 0.15419554889258005 -0.41372417525866817 112 108 109 0.05916779642933697 13 469 18 50
972 0.8956119330943011 0.04637140965564291 -0.3921075934213062 12 20 19 0.083362191491094 13 846 18 397
973 0.8747751787585334 0.0022766305949627735 -0.3938429810059286 33 32 34 0.1993727461417674 18 649 16 881 17 858
974 0.8374145060144297 -0.02443878172960194 -0.39459772111756425 154 165 165 0.0764096829237985 13 1258 18 793
975 0.8408373687111173 -0.0333746791952082 -0.39515918654660126 109 112 113 0.07174187338956271 13 1323 18 850
976 0.838983239637883 -0.037348491535740325 -0.3951348282650572 85 82 77 0.12335220529388441 13 1347 18 872
977 0.838983239637883 -0.037348491535740325 -0.3951348282650572 85 82 77 0.12335220529388441 13 1348 18 873
978 1.0057240549596085 -0.04761794220109537 -0.3960842895612073 37 48 48 0.13534823762388265 13 1364 18 933
979 0.9981802894076386 -0.05877125712421474 -0.39498828761189764 44 43 50 0.09719719127971505 13 1409 18 987
980 1.0000746756410765 -0.060141937224084306 -0.39258309661086066 181 187 185 0.3311103744473141 18 994 15 1313 17 1179 16 1167
981 1.0015157641391925 -0.06007555390125939 -0.39489500280945167 169 175 175 0.03853120245974458 13 1418 18 995
982 1.0086158642077265 -0.06255640653376204 -0.39433607968793294 50 53 54 0.017596774841129554 13 1421 18 1002
983 0.9908570980302887 -0.06292141485017397 -0.39472162609006745 34 40 42 0.0050749370023266465 13 1429 18 1003
984 0.9561387503110533 -0.06699725704326417 -0.39580890070824076 21 27 27 0.032882180023329766 13 1454 18 1009
985 0.9772654611087449 -0.07536843526545377 -0.39461643638386057 24 35 35 0.06241187521909642 13 1486 18 1041
986 0.9724264437251 -0.07949056989179754 -0.3951690701870979 174 177 176 0.074537712233453 13 1504 18 1054
987 0.9734978293199901 -0.082186315613011 -0.39381909996887504 37 35 44 0.08438863400394919 13 1510 18 1062
988 0.9708032052958434 -0.09044219255656655 -0.39492272279279816 39 38 45 0.0372939753392005 13 1540 18 1078
989 0.8384498534679915 0.01907685181888411 -0.38158854426496586 147 152 159 0.08458126369685376 13 985 25 1185
990 0.8395870350544247 0.014040418003413576 -0.3822682961006331 106 109 108 0.04990010289235406 13 1013 25 1215
991 0.8380881321435297 0.009559382748034338 -0.38146445131601486 161 167 167 0.05326514806928369 13 1034 25 1237
992 0.8732443835473694 0.0017758283326606238 -0.3868591627295759 31 31 25 0.0002584120305942149 13 1095 25 1414
993 0.9213982646582775 -0.009717297035948343 -0.3904915267463274 29 32 35 0.020812941721860472 13 1174 25 1688
994 0.9612759092307085 -0.01843855677116843 -0.3897881163556762 171 177 177 0.12227221877606126 13 1221 25 1874
995 0.9698772612747661 -0.025207150929591037 -0.3929337538887555 54 54 54 0.28045393165186716 25 1958 16 1019 17 1030
996 0.9698772612747661 -0.025207150929591037 -0.3929337538887555 54 54 54 0.28045393165186716 25 1957 16 1020 17 1031
997 0.9851096044379113 -0.04004340013024686 -0.3911157521331952 173 176 175 0.036505753115608816 25 2096 16 1089
998 0.9851096044379113 -0.04004340013024686 -0.3911157521331952 173 176 175 0.036505753115608816 25 2095 16 1088
999 0.9879171391573125 -0.04420030974811094 -0.38560409462545786 57 57 59 0.12082047378796222 13 1358 25 2124
1000 0.9915327180001828 -0.04705757488593067 -0.3906638390995996 170 176 174 0.027255696269425356 25 2133 16 1126
1001 0.9976279654697385 -0.05580856048409776 -0.38712861031051987 174 180 178 0.10626619271308026 13 1402 25 2183
1002 0.9269873484649849 -0.06102922554016531 -0.3896339573687163 18 24 22 0.056532112309095266 13 1443 25 2099
1003 0.9156804903373482 -0.06588503087863451 -0.3888458217792199 20 23 22 0.08865707971609442 13 1467 25 2106
1004 0.9520587937775131 -0.07052808510639608 -0.3875580173789 167 170 171 0.013504032093004976 13 1476 25 2177
1005 0.9653416368857082 -0.07808816001176999 -0.39611648005357986 165 168 167 0.07447011284102271 25 2213 17 1240
1006 0.9648010699939235 -0.08241622676049215 -0.3908050481374858 37 37 39 0.39723778095789086 25 2227 16 1256 17 1253
1007 0.9648010699939235 -0.08241622676049215 -0.3908050481374858 37 37 39 0.39723778095789086 25 2228 16 1257 17 1254
1008 0.9689710397907139 -0.08565749785370728 -0.38635965377811776 38 37 39 0.09268267783867246 13 1533 25 2238
1009 0.8362488486903953 0.10180483574386158 -0.39053134417124946 188 184 187 0.06763905678754527 14 249 16 272
1010 0.836957967306635 0.10162970057255172 -0.39131864960590945 186 186 190 0.11776469744853077 14 252 16 274
1011 0.8367835477108134 0.09908565348906208 -0.39016393660176496 203 199 202 0.2758110374513485 14 261 16 283 17 319
1012 0.8367023078087388 0.09666217745918691 -0.38972654271545637 139 133 135 0.35174615651547114 14 271 16 296 18 121
1013 0.8367005312872821 0.09477086108700968 -0.3918582921542588 187 186 190 0.10264280956553519 14 283 16 302
1014 0.8364929906170303 0.08945171110462463 -0.3925395423943311 186 186 186 0.11184747421414551 14 303 16 330
1015 0.8364929906170303 0.08945171110462463 -0.3925395423943311 186 186 186 0.11184747421414551 14 304 16 331
1016 0.8358262980174495 0.0806732619172295 -0.39389832553331594 189 189 191 0.1255080962078509 14 367 16 382
1017 0.8409074432509388 0.03586483287898303 -0.40251194053069883 178 181 182 0.030882880155097804 14 647 16 663
1018 0.8367600398208267 0.09242750519465552 -0.39059779789941634 116 116 116 0.037094071730617934 14 289 17 335
1019 0.8373987529028881 0.07550320867471848 -0.3912271133516307 187 190 193 0.24470909890441736 14 388 17 410 18 179
1020 0.8373114627451752 0.0731240370222527 -0.3912501970535522 188 194 196 0.33996613863625924 14 408 17 425 18 188
1021 0.8378943287030807 0.0683450909291609 -0.3926252857292192 105 104 111 0.12801998808846798 14 442 17 450
1022 0.8378943287030807 0.0683450909291609 -0.3926252857292192 105 104 111 0.12801998808846798 14 443 17 452
1023 0.8378474145266256 0.06425632022550866 -0.392921826501905 162 162 166 0.03583744135583397 14 479 17 481
1024 0.8369268110419797 0.057518041944900386 -0.3936579682618599 101 104 103 0.05577873875302962 14 506 17 529
1025 0.8388417081404758 0.05639436333002614 -0.3937495430452069 93 93 93 0.05587365515838561 14 509 17 539
1026 0.8377647789602486 0.049747206919295496 -0.3943903504732832 181 181 181 0.026325442508028957 14 560 17 577
1027 0.8353103958458058 0.14065129544586386 -0.3887279663685206 126 122 125 0.07367487592926836 15 304 16 152
1028 0.83574651218174 0.13963829275756687 -0.38773177518524643 183 179 184 0.08721837215141476 15 316 16 153
1029 1.0856327408071744 0.12989852795384443 -0.39450421571355504 106 106 100 0.1473214529634123 15 510 16 304 17 367
1030 1.0808394749545451 0.12071685700088267 -0.3910689674284109 91 91 91 0.05996126528757771 15 534 16 332
1031 1.080809137141256 0.11857101264323916 -0.3894522019812779 111 118 112 0.10519042241458804 15 539 16 336
1032 0.9075709057637659 0.09617776867915985 -0.3911294361076271 182 190 189 0.017600616175269868 15 565 16 340
1033 0.9639016431964905 0.10016885293392745 -0.3916400440115711 48 51 52 0.12181467715739078 15 575 16 356
1034 0.8900802383519735 0.0884747027861235 -0.392025531568599 182 188 190 0.1358889482682701 15 597 16 375
1035 0.8900802383519735 0.0884747027861235 -0.392025531568599 182 188 190 0.1358889482682701 15 598 16 376
1036 0.9741593182278028 0.09339816221123044 -0.39188305360717196 51 62 58 0.0954435716402355 15 603 16 393
1037 1.0086641775182537 0.08923899093869857 -0.38971947763343634 76 84 85 0.08953823659192642 15 635 16 434
1038 1.0086641775182537 0.08923899093869857 -0.38971947763343634 76 84 85 0.08953823659192642 15 636 16 435
1039 0.9471756129566894 0.08426384246269095 -0.3927621418063226 184 190 190 0.13984796142645542 15 643 16 424
1040 0.9796126462193973 0.085380111358719 -0.39393527728141386 54 62 61 0.11470987318996291 15 647 16 441
1041 0.9796126462193973 0.085380111358719 -0.39393527728141386 54 62 61 0.11470987318996291 15 648 16 442
1042 0.8789310745158351 0.07683474832985754 -0.39358023112179 22 25 24 0.05456360221305693 15 652 16 428
1043 0.8789310745158351 0.07683474832985754 -0.39358023112179 22 25 24 0.05456360221305693 15 654 16 429
1044 0.9277868377046098 0.07805176681000647 -0.3948365271515795 27 33 31 0.002019591651826506 15 676 16 457
1045 0.9277868377046098 0.07805176681000647 -0.3948365271515795 27 33 31 0.002019591651826506 15 677 16 458
1046 1.0776108667483597 0.08340402205563094 -0.39236156418650664 96 96 100 0.008407952383887078 15 694 16 506
1047 1.0033325537772255 0.07805839661547823 -0.3925184203770849 183 189 187 0.07869455472022455 15 701 16 502
1048 0.9994738459039347 0.07679617625262682 -0.39174067679175717 66 69 70 0.012608647209426862 15 704 16 503
1049 0.9994738459039347 0.07679617625262682 -0.39174067679175717 66 69 70 0.012608647209426862 15 705 16 504
1050 0.999754483791836 0.07673217187691683 -0.3919697117423057 67 70 69 0.004699571579097805 15 706 16 505
1051 0.9030004056435892 0.07088002956834237 -0.39266661637564654 18 26 23 0.10875087810494485 15 710 17 511
1052 0.9949233671847227 0.0724085136605655 -0.3905462150439782 63 69 69 0.23624720911580718 15 726 16 524 17 559
1053 0.9958828657517727 0.0727259810747078 -0.39200325447515005 63 69 69 0.03478493738808729 15 727 16 525
1054 1.0033167271994177 0.07252258015675486 -0.3917301048805382 79 82 81 0.11242259942562215 15 731 16 527
1055 0.9918009710860911 0.07007971754089438 -0.39277773745760675 183 191 188 0.0028158290929065797 15 737 16 537
1056 0.9399834997400224 0.06506890647151924 -0.39186580079599465 25 28 27 0.42955524394651434 15 751 16 543 17 563 18 323
1057 0.9332339791514838 0.06488223302702052 -0.3936337631430123 178 186 183 0.027746103698105335 15 752 16 542
1058 0.879929087877747 0.06223092455429916 -0.39338564755141636 23 26 25 0.053356155202693 15 755 16 528
1059 0.9965055121995032 0.06617820576122464 -0.3930619986623237 184 190 188 0.020577011965804796 15 761 16 560
1060 1.0062270570271703 0.06269128508740143 -0.39251793526411066 70 81 81 0.07666757806768769 15 774 16 581
1061 1.0062270570271703 0.06269128508740143 -0.39251793526411066 70 81 81 0.07666757806768769 15 775 16 582
1062 1.0807254554016836 0.06586808490916211 -0.39555356117473467 107 107 109 0.08661965450166179 15 776 16 590
1063 0.8381063071753825 0.05459130958745844 -0.39160372123577847 174 180 182 0.013202770172503937 15 784 16 555
1064 1.0785752389827907 0.06311169299987548 -0.39359173572106 112 112 114 0.06591929754947201 15 789 16 601
1065 0.9477681401108146 0.05830451973676719 -0.39365787262937274 177 185 182 0.07898716984727719 15 790 16 583
1066 0.9794006566912767 0.05896491037457832 -0.3943514068566852 47 60 59 0.09890883122512131 15 793 16 589
1067 1.0782630408528193 0.06111798357332131 -0.3932892427137857 95 95 97 0.12972200353201666 15 801 16 610
1068 0.9230139941049905 0.05284177559736458 -0.395532664759226 27 30 29 0.07464783631821419 15 816 16 603
1069 0.9542248435951071 0.05306706310089061 -0.3940543796672986 183 189 187 0.027409495952285534 15 824 16 612
1070 0.9997423599764632 0.051074946345376966 -0.39229168707290685 56 64 63 0.1814948896867295 15 845 16 636 17 667
1071 0.9579567554414218 0.04940829801483369 -0.39413119620834763 39 45 47 0.0704958737893171 15 848 16 632
1072 0.8985663434948745 0.04405403716500332 -0.39272549657730366 33 26 18 0.23794499258442053 15 862 16 638 17 655 18 420
1073 0.9682308808691193 0.045451952711890314 -0.393314878348218 45 53 52 0.07811921292088127 15 863 16 649
1074 0.9095187258603524 0.043235886593695524 -0.39455281595822184 23 26 25 0.21267181963617646 15 868 16 645 17 663
1075 0.8372731113481052 0.03904237351229994 -0.39214196542402735 112 112 114 0.13760104085657512 15 884 16 644
1076 0.8388625090824293 0.03830637942006668 -0.3923582329566725 105 104 106 0.05983178103930371 15 888 16 647
1077 0.8698631827491384 0.03866899042979466 -0.3947783288899081 18 24 22 0.012817136076156404 15 889 16 658
1078 0.9650816728154527 0.03922284219689841 -0.39322586819596395 36 42 42 0.21486841813241872 15 893 16 678 18 490
1079 0.9610528810256143 0.03837929544424376 -0.3940559420025819 183 189 187 0.02335490204404748 15 897 16 683
1080 0.9610528810256143 0.03837929544424376 -0.3940559420025819 183 189 187 0.02335490204404748 15 898 16 684
1081 0.8382346423093558 0.037055817458830555 -0.39226565575810174 102 102 104 0.05415037127791087 15 899 16 657
1082 0.9003283397280932 0.03732076778729341 -0.39620536448660754 169 180 178 0.0790952396139165 15 902 16 668
1083 0.9617127330880335 0.03494243446368232 -0.3940930672779041 47 41 43 0.008366629744274994 15 912 16 699
1084 0.9731362680562475 0.03451069537678222 -0.3943323280939902 181 189 186 0.016762144657295322 15 914 16 706
1085 0.968553712977952 0.03426624891328244 -0.3932189934073043 42 45 44 0.0007880439255441797 15 915 16 701
1086 0.968553712977952 0.03426624891328244 -0.3932189934073043 42 45 44 0.0007880439255441797 15 916 16 702
1087 0.9653245856353951 0.03422442080332327 -0.3943209959255367 181 189 186 0.017415233853526897 15 918 16 703
1088 0.8373859471190503 0.03229922997070927 -0.3922678426359517 120 119 121 0.08638022373917677 15 926 16 685
1089 0.8392394798360293 0.031916710183979145 -0.3924404529598658 181 187 187 0.010608779454576412 15 929 16 687
1090 0.8381127885183558 0.03015053492995772 -0.39254049647126593 111 111 115 0.04476919683643234 15 942 16 696
1091 0.8379206169965192 0.028882196440743503 -0.39193051545578694 100 96 97 0.11787096611730075 15 948 16 700 17 690
1092 0.9798076361677089 0.027455099335023343 -0.39419264853223496 182 190 187 0.04864805302157637 15 953 16 743
1093 0.9798076361677089 0.027455099335023343 -0.39419264853223496 182 190 187 0.04864805302157637 15 954 16 744
1094 0.9545996229418904 0.027074671508761822 -0.39405990182917294 167 173 171 0.10961560832158554 15 957 16 739 17 759
1095 0.9172935942746491 0.02658257720774975 -0.3946608752897296 166 177 173 0.025715408357845693 15 960 16 733
1096 0.8917742668974384 0.026250035687855246 -0.39482276417684636 164 172 169 0.057226082430770014 15 963 16 728
1097 0.8917742668974384 0.026250035687855246 -0.39482276417684636 164 172 169 0.057226082430770014 15 964 16 729
1098 0.8384444292206705 0.025874596885685067 -0.3923726324024479 182 182 184 0.005985397634401415 15 968 16 717
1099 0.8388750205914526 0.025254226599346376 -0.392442923631154 111 107 108 0.09998523887266933 15 970 16 721
1100 0.8388750205914526 0.025254226599346376 -0.392442923631154 111 107 108 0.09998523887266933 15 971 16 722
1101 0.9801886760035077 0.022287252917321063 -0.39493354471431336 48 53 58 0.11911603281876239 15 978 16 767
1102 0.9801886760035077 0.022287252917321063 -0.39493354471431336 48 53 58 0.11911603281876239 15 979 16 768
1103 0.9179228685551638 0.021530613567122513 -0.3955075782376531 25 25 25 0.016954656096737797 15 987 16 761
1104 0.9233728812726247 0.02140227118491702 -0.3951549792000052 168 174 172 0.01811237738693863 15 989 16 763
1105 0.9233728812726247 0.02140227118491702 -0.3951549792000052 168 174 172 0.01811237738693863 15 990 16 764
1106 0.927029530466983 0.017803429292115355 -0.3945220080586246 32 35 36 0.36317720894866484 15 1005 16 777 17 789 18 595 25 1463
1107 0.9271582669730827 0.0178622196418359 -0.39502142265764195 26 32 32 0.15270462018123543 15 1006 16 778 17 790
1108 0.8830336793723402 0.017451471940485012 -0.3950394309086247 25 25 21 0.058229114829273086 15 1009 16 775
1109 0.9421940459602742 0.014904976371170012 -0.3947494642703439 167 178 174 0.17835448563154777 15 1014 16 793 17 810
1110 0.8399664800764386 0.01552411549241257 -0.39233325243467265 132 128 131 0.0878113445968267 15 1021 16 783
1111 0.9901911275109878 0.01135395145881002 -0.39442493757568897 54 62 61 0.20206191890116562 15 1025 16 813 17 842 18 658
1112 0.9398037015057934 0.012157222639210243 -0.3963388525031828 169 172 171 0.13739823244945204 15 1028 16 805
1113 0.9398037015057934 0.012157222639210243 -0.3963388525031828 169 172 171 0.13739823244945204 15 1029 16 806
1114 0.9398037015057934 0.012157222639210243 -0.3963388525031828 169 172 171 0.13739823244945204 15 1030 16 807
1115 1.0062699216667967 0.009606997500918448 -0.3940729994745419 55 63 62 0.05912470272120501 15 1033 16 832
1116 0.8387568371824158 0.013522098872325009 -0.3935085025748889 160 163 166 0.2021698953236754 15 1035 16 789 17 781
1117 0.8387925990003302 0.013501544466152749 -0.39455521124078424 112 111 118 0.013480300821671816 15 1036 16 790
1118 0.9328493309965185 0.009641063790363233 -0.3933739663808335 160 166 164 0.09474435922810556 15 1040 16 826
1119 0.9328493309965185 0.009641063790363233 -0.3933739663808335 160 166 164 0.09474435922810556 15 1041 16 827
1120 0.8384750941962392 0.01096009080555853 -0.3924002162552897 176 178 184 0.07002337947295663 15 1047 16 804 17 791
1121 0.9040398309427518 0.008064714795669009 -0.3927807748990499 18 21 20 0.34836468435382756 15 1050 16 837 25 1453
1122 0.8783067047038451 0.008752519194347871 -0.3937216897340931 37 37 39 0.03821740318437771 15 1051 16 830
1123 0.8783067047038451 0.008752519194347871 -0.3937216897340931 37 37 39 0.03821740318437771 15 1052 16 831
1124 0.9341755084514718 0.00670477070375448 -0.3944148419249448 36 36 40 0.01480373439188987 15 1055 16 842
1125 0.9341755084514718 0.00670477070375448 -0.3944148419249448 36 36 40 0.01480373439188987 15 1056 16 843
1126 0.8394982343323225 0.009210037156362134 -0.3921768794196933 95 94 94 0.0031778886115552507 15 1060 16 819
1127 0.8394982343323225 0.009210037156362134 -0.3921768794196933 95 94 94 0.0031778886115552507 15 1061 16 820
1128 0.8394982343323225 0.009210037156362134 -0.3921768794196933 95 94 94 0.0031778886115552507 15 1062 16 821
1129 0.8394982343323225 0.009210037156362134 -0.3921768794196933 95 94 94 0.0031778886115552507 15 1063 16 822
1130 0.8376751022490656 0.009073158477985167 -0.3926625625126628 109 109 109 0.008026617336673524 15 1064 16 823
1131 0.8376424437142876 0.009096526642242973 -0.39195199474790776 125 125 125 0.13245495477258376 15 1065 16 824 18 578
1132 0.8760657218525021 0.00677042489778165 -0.39404031864205813 167 173 173 0.15918963692047822 15 1070 16 840 17 829
1133 0.9310500686449964 0.0034348748553372347 -0.3948762609028015 39 28 32 0.13591710077478353 15 1076 16 871 17 870
1134 0.941782740030603 0.0024372697624038867 -0.3937670721147156 160 168 165 0.0211765335828583 15 1082 16 876
1135 0.8385158755505991 0.005978588761598154 -0.39252538378684015 160 163 166 0.11131883316988228 15 1085 16 850 17 818
1136 0.8387268175085314 0.004503283219568348 -0.3924051655463864 111 107 110 0.05723498824445437 15 1088 16 861
1137 0.9285116268459214 0.0005119201556443117 -0.39492106694149753 26 32 30 0.13444677375268044 15 1089 16 887 18 687
1138 0.839229023498606 0.004213056612615787 -0.3922926239419818 110 109 113 0.016821307331272437 15 1093 16 862
1139 0.8387544298072367 0.0034706996629257367 -0.39244334140182424 169 172 175 0.13247972485053605 15 1101 16 868
1140 0.9490186806672612 -0.004229692647831545 -0.3945097805812847 163 169 167 0.20475081736472314 15 1112 16 917 17 912
1141 0.9490186806672612 -0.004229692647831545 -0.3945097805812847 163 169 167 0.20475081736472314 15 1113 16 918 17 913
1142 0.8385199755595613 0.0005936259409003378 -0.39257525820217637 118 118 122 0.23852480488091202 15 1114 16 889 17 851 18 628
1143 0.9230577375224237 -0.0044757477789517655 -0.3933963887687361 158 169 165 0.0063896522004490645 15 1117 16 922
1144 0.9169014346287324 -0.004299695378104946 -0.3934538348247559 24 27 26 0.10770438011194745 15 1119 16 919
1145 0.839383002053834 -0.0007817974275459022 -0.3925859883909628 115 115 115 0.11994190988222025 15 1122 16 898 17 866
1146 1.0076154184287132 -0.008785476814571298 -0.3890255666441042 42 50 51 0.01289519111806718 15 1124 16 934
1147 0.8379275424348206 -0.002835242207303333 -0.39242085063187804 87 83 88 0.13396802987866985 15 1135 16 915 18 653
1148 0.8379639215143603 -0.0028784437471681065 -0.3929400427150393 87 83 88 0.021157949513916866 15 1136 16 916
1149 0.8395257299762685 -0.003686505895608469 -0.3928113835763295 115 111 114 0.19449438569462496 15 1139 16 923 17 881
1150 0.8395065977089085 -0.0037056228006242045 -0.39305426803005733 115 111 114 0.09971755531592105 15 1140 16 924
1151 0.8389463021526231 -0.005253842390523547 -0.3940710337107016 171 171 173 0.055890292884267855 15 1142 16 931
1152 0.9731053498936683 -0.01386845230003641 -0.3907524166111838 33 39 41 0.1311424343994897 15 1148 16 965
1153 0.8401491332920727 -0.007191419274679571 -0.39289468897523305 97 92 100 0.2317962985212521 15 1153 16 939 17 902 18 680
1154 0.9694437560066576 -0.016324185139136846 -0.3939282247003764 164 172 169 0.37847327067362996 15 1164 16 975 17 973 18 796
1155 0.9625510248158176 -0.018269174550111303 -0.39141511872959767 187 190 191 0.0913347121346412 15 1177 16 987
1156 0.8381847446780285 -0.01223483803346277 -0.3940607928220879 99 95 98 0.018713633435623857 15 1188 16 972
1157 0.8381847446780285 -0.01223483803346277 -0.3940607928220879 99 95 98 0.018713633435623857 15 1189 16 973
1158 0.9654869801623308 -0.02133119247035772 -0.3923160715936215 181 187 185 0.02112893743376815 15 1191 16 1005
1159 0.9654869801623308 -0.02133119247035772 -0.3923160715936215 181 187 185 0.02112893743376815 15 1192 16 1006
1160 0.9029309037879186 -0.01732210736261405 -0.39404048688177923 176 184 183 0.3781095286173506 15 1193 16 989 18 775
1161 0.9028138912496148 -0.017260768189004454 -0.39351156842646723 157 163 163 0.29236052407385404 15 1194 16 990 17 970
1162 0.9021809356427007 -0.021203896798748442 -0.39145393777021514 37 36 38 0.22486033419357268 15 1208 16 1015 25 1720
1163 0.9024439478348201 -0.02950568084130011 -0.39101389915021006 152 160 157 0.0411028366221078 15 1237 16 1053
1164 0.9024439478348201 -0.02950568084130011 -0.39101389915021006 152 160 157 0.0411028366221078 15 1238 16 1054
1165 0.9126297873033687 -0.031989286749737014 -0.38919790124642545 29 30 26 0.10910314783592973 15 1246 16 1069
1166 0.9126297873033687 -0.031989286749737014 -0.38919790124642545 29 30 26 0.10910314783592973 15 1247 16 1070
1167 0.8952235781321425 -0.032387001990233984 -0.39127692409409187 22 25 24 0.12303068815815066 15 1250 16 1080
1168 0.8952235781321425 -0.032387001990233984 -0.39127692409409187 22 25 24 0.12303068815815066 15 1251 16 1079
1169 0.9164167914004016 -0.03571671113013616 -0.39082486451863807 165 168 167 0.030708673334235933 15 1256 16 1086
1170 1.0032627973020705 -0.04770744586200844 -0.3921068872290593 32 38 38 0.044494305975973245 15 1272 16 1123
1171 0.9225584421070395 -0.04092781836532634 -0.39114575929101886 160 164 159 0.06250828680479217 15 1278 16 1115
1172 0.9225584421070395 -0.04092781836532634 -0.39114575929101886 160 164 159 0.06250828680479217 15 1279 16 1116
1173 0.9439809425136609 -0.04427000844445055 -0.3912877325405954 26 26 26 0.031659672743541645 15 1284 16 1127
1174 0.8917648997116033 -0.04160772160390039 -0.39156893234422224 18 21 20 0.04697046390314877 15 1293 16 1130
1175 0.929389152403854 -0.04604356736813541 -0.39096817361414676 20 23 22 0.0488054913090524 15 1296 16 1134
1176 0.9370195587199303 -0.047240388475475056 -0.39190480891249235 153 160 154 0.13877190627786826 15 1301 16 1137 17 1130
1177 0.9370195587199303 -0.047240388475475056 -0.39190480891249235 153 160 154 0.13877190627786826 15 1302 16 1138 17 1131
1178 0.9917870079776709 -0.0541933777542598 -0.3933945354086512 27 26 35 0.0407576488912316 15 1305 16 1146
1179 1.002082414329074 -0.05680734413859259 -0.3929585559930917 189 189 189 0.2416799251877288 15 1308 16 1154 17 1158 18 984
1180 0.9422002124297328 -0.052613708072571465 -0.3915517730757144 167 175 174 0.3600398062730994 15 1311 16 1155 25 2075
1181 0.9422002124297328 -0.052613708072571465 -0.3915517730757144 167 175 174 0.3600398062730994 15 1312 16 1156 25 2076
1182 0.9923529941573073 -0.05921331211443964 -0.39179209136958143 179 186 180 0.4161647049985191 15 1316 16 1163 17 1173 25 2180
1183 0.941143836835237 -0.0552341086678078 -0.391804425381945 30 30 34 0.10532390847173893 15 1323 16 1161 17 1161
1184 0.941143836835237 -0.0552341086678078 -0.391804425381945 30 30 34 0.10532390847173893 15 1324 16 1162 17 1162
1185 0.9338597541514126 -0.0558381375763899 -0.3921489180412957 32 28 31 0.0025139873248538514 15 1329 16 1170
1186 0.9896507889107178 -0.06275835768385137 -0.39212295712133116 37 43 43 0.3603422969871684 15 1332 16 1182 25 2190
1187 0.9552850981309692 -0.06746038623667558 -0.3937481501166938 20 26 24 0.06512357737248836 15 1365 16 1203
1188 0.9248457326911933 -0.06802439467869452 -0.3959505620984869 164 167 166 0.09403516263392857 15 1376 16 1217
1189 0.9570992996959722 -0.07299320277263358 -0.3962681158023853 183 183 183 0.11534969805836341 15 1379 16 1225
1190 0.8930972520288266 -0.06888465497849355 -0.3965458368022023 21 24 23 0.0049456613954521455 15 1398 16 1232
1191 0.9188680150209944 -0.0740369029478956 -0.3969877876823188 169 169 165 0.10747907142248862 15 1406 16 1239
1192 0.9188680150209944 -0.0740369029478956 -0.3969877876823188 169 169 165 0.10747907142248862 15 1407 16 1240
1193 0.976727130674787 -0.08454642286313471 -0.39840319749499975 36 36 40 0.01788685888965169 15 1410 16 1253
1194 0.976727130674787 -0.08454642286313471 -0.39840319749499975 36 36 40 0.01788685888965169 15 1411 16 1254
1195 0.9148172772905505 -0.07943189412966334 -0.39879777973680647 23 24 20 0.13001492179532098 15 1420 16 1258
1196 0.9148172772905505 -0.07943189412966334 -0.39879777973680647 23 24 20 0.13001492179532098 15 1421 16 1259
1197 0.9044453464111287 -0.07835863844812856 -0.39868800939771604 20 20 22 0.024188929442636554 15 1426 16 1260
1198 0.9121030356895984 -0.08194443647133039 -0.3987661134986114 31 32 28 0.009660745552350825 15 1434 16 1269
1199 0.9737961538933821 -0.0927600798125657 -0.39984834253812856 46 42 47 0.11724897364300531 15 1438 16 1277
1200 0.8354505416267278 0.13009609052566756 -0.37777032512724606 198 197 199 0.02305021909825022 15 387 17 263
1201 0.9361392099371207 0.06827510200153189 -0.3908202296879155 33 39 39 0.4680141964614305 15 734 17 544 18 297 16 513
1202 0.9361392099371207 0.06827510200153189 -0.3908202296879155 33 39 39 0.4680141964614305 15 735 17 545 18 298 16 514
1203 0.8963779969629153 0.04698618922975479 -0.3943734551342753 23 26 25 0.05284203556737171 15 851 17 634
1204 0.8987498198756205 0.044141752358526895 -0.3932414431789223 37 34 31 0.01868379925377127 15 861 17 654
1205 0.9686784199849877 0.03097483039541795 -0.39366931518158904 36 42 40 0.2554240176387513 15 932 17 744 18 539 16 714
1206 1.0804708552831837 0.02013911474390417 -0.39640828051500604 106 105 107 0.11781961247911735 15 984 17 824
1207 0.9926633499169275 0.007494756766845156 -0.3936341186841311 183 189 189 0.005167413294487099 15 1043 17 860
1208 0.9926633499169275 0.007494756766845156 -0.3936341186841311 183 189 189 0.005167413294487099 15 1044 17 861
1209 0.9990850121527917 0.0038961370490132666 -0.39314198506309656 183 189 187 0.009532096592971887 15 1059 17 882 18 699
1210 0.8393903361674162 -0.0007711725781289778 -0.3925881724607788 103 102 102 0.1193955393629036 15 1121 17 865
1211 0.8388139431886261 -0.0014906811330895587 -0.3928560731588761 163 166 165 0.08816037699860077 15 1125 17 869
1212 0.9589916422426382 -0.013225837238883311 -0.3946406699133884 34 39 44 0.21195171939878743 15 1147 17 953 18 773
1213 0.839149755011671 -0.007151640583552544 -0.393291314475295 150 149 158 0.007979067126828181 15 1150 17 898
1214 0.8379766366324328 -0.007222327916871878 -0.39349008141080694 156 164 163 0.08310414480287798 15 1155 17 900
1215 0.8379766366324328 -0.007222327916871878 -0.39349008141080694 156 164 163 0.08310414480287798 15 1156 17 901
1216 0.9721840315583545 -0.017437064409590277 -0.39270862797611567 49 48 52 0.06278525393705599 15 1169 17 985
1217 0.9721840315583545 -0.017437064409590277 -0.39270862797611567 49 48 52 0.06278525393705599 15 1170 17 986
1218 0.8389008757272285 -0.009971644817204585 -0.39289012144347646 167 170 173 0.021652018709483408 15 1171 17 921
1219 0.8389008757272285 -0.009971644817204585 -0.39289012144347646 167 170 173 0.021652018709483408 15 1172 17 922
1220 0.8399573129527141 -0.014089409882248967 -0.39347614910994855 162 168 170 0.09063263314113901 15 1196 17 944
1221 0.8392245642840315 -0.01433097088302509 -0.3930875251230452 175 181 181 0.31030973215858776 15 1199 17 946 18 728 16 986
1222 0.8406573250123189 -0.019788311312105213 -0.3933911662787264 99 95 100 0.13440674915046463 15 1217 17 981
1223 0.8395204706393867 -0.022261573232916526 -0.39353476323631714 165 161 164 0.02861489239901429 15 1228 17 992
1224 0.9480362365043665 -0.03534777003456715 -0.39242511620087733 25 29 24 0.07039982767104946 15 1245 17 1092
1225 1.0076504729606952 -0.06260586172980419 -0.3925501084687107 55 61 63 0.31901343546147 15 1321 17 1189 16 1178
1226 0.8968564192722506 -0.07703216367710601 -0.3957627882976398 23 23 23 0.13429565955364767 15 1429 17 1249
1227 0.8968564192722506 -0.07703216367710601 -0.3957627882976398 23 23 23 0.13429565955364767 15 1430 17 1250
1228 0.9002674528435972 -0.08053530279186397 -0.3957056233612186 160 159 163 0.09697523162029971 15 1444 17 1260
1229 0.905311414433412 -0.08455367811519444 -0.39657396691392754 22 22 22 0.021327675434724015 15 1451 17 1271
1230 0.9008914503863362 -0.09269150241532899 -0.3973480945817813 159 162 163 0.02807215369972058 15 1461 17 1284
1231 0.8372862428540233 0.1126345138417357 -0.39005227482984456 133 127 129 0.03188900356876272 15 480 18 92
1232 0.8363730901797682 0.11211735143371276 -0.3899453495352445 197 193 194 0.012359611229847984 15 481 18 93
1233 0.836703617385117 0.11090872763593804 -0.38953650621480096 179 175 178 0.10779166006438767 15 484 18 94
1234 0.8386864017840645 0.10994630633337182 -0.38973179660998386 193 192 192 0.0768273307495072 15 489 18 102
1235 0.83858226386739 -0.0114623407234389 -0.39280699960644283 185 188 191 0.21479358423384412 15 1179 18 704 16 967
1236 0.8386145690732575 -0.01144048487064331 -0.3928313045821021 171 171 173 0.0657007355800388 15 1180 18 705
1237 0.9661326342332314 -0.08283679662748723 -0.3935741468246882 38 38 34 0.01678616692771879 15 1414 18 1064
1238 0.9661326342332314 -0.08283679662748723 -0.3935741468246882 38 38 34 0.01678616692771879 15 1415 18 1065
1239 0.9737917575106231 -0.08746695928891422 -0.3939130871662725 39 39 43 0.08374200321619366 15 1427 18 1075
1240 0.9746568310205043 -0.09094172256418268 -0.3944222078286354 184 190 192 0.052954553633983444 15 1440 18 1080
1241 0.932051578461846 0.0766072098862414 -0.3917082440721368 178 184 184 0.13775786409654917 16 465 17 492
1242 0.9360995799813436 0.074086384573028 -0.3917401029970755 190 190 186 0.019914437779414422 16 480 17 516
1243 1.0833513552301335 0.07739140849295609 -0.3945399031804134 119 125 125 0.13277733107970502 16 544 17 597
1244 0.9263454740802677 0.06237174445193502 -0.39129399827335865 26 32 30 0.4060635927510634 16 553 17 567 18 325
1245 0.9486257807263209 0.053102714720703194 -0.3949629106311703 32 40 37 0.0415812999113923 16 608 17 639
1246 1.0067615585703817 0.04730477878327313 -0.39137903522368034 54 65 63 0.1355656484588633 16 648 17 683
1247 0.947981211556138 0.02671371670083405 -0.3928508417422717 33 41 38 0.14028398426914046 16 738 17 756 18 548
1248 0.8859668304812987 0.020698580915686705 -0.39415166842229493 179 182 183 0.15265694646784908 16 760 17 765 18 540
1249 0.9177197126351802 0.021479490497013337 -0.3948969125391676 21 24 23 0.06509099105245815 16 762 17 771
1250 0.8385983529373975 0.01281505746018215 -0.39337656741135457 129 128 135 0.06318474159429013 16 797 17 784
1251 0.998092525057301 0.012694946583280593 -0.39448666689205664 70 73 76 0.13386075260791366 16 808 17 836
1252 0.998092525057301 0.012694946583280593 -0.39448666689205664 70 73 76 0.13386075260791366 16 809 17 837
1253 0.8753155387489486 0.010130156908320793 -0.3944648147184331 167 175 176 0.012571554943358782 16 814 17 812
1254 0.966545734264196 0.008642781308046629 -0.39434149702503785 27 33 31 0.11695899652914744 16 834 17 845 18 662
1255 0.966545734264196 0.008642781308046629 -0.39434149702503785 27 33 31 0.11695899652914744 16 835 17 846 18 663
1256 0.9939706426741702 0.004485449633724655 -0.39461540580352195 62 67 72 0.2126821848314985 16 865 17 879 18 693
1257 0.9939706426741702 0.004485449633724655 -0.39461540580352195 62 67 72 0.2126821848314985 16 866 17 880 18 694
1258 0.8680925676568546 0.0023170395088303376 -0.3944220917680975 41 27 23 0.22367651335491698 16 878 17 854 18 645
1259 0.8748415285048011 0.002285542684117591 -0.39401984516185995 33 32 34 0.12663260467710902 16 880 17 857
1260 0.9384107345733868 -0.00036642896669098824 -0.39502790561134676 28 34 32 0.16337456718686968 16 891 17 885 25 1672
1261 0.9798708081167874 -0.008997302181340585 -0.3940495702489457 180 183 184 0.10974267902115657 16 938 17 941
1262 0.9740922422162873 -0.020590680283158917 -0.3947608427136544 176 184 181 0.1640884147873017 16 997 17 1000 18 817
1263 0.9764596665516742 -0.03171359111086884 -0.39387343523465285 39 45 47 0.22311821994163747 16 1048 17 1069 18 877
1264 0.9589530305621392 -0.03198671149540909 -0.39454419437123156 34 37 38 0.3613472528427755 16 1050 17 1072 18 874 25 1974
1265 0.9584349987062669 -0.03190181980898332 -0.3936262616970107 36 39 40 0.2090172488925424 16 1051 17 1073 25 1975
1266 0.9852081842877846 -0.03511049421485258 -0.3917568179971259 38 46 45 0.029637178174691765 16 1066 17 1086
1267 0.9854166932253707 -0.035150035243696746 -0.3921090610206355 38 46 45 0.1088825079180271 16 1067 17 1087 25 2068
1268 0.9789803208051145 -0.035335320925602064 -0.39187254546887573 169 177 174 0.15855297010941205 16 1068 17 1090 25 2055
1269 0.8396882535494382 -0.029531297562714314 -0.3928830627362906 165 168 169 0.12138351254010162 16 1075 17 1054 18 822
1270 0.9548440033403257 -0.035604933424883 -0.3931821174247477 177 183 183 0.13459674846697753 16 1078 17 1093
1271 0.8394578462896891 -0.03442890003657499 -0.3931628679516496 84 80 81 0.07521827419285698 16 1104 17 1084 18 853
1272 0.8394578462896891 -0.03442890003657499 -0.3931628679516496 84 80 81 0.07521827419285698 16 1105 17 1085 18 854
1273 0.9485378322901966 -0.04082621676153646 -0.392580897268954 164 170 170 0.007890969862292908 16 1107 17 1113
1274 0.9404189754823451 -0.05046609463649088 -0.3947375483127342 157 161 156 0.3964313098375077 16 1145 17 1140 18 935
1275 0.991442166781083 -0.054941354707760036 -0.3904760108944363 43 43 45 0.31813028685118155 16 1148 17 1152 25 2163
1276 0.991442166781083 -0.054941354707760036 -0.3904760108944363 43 43 45 0.31813028685118155 16 1149 17 1153 25 2164
1277 0.991442166781083 -0.054941354707760036 -0.3904760108944363 43 43 45 0.31813028685118155 16 1150 17 1154 25 2165
1278 0.9916131252927021 -0.05908651012706868 -0.390752240629439 179 186 180 0.2486803386187529 16 1166 17 1174 25 2182
1279 0.9343517840959873 -0.05991618037602658 -0.3914768332830145 151 155 150 0.12490144992607506 16 1188 17 1187
1280 0.948081132722713 -0.06644978558090785 -0.3908249116359439 164 168 163 0.11518206346899586 16 1205 17 1208
1281 0.948081132722713 -0.06644978558090785 -0.3908249116359439 164 168 163 0.11518206346899586 16 1206 17 1209
1282 0.9793736840350222 -0.07146493153616015 -0.3915377524650145 183 183 185 0.06443113470042855 16 1212 17 1219
1283 0.9787233725142835 -0.07117683130682449 -0.390386770132711 183 183 185 0.36063134415095127 16 1213 17 1220 25 2214
1284 0.9748186215038006 -0.08445222163438833 -0.39152593704061883 22 30 31 0.12128527725093198 16 1261 17 1258
1285 0.9748186215038006 -0.08445222163438833 -0.39152593704061883 22 30 31 0.12128527725093198 16 1262 17 1259
1286 0.897359960316024 -0.09609824298125494 -0.3960611763704636 23 24 20 0.03532113440354361 16 1299 17 1289
1287 0.9195093259444649 0.11171411157180484 -0.38583924804929554 33 39 41 0.05291447710139479 16 276 18 125
1288 0.8367904120653845 0.09088402885871942 -0.38979874871595976 188 188 188 2.7252680877057585e-05 16 314 18 132
1289 0.9262963718113908 0.06243124549487462 -0.3912033689364854 26 32 30 0.028444147610995407 16 551 18 324
1290 1.0804176365948148 0.015304356177295624 -0.39632052269885815 131 131 133 0.13342857375572983 16 802 18 685
1291 0.8793139742286288 0.005560916095414477 -0.39401770775032696 165 171 171 0.021035302020430587 16 851 18 624
1292 0.8387745527664795 0.0021033511687458886 -0.39212808559850776 166 166 168 0.020885762766772495 16 883 18 621
1293 0.8386395972685727 -0.001528620125601952 -0.3922735317005047 172 178 178 0.0017032289598372025 16 900 18 646
1294 0.8386335300473411 -0.009990262185500238 -0.3924587972318992 176 179 180 0.12628338772667455 16 959 18 695
1295 0.8386335300473411 -0.009990262185500238 -0.3924587972318992 176 179 180 0.12628338772667455 16 960 18 696
1296 0.8397665642999611 -0.014129370963864855 -0.39271290785474 163 166 165 0.08897383101631219 16 983 18 726
1297 0.8400515332796962 -0.015735412845602387 -0.3926779406423329 168 168 168 0.06287305995631068 16 992 18 737
1298 0.9655338536796941 -0.07579747471782172 -0.39244241374451844 27 32 37 0.02171015671448626 16 1236 18 1044
1299 0.911531314808519 -0.015196395885354192 -0.3917056017218205 21 27 25 0.013498918296955388 16 977 25 1702
1300 0.911531314808519 -0.015196395885354192 -0.3917056017218205 21 27 25 0.013498918296955388 16 978 25 1703
1301 0.9719615518003405 -0.017270983242083326 -0.392528922001411 58 57 59 0.09499615687905325 16 979 25 1891
1302 0.9719615518003405 -0.017270983242083326 -0.392528922001411 58 57 59 0.09499615687905325 16 980 25 1892
1303 0.9647261166666754 -0.020866722546130218 -0.39095626210221357 167 173 171 0.107436010184708 16 1002 25 1900
1304 0.9707071354636557 -0.02774820083927581 -0.3921772342187477 169 175 173 0.07035053257613332 16 1027 25 1990
1305 0.9026531974989466 -0.029696892107264714 -0.3902940506419096 145 156 154 0.026489953810880783 16 1055 25 1792
1306 0.9026531974989466 -0.029696892107264714 -0.3902940506419096 145 156 154 0.026489953810880783 16 1056 25 1793
1307 0.9885733027843404 -0.043669128357656135 -0.3910836437509466 46 49 48 0.09456906202979258 16 1111 25 2116
1308 0.9913919299264047 -0.05897736100102818 -0.39040498028657833 179 186 180 0.026626332763209994 16 1165 25 2181
1309 0.8366993358625737 0.12251094002732817 -0.3921245787450332 195 198 199 0.05103968086433901 17 290 18 79
1310 0.8366993358625737 0.12251094002732817 -0.3921245787450332 195 198 199 0.05103968086433901 17 291 18 80
1311 0.8365183759708023 0.08462727905054354 -0.39034405247337484 195 195 195 0.10367401470330022 17 358 18 147
1312 0.8343298124128802 0.07581791328073283 -0.3898052357115843 200 200 200 0.009157766778378068 17 403 18 170
1313 0.8885917300189261 0.08132076740081283 -0.3875991324741553 29 32 33 0.05032006912039825 17 419 18 195
1314 0.8373227221762207 0.07347827199507169 -0.3897284947797618 120 119 119 0.11646504327457607 17 420 18 182
1315 0.8362040378954887 0.07198125996568765 -0.3900672784770296 125 124 126 0.12065052698687156 17 427 18 191
1316 0.9380502050183359 0.07191386703349277 -0.38830310216115227 174 180 180 0.1300366377379163 17 519 18 282
1317 0.9928193067248535 0.07104169836549508 -0.38733557190038 54 54 48 0.03429650042064389 17 558 18 330
1318 0.9154853909176701 0.056523274569279865 -0.3902073935789079 23 27 22 0.021290806511221564 17 586 18 337
1319 0.9463236189545221 0.057212630202806744 -0.39024080478256645 169 175 173 0.04820269125746473 17 606 18 369
1320 0.9827200615009923 0.05700315904721159 -0.3887471733482946 178 178 178 0.09544547196899343 17 629 18 413
1321 1.0813262276895443 0.05521229507405467 -0.3919469231864181 113 116 115 0.10698718068232793 17 681 18 487
1322 0.9052006185562429 0.036155599160188893 -0.39147611923549497 26 27 23 0.0012136090599807184 17 688 18 456
1323 0.9601699663350446 0.03781356524392899 -0.39201205566684993 167 170 169 0.12058455694880416 17 706 18 492
1324 0.997445207355501 0.03983408898595086 -0.3891052601153962 53 61 60 0.0367459461063638 17 710 18 504
1325 0.9615817436013421 0.03482864392472052 -0.39328667152121655 46 43 38 0.022240481056883758 17 722 18 510
1326 0.9615817436013421 0.03482864392472052 -0.39328667152121655 46 43 38 0.022240481056883758 17 723 18 511
1327 0.9646936590632245 0.033916117598244436 -0.39277623618749663 163 171 168 0.10398769260491299 17 725 18 515
1328 0.9646936590632245 0.033916117598244436 -0.39277623618749663 163 171 168 0.10398769260491299 17 726 18 516
1329 0.9724100222946572 0.03416159461967096 -0.3926624332543935 165 171 171 0.12778928837426487 17 728 18 519
1330 0.9724100222946572 0.03416159461967096 -0.3926624332543935 165 171 171 0.12778928837426487 17 731 18 520
1331 0.9165819116262683 0.026101142912878336 -0.392418593968036 164 170 170 0.04963778351465713 17 745 18 523
1332 0.9477163510326141 0.026522175693234597 -0.39228555273616306 26 33 27 0.11431244894033238 17 755 18 547
1333 0.8858446865998069 0.0205126158540396 -0.3935559025812291 169 172 173 0.09087442600543026 17 764 18 541
1334 1.0787229428952758 0.03488109082426079 -0.3935543001279003 104 103 103 0.0014610316482393138 17 769 18 597
1335 0.8386644166480425 0.014408968974885224 -0.39116184131275933 175 181 183 0.11336450490589475 17 774 18 534
1336 0.9547870717171951 0.02188543441981918 -0.3945621741277154 29 32 33 0.08753983531231029 17 782 18 593
1337 0.9547870717171951 0.02188543441981918 -0.3945621741277154 29 32 33 0.08753983531231029 17 783 18 594
1338 0.8801484367490452 0.014045982800616934 -0.39422004176506437 20 24 19 0.08967792318450857 17 793 18 583
1339 0.9900202315767384 0.018762869635281856 -0.3939756793979053 53 61 60 0.08719225563278388 17 805 18 623
1340 0.8398253933440162 0.008101044608429793 -0.39087163601684627 177 176 178 0.0026609742619296117 17 806 18 586
1341 0.9421951028349047 0.015035742842123462 -0.3937761035628007 159 170 168 0.10559529899882134 17 809 18 614
