# 3D point list with one line of data per point:
# POINT3D_ID, X, Y, Z, R, G, B, ERROR, TRACK[] as (IMAGE_ID, POINT2D_IDX)
# Number of points: 429, mean track length: 2.1427692307692308
706 0.9106903713137744 0.09356870540471084 -0.39172800104697064 31 35 30 0.17853281951892983 11 522 14 312
707 0.9106903713137744 0.09356870540471084 -0.39172800104697064 31 35 30 0.17853281951892983 11 523 14 313
708 0.8888840027576791 0.0895162316768045 -0.39190565361419194 181 187 187 0.017139675421284816 11 546 14 327
709 0.9199926436534492 0.08980844028170505 -0.3910691650646245 26 32 30 0.21136486596632892 11 564 14 340
710 0.8832724992803398 0.08396663406781223 -0.39216877133179573 178 184 184 0.09161334472758785 11 607 14 363
711 0.8340673510618775 0.07028663993869107 -0.3915717701084061 183 186 187 0.21943018924401392 11 715 14 432
712 0.8682691654322185 0.06841697830535709 -0.3907101188603613 173 184 182 0.009416635624669174 11 769 14 452
713 0.9293298175721303 0.0686373382045701 -0.39000173052159837 179 185 183 0.1852513100606496 11 833 14 470
714 0.935909419456251 0.06958361786682654 -0.3922622599966681 34 37 36 0.24006547318628174 11 846 14 466
715 0.935909419456251 0.06958361786682654 -0.3922622599966681 34 37 36 0.24006547318628174 11 847 14 467
716 0.8778385601224179 0.06278993959918995 -0.3914914242013617 20 26 24 0.141318120406461 11 868 14 491
717 0.8383519346078675 0.049250682552845704 -0.3909473293941624 176 179 180 0.23975261286684546 11 998 14 562
718 0.8999604004154426 0.041504462946632965 -0.39128588972772144 28 31 32 0.2847032395634948 11 1155 14 607
719 0.9004948811923583 0.03785533249174334 -0.39104956933825197 168 176 173 0.07210316076853139 11 1203 14 634
720 0.9033343643240234 0.03695201412881975 -0.3904186959997855 29 35 33 0.07644228702075279 11 1218 14 641
721 0.9001662019915673 0.03407079511424081 -0.39130826821681686 30 29 29 0.1673242421533355 11 1252 14 659
722 0.9112509032928694 0.030573614608182757 -0.3910451278217499 26 32 30 0.3392105710972997 11 1297 14 675
723 0.8374809708929558 0.02628794970173544 -0.39059264117560405 149 152 153 0.08213852820666895 11 1298 14 709
724 0.8713590280777525 0.015610846484514022 -0.39149174379992346 23 26 25 0.2448441463069784 11 1442 14 752
725 0.8380440996849977 0.009852480700947387 -0.3901760293020609 85 84 84 0.0035963234050428805 11 1487 14 789
726 0.8371107561029185 0.00789659169567264 -0.3902253854349574 138 139 135 0.03248227980105711 11 1511 14 803
727 0.9027320701712137 0.008468879999370476 -0.3918119220602247 18 21 20 0.2767592332957951 11 1550 14 787
728 0.8772295358756899 0.0061124779849247085 -0.39099273487066816 161 167 165 0.15584963210713268 11 1564 14 805
729 0.835269223869509 0.0040516282176846575 -0.3907612690420942 169 172 173 0.07177683453544402 11 1570 14 824
730 0.8371204202523416 0.0012475152668325548 -0.39026591285846196 85 84 84 0.029697980772137214 11 1604 14 840
731 0.8371204202523416 0.0012475152668325548 -0.39026591285846196 85 84 84 0.029697980772137214 11 1605 14 841
732 0.8372631027255434 -0.011751322338122814 -0.3903616505469192 155 155 155 0.11750907897709044 11 1770 14 909
733 0.895139767288144 -0.014989928924349223 -0.39140825731551104 20 23 22 0.12469985964961267 11 1851 14 913
734 0.9103573513167599 -0.01482916129877527 -0.39180548019562667 21 24 23 0.15173020963463998 11 1854 14 905
735 0.8966023000531272 -0.020573506449212117 -0.3908575717087595 157 165 162 0.1955718619790431 11 1912 14 941
736 0.904458461713914 -0.02394349613495668 -0.39047913363014475 158 164 162 0.2341672126241376 11 1967 14 945
737 0.904458461713914 -0.02394349613495668 -0.39047913363014475 158 164 162 0.2341672126241376 11 1968 14 946
738 0.8391069911631664 -0.02645375999081905 -0.39020919690269684 95 86 89 0.009874368110395805 11 1986 14 977
739 0.905712321353842 -0.02551171024433838 -0.39119320459812823 149 157 154 0.17371466430773616 11 1994 14 951
740 0.905712321353842 -0.02551171024433838 -0.39119320459812823 149 157 154 0.17371466430773616 11 1995 14 952
741 0.8957590854639562 -0.02661199080053654 -0.3888789951603137 157 163 161 0.21281150172100266 11 2006 14 964
742 0.8383498183659486 -0.028688510798467143 -0.39043386779768374 164 164 164 0.007691542907693556 11 2029 14 991
743 0.904113747411166 -0.02783339396478589 -0.39074470910516446 26 26 28 0.19609748260235815 11 2031 14 966
744 0.904113747411166 -0.02783339396478589 -0.39074470910516446 26 26 28 0.19609748260235815 11 2032 14 967
745 0.9017079991087412 -0.029540857791296195 -0.3908619425272282 153 159 157 0.21418237532837833 11 2058 14 972
746 0.8389987759957784 -0.031229554550157718 -0.3904793246306565 99 95 96 0.26634043061767426 11 2065 14 1002
747 0.8389987759957784 -0.031229554550157718 -0.3904793246306565 99 95 96 0.26634043061767426 11 2066 14 1003
748 0.8380213478671256 -0.03237832783622203 -0.390158547960209 158 164 162 0.14976871983423418 11 2080 14 1017
749 0.8381527838538038 -0.03457847219067089 -0.39034019073873677 159 159 159 0.1989596231471153 11 2114 14 1025
750 0.8788727725644947 -0.046431483478768014 -0.3905387139849107 20 23 22 0.190161041275529 11 2279 14 1055
751 0.8788727725644947 -0.046431483478768014 -0.3905387139849107 20 23 22 0.190161041275529 11 2280 14 1054
752 0.8641989796892198 -0.046822444668283274 -0.39068526280616883 20 23 22 0.2815350624542258 11 2285 14 1060
753 0.8777721951320169 -0.05204931846866117 -0.39064552104904937 160 161 157 0.048848129577006155 11 2358 14 1082
754 0.8659371215923799 -0.052202098507064316 -0.39061773504050185 160 160 160 0.03495371508570758 11 2360 14 1083
755 0.9409517973494392 -0.05217429281580127 -0.3909149603349362 162 165 166 0.2616587890453933 11 2366 14 1057
756 0.8720129899104498 -0.05396562887843397 -0.39074922197998024 160 160 160 0.28299438880870703 11 2385 14 1088
757 0.8720129899104498 -0.05396562887843397 -0.39074922197998024 160 160 160 0.28299438880870703 11 2386 14 1087
758 0.8771947294724253 -0.05534421240009336 -0.3907151219917674 29 29 33 0.17770913966468138 11 2399 14 1091
759 0.8771947294724253 -0.05534421240009336 -0.3907151219917674 29 29 33 0.17770913966468138 11 2400 14 1092
760 0.8633279467715044 -0.05623311725656262 -0.3915337528330097 24 24 24 0.03632446387584097 11 2418 14 1101
761 0.8780743117573018 -0.060539922358997716 -0.3904489180341713 17 20 19 0.2987689902810314 11 2485 14 1114
762 0.862948828862417 -0.06363988969494419 -0.39093816909770707 26 26 26 0.2414419228187973 11 2523 14 1129
763 0.862948828862417 -0.06363988969494419 -0.39093816909770707 26 26 26 0.2414419228187973 11 2524 14 1128
764 0.9636957544915923 -0.07492716062264257 -0.3906368396576668 31 34 37 0.34180442676301664 11 2664 14 1130
765 0.9010674553258257 -0.07555038906212626 -0.39069949510383595 18 21 20 0.026293009950215256 11 2673 14 1158
766 0.9092177103257305 -0.09235585720918116 -0.3883327814025906 18 21 20 0.03612053236996793 11 2821 14 1202
767 0.9259006591401997 0.06277994718312087 -0.39017606321406595 26 32 30 0.18172912769001193 12 341 13 780 16 552
768 0.8900346248909953 0.05150936495424776 -0.3901478044077088 144 159 158 0.2830203144167012 12 377 13 821
769 0.9772656962391975 0.0531146038348588 -0.38950782453524874 185 188 187 0.3113965377520126 12 426 13 841 16 616
770 0.8376065835467158 0.004468491487739584 -0.38614924302363807 127 130 133 0.21119156623898772 12 578 13 1076 15 1088
771 0.9791206016195539 -0.006022825852678191 -0.3876864163596137 36 44 43 0.07442527284887364 12 685 13 1152
772 0.9822132135647627 -0.008024584669763862 -0.3885420544963726 43 45 51 0.045477670951895595 12 692 13 1161
773 0.9567335703414064 -0.013412553274715976 -0.3894426057537887 36 41 46 0.2579637531575479 12 712 13 1192 16 963
774 0.972826314929782 -0.01726906515881427 -0.39249501006840704 35 41 41 0.1579610514083435 13 1215 18 806
775 0.9701760696724849 -0.017458531141144682 -0.3879054482369043 49 48 52 0.37738880648731377 12 736 13 1216 15 1170 16 980 25 1892
776 0.9611491219574243 -0.024473089816355605 -0.3892351111876217 25 33 34 0.025256059714882793 12 770 13 1248
777 0.9841658983549982 -0.03527277423460437 -0.38909035889671284 34 42 41 0.11212765860865197 12 829 13 1309
778 0.9938576292560638 -0.05200594180101485 -0.38796703125443877 45 48 49 0.05247919090809212 12 874 13 1384
779 1.0030724003046385 -0.05430778828827145 -0.38869620083290823 168 174 172 0.12421029321096033 12 889 13 1392
780 0.8910294958129203 -0.07285928744605352 -0.38850135721558654 154 155 151 0.3870547547402691 12 966 13 1498 16 1246
781 0.9018669381548735 -0.08065959375994805 -0.388963324970882 22 23 19 0.3257499252428142 12 996 13 1527
782 0.9028223126430016 -0.08368822241072864 -0.3888762682044507 25 28 29 0.2833896345135524 12 1004 13 1538 15 1451 16 1279
783 1.0088311161017511 -0.15397835521245617 -0.3870054668896502 22 25 24 0.13580619424727788 12 1053 13 1752
784 0.9521416537526175 0.08941760468005185 -0.3897667780293096 187 190 189 0.2197297532193926 12 211 15 616
785 0.8617300038451282 0.060135375047509244 -0.38924491744666795 31 34 33 0.3518155355707213 12 308 15 758 13 747
786 1.004601166785589 0.06223122388081495 -0.3888816331242463 59 62 61 0.14404904627948692 12 395 15 775 16 582
787 0.9774407724759885 0.026965880346281917 -0.3887910019620412 174 177 176 0.23528259225866727 12 534 15 953 16 743 25 1593
788 0.8386819598919012 -0.031807635505904354 -0.38895473124842034 153 149 152 0.06419701742866842 12 779 15 1269
789 0.95328514276741 -0.06683329818972164 -0.3888883076209926 21 27 27 0.06803519010218972 12 946 13 1454
790 1.0011565093672892 -0.15814179503376208 -0.3930655931322917 13 20 14 0.12468154615871782 12 1058 17 1370
791 0.8381503749581268 0.1332951533886265 -0.39157789852751973 195 194 194 0.31462726562747284 13 494 15 430
792 0.9435828577125803 0.11351820657885703 -0.3889083361791358 22 28 28 0.29017638311610106 13 566 15 509 16 294
793 0.8366189224136138 0.0834352811659265 -0.38883373647463365 184 183 183 0.0696131232674479 13 609 15 599
794 0.8376528774634326 0.079434151170692 -0.38825849082723934 188 187 187 0.12305282073199962 13 627 15 619
795 0.8357596872332326 0.07195878797633823 -0.38891141140145935 123 122 122 0.23546732195103187 13 667 15 670 16 422
796 0.8375373360289882 0.07143709315748246 -0.38843501050121343 175 175 177 0.17786890711041503 13 670 15 672 16 430
797 0.8375373360289882 0.07143709315748246 -0.38843501050121343 175 175 177 0.17786890711041503 13 671 15 673 16 431
798 0.8367408403447286 0.06411822548915751 -0.38863839860975646 187 187 189 0.254851983340334 13 715 15 724 16 482
799 0.8367408403447286 0.06411822548915751 -0.38863839860975646 187 187 189 0.254851983340334 13 716 15 725 16 483
800 0.9870342820588447 0.0813612198891316 -0.39023604652468774 61 67 69 0.22119613425109164 13 718 15 674
801 0.9910812083446705 0.06658410020958339 -0.3896821336555965 74 74 76 0.2411334960714386 13 785 15 756 16 556
802 0.8377582007340788 0.04516429289516563 -0.388680552523364 119 115 116 0.11947207597308072 13 826 15 850 16 606
803 0.8371624420891388 0.039154593365960465 -0.38846053432226957 169 172 171 0.2407589441287592 13 863 15 881 16 642
804 0.8371868065411091 0.03918429059079564 -0.38842621448312487 178 181 182 0.1012228536370807 13 864 15 882
805 0.9999725631441622 0.04609412686040933 -0.3901634755339975 63 71 70 0.24642646681937244 13 891 15 859
806 0.8379065138870233 0.02082242665296912 -0.3891325601219402 162 161 161 0.20970004087710817 13 985 15 1001
807 0.838965681033227 0.015228358894515424 -0.3883309748760316 132 128 131 0.3156582072104367 13 1013 15 1021 16 783
808 0.8378835607606714 0.013221151367967006 -0.39088836744964717 160 163 166 0.22376954189801995 15 1035 16 789 17 781
809 0.8783612184021549 0.01391056237726863 -0.38999026530608955 21 24 23 0.028126002858353354 13 1031 15 1024
810 0.838531709634342 0.008936110234881996 -0.3882865099852928 95 94 94 0.2970561251531128 13 1043 15 1061 16 820
811 0.8382575175065803 0.003965283097547159 -0.3883216308662756 98 101 100 0.274265477706588 13 1078 15 1093 16 862
812 0.8353769380775004 0.003078830389873504 -0.3884092045851644 174 174 174 0.129975736430829 13 1088 15 1102 16 870
813 0.8776954439726569 -0.00040431026556043184 -0.3889461757017799 21 24 23 0.26946949115994384 13 1114 15 1108 16 890
814 0.8380277746083916 -0.005396907770872705 -0.389458659643521 171 171 173 0.4050429224260083 13 1130 15 1142 16 931
815 0.8378742363131589 -0.0081336891995777 -0.3902268837139908 106 105 105 0.3086537553265153 15 1163 16 945 17 908
816 0.8372309156088475 -0.012285674990473833 -0.3889771933350093 99 95 98 0.40644648986682 13 1186 15 1188 16 972
817 0.8372309156088475 -0.012285674990473833 -0.3889771933350093 99 95 98 0.40644648986682 13 1187 15 1189 16 973
818 0.836898081942727 -0.03030587004622415 -0.3896971609354877 134 130 135 0.3370123768819979 15 1261 17 1056
819 1.0030611736932629 -0.04815533446137935 -0.39058810013504036 32 38 38 0.17629275124988503 15 1272 16 1123 18 933
820 0.9285855050962677 -0.04650710131119099 -0.3884015212873531 20 23 22 0.3040158558903455 13 1367 15 1296 16 1134
821 0.9919756501694922 -0.05132463530063852 -0.3902178481726063 185 188 189 0.3259154722034156 13 1383 15 1289
822 1.0060583247428958 -0.06254357104037332 -0.3890971802994854 36 41 46 0.3890880472501008 13 1422 15 1322 16 1179
823 0.9831230062211699 -0.09609905359022587 -0.3851081133222884 28 36 37 0.30407128116786336 13 1559 15 1453 16 1286 25 2252
824 0.8359196534983571 0.11231951005965808 -0.38962892313165787 196 195 197 0.34873243965569417 13 537 16 248
825 0.8360038087876734 0.08389647546220017 -0.3875820827987966 193 193 195 0.1821928542104014 13 606 16 349
826 0.9575742226382857 0.0943679430977939 -0.38879960711440986 34 42 39 0.29713706533706835 13 632 16 384
827 0.8644248984129592 0.06307506540515265 -0.38780054083231746 178 181 182 0.09872249342665612 13 737 16 509
828 0.8372248147766027 0.05426095678513245 -0.38868846201808815 177 180 183 0.4049171529998028 13 774 16 555 15 784
829 0.9435380345181403 0.0614613267724403 -0.39070884128542416 34 38 33 0.41638843298899897 13 791 16 566 18 344 25 1261
830 0.9427593052682346 0.06103902403272568 -0.38916348506953513 22 28 26 0.1198837900847744 13 792 16 567 25 1260
831 0.8368428730097827 0.050281925205347446 -0.3875634126791677 185 185 187 0.03233782123453149 13 793 16 578
832 0.9147145476799762 0.056811783691573095 -0.3881934805078201 16 22 20 0.2409062261298896 13 798 16 573 15 788
833 0.859335630693006 0.04875766960233299 -0.38878012137738377 25 28 27 0.02095400373297427 13 813 16 595
834 0.8895755367004604 0.05110409619896017 -0.3887669720596843 177 183 185 0.00048231814074635053 13 820 16 594
835 0.9195641646034936 0.051429620453725226 -0.3867184109498194 35 38 39 0.33399438928477626 13 829 16 602 25 1249
836 0.9207167606045983 0.052154682112131555 -0.3896597097744399 27 30 29 0.349009533003754 13 830 16 603 15 816
837 0.9459000474728072 0.05215946489753717 -0.3886457739532259 45 48 49 0.3901819300827453 13 834 16 607 25 1320
838 0.8374153128769224 0.03331059325151859 -0.3895220156734493 188 188 188 0.4177595518861144 13 894 16 674 18 423
839 0.9461717990282015 0.026214557703716012 -0.3881639957535981 33 41 38 0.016108392907801843 13 986 16 737
840 0.9159562689241469 0.021053962220827817 -0.3903371534210321 21 24 23 0.38967637865043936 13 1002 16 761 15 987
841 0.8373867414369912 0.008162451005869502 -0.3875231188492586 176 176 178 0.1638255550665889 13 1049 16 829 19 542
842 0.8377293676957582 -0.0069130633864529474 -0.3901036963182929 118 117 119 0.26610796724993263 16 935 17 893 18 672
843 0.9466723997189853 -0.009748540349595883 -0.3887198390899985 27 33 33 0.009122420659747867 13 1171 16 943
844 0.9466723997189853 -0.009748540349595883 -0.3887198390899985 27 33 33 0.009122420659747867 13 1172 16 944
845 0.8951844142866844 -0.01584587642912327 -0.38835085117934287 21 24 23 0.06895331144873583 13 1205 16 981
846 0.838105574098108 -0.02079970272484892 -0.38670564414074793 162 165 166 0.3235253319877732 13 1229 16 1021
847 0.835936621440814 -0.022530825177536955 -0.3895948040963094 167 170 171 0.17639399952760565 13 1245 16 1024
848 0.8393865674769607 -0.027300869895632542 -0.3865120780228852 97 96 96 0.07562149459134702 13 1277 16 1060
849 0.8366763596104033 -0.028921205916776934 -0.38758868309854655 134 133 133 0.07692081238346223 13 1289 16 1071
850 0.8366763596104033 -0.028921205916776934 -0.38758868309854655 134 133 133 0.07692081238346223 13 1290 16 1072
851 0.8610136922117285 -0.03255011328388036 -0.3833637987217975 18 21 20 0.2655068955130533 13 1311 16 1085
852 0.8410879864114021 -0.03390028412996984 -0.38908884209313116 164 167 166 0.01865347173490782 13 1328 16 1100
853 0.9318988132685461 -0.04855330609685356 -0.3871526250757228 34 34 34 0.0993061647341087 13 1376 16 1140
854 0.9318988132685461 -0.04855330609685356 -0.3871526250757228 34 34 34 0.0993061647341087 13 1377 16 1141
855 0.8726599888691302 -0.06254409067939855 -0.38685807450133525 18 18 18 0.2890229055257408 13 1461 16 1218
856 0.8726599888691302 -0.06254409067939855 -0.38685807450133525 18 18 18 0.2890229055257408 13 1462 16 1219
857 0.891225328249294 -0.0680472628786804 -0.38955341884081274 21 24 23 0.34157838719556893 16 1231 17 1222 15 1397
858 0.884566599200128 -0.06722248500740398 -0.38660066834505064 152 156 151 0.2552167736009372 13 1478 16 1235
859 0.885589828482592 -0.07294804038566885 -0.389158534170413 20 20 20 0.45900413336581886 13 1503 16 1251 15 1418
860 0.8609235203987375 -0.07495553619168993 -0.3901781527530568 19 19 19 0.24399272414865136 13 1515 16 1268
861 0.9643641038619589 -0.0849215888540439 -0.38824574873518075 180 184 179 0.014021148401658712 13 1524 16 1266
862 0.8985864847149155 -0.08053820024243982 -0.390323411633717 155 155 151 0.14130296630886496 16 1274 17 1261
863 0.9838493405850152 -0.09529672460761146 -0.38467218032964695 29 35 35 0.2840205379299152 13 1556 16 1284 25 2251
864 0.8960661308817163 -0.09606497699361045 -0.39157134551673073 23 24 20 0.018250017523041725 16 1299 17 1289
865 0.984121891924291 -0.14318061617523906 -0.38342023156601657 21 24 23 0.11558154949485416 13 1698 25 2292
866 0.8363795679575119 0.12560770743610644 -0.39453594618498816 198 190 189 0.20636151057180932 13 522 18 69
867 0.8375357320612854 0.11624054355899699 -0.39607043622416255 122 116 118 0.3346740942603268 13 535 18 92
868 0.8344294366641477 0.07126488857529628 -0.3958175238464524 180 183 182 0.027937725275697354 13 686 18 201
869 0.8372667808889929 0.06432779729265742 -0.3932805338674239 177 180 179 0.24484087825125117 13 723 18 234
870 0.9850782177161661 0.059169345733129576 -0.3921467240151708 159 167 164 0.038280072668531735 13 824 18 414
871 0.8372850842677453 0.04022923641001193 -0.392185532581532 166 166 168 0.05058859849034115 13 860 18 365
872 0.8377897068174689 0.006210156776945916 -0.39180368594937653 157 160 159 0.018167784663868546 13 1069 18 599
873 0.9911751033095546 0.0012551822033647292 -0.3928600363429306 43 53 56 0.03223053361694436 13 1118 18 711
874 0.8917122174177801 -0.0043328395446097035 -0.39097514029920866 11 17 15 0.2936210352731332 13 1127 18 692
875 0.9538230680335864 -0.004351903836765308 -0.39128894871391207 21 29 28 0.26737246533755976 13 1138 18 725
876 0.8365164534019061 -0.024776239629708464 -0.39182179365901343 154 165 165 0.1093751570114363 13 1258 18 793
877 0.8399004678386044 -0.03372439688958052 -0.3921132101954227 109 112 113 0.02932963502260984 13 1323 18 850
878 0.9692572233767579 -0.08700185370874126 -0.3922499437516239 178 181 180 0.15335567291882823 13 1528 18 1072
879 0.8713837003400229 -0.08858902357075173 -0.39140171361549836 11 17 15 0.030834032044769068 13 1563 18 1082
880 0.9845028910612499 -0.1580570751457314 -0.3893125412481415 11 18 12 0.17378679608781938 13 1830 18 1153
881 0.8357779978957175 0.10552184464939159 -0.38126135411081097 99 91 88 0.33209343112795947 13 542 25 571
882 0.8357779978957175 0.10552184464939159 -0.38126135411081097 99 91 88 0.33209343112795947 13 543 25 572
883 0.9950206305049448 0.014083029010681552 -0.3859002967420383 176 179 180 0.16192966775115264 13 1047 25 1747
884 0.9818802097251237 -0.15338569775125926 -0.3868771217436778 21 30 21 0.2469839856075168 13 1797 25 2321
885 0.835311818866846 0.14237902150833165 -0.39215475838967884 126 122 125 0.32751809681393307 15 304 16 152
886 0.8357095785914462 0.1415946898197699 -0.39157505169631124 183 179 184 0.33026816092419725 15 316 16 153 19 50
887 0.8356620796409132 0.13631670744912674 -0.3914703273580607 198 197 199 0.2322943444805469 15 386 16 167
888 0.8350215865827268 0.13149928617414938 -0.37974093106953666 198 197 199 0.5092124274549608 15 387 17 263
889 0.8362925427735367 0.12537092178186887 -0.39310303417604037 122 118 119 0.08519156997204314 16 227 19 73
890 0.8361600815282572 0.12188625389395312 -0.3917062963115803 183 183 183 0.2893814337275788 15 466 16 237 19 75
891 0.8361600815282572 0.12188625389395312 -0.3917062963115803 183 183 183 0.2893814337275788 15 467 16 238 19 76
892 0.8368242684725812 0.11067009539587193 -0.38727657962627093 196 192 195 0.27558457868761793 15 483 16 250
893 0.8358639545232459 0.10192208319015697 -0.3901094761816987 196 195 197 0.11497005543640872 15 507 16 273
894 0.8365687304360486 0.10156774805108156 -0.3904279108441858 185 188 189 0.019869235314610958 15 513 16 274
895 0.8371734074496914 0.09987229308494494 -0.38992379164354735 131 128 125 0.050101689131794865 15 522 16 280
896 0.836322975505725 0.0920225521239972 -0.38899622447683596 111 111 107 0.09012954914098302 15 545 16 307
897 0.836322975505725 0.0920225521239972 -0.38899622447683596 111 111 107 0.09012954914098302 15 546 16 308
898 0.8363178496671607 0.09106289260663185 -0.3892825397666308 185 188 189 0.20353314410472856 15 552 16 314
899 0.8891063089285652 0.0885722203102052 -0.39025773985113654 181 187 185 0.2138459030762306 15 597 16 375 17 394 18 168
900 0.8891063089290014 0.08857222031076442 -0.39025773985237955 181 187 185 0.21384590307792914 15 598 16 376 18 169 17 395
901 0.834973398528883 0.08158213666804343 -0.3915777012797804 185 188 189 0.0729526112221425 15 608 16 377
902 0.8373226730348698 0.08072259713717583 -0.38996929747262626 115 111 114 0.20478395529402718 15 611 16 379 17 380
903 0.9828456604334976 0.0896735543766312 -0.3884989333208635 51 62 58 0.00318934914891178 15 626 16 413
904 0.9828456604334976 0.0896735543766312 -0.3884989333208635 51 62 58 0.00318934914891178 15 627 16 414
905 0.9461350269715397 0.08409456717942503 -0.3899128340873508 184 190 190 0.008804973799079586 15 643 16 424
906 0.9788732374874676 0.08524209737556435 -0.39159457362038175 54 62 61 0.12526063003124546 15 647 16 441
907 0.9788732374874676 0.08524209737556435 -0.39159457362038175 54 62 61 0.12526063003124546 15 648 16 442
908 0.8686362536802866 0.07554116439608582 -0.3898269748970779 179 185 187 0.10613880914533234 15 657 16 426
909 0.8686362536802866 0.07554116439608582 -0.3898269748970779 179 185 187 0.10613880914533234 15 658 16 427
910 0.8369338507979884 0.07294360613943601 -0.38965884371223114 194 193 193 0.16846207315950276 15 662 16 420 17 423
911 0.8351730529092564 0.07262546436145811 -0.39227565248429735 187 190 191 0.0014406014239838635 15 668 16 423
912 0.8630626866456171 0.073191329560394 -0.39037086006612187 26 32 30 0.24045324717119837 15 679 16 440
913 0.8632367688250834 0.07298907194266055 -0.3911904067626883 25 31 29 0.23112986939874347 15 680 16 443
914 1.0779775486147016 0.08343516250094057 -0.39275682906924203 96 96 100 0.3109510692205771 15 694 16 506
915 1.0026832555858487 0.07791671755938075 -0.3904866629089703 179 186 180 0.26961072485056053 15 701 16 502 17 542 18 312
916 0.9021143923850706 0.0707573796047485 -0.3907867244582652 20 23 22 0.2705936959878444 15 710 16 491 17 511
917 0.8681825259979509 0.0667914741899156 -0.38571193388371344 174 174 176 0.1839386758069464 15 715 25 1004
918 0.9949138167959685 0.07245159929435428 -0.38924345273001015 63 69 69 0.2568793025701594 15 727 16 525
919 1.0024288012718787 0.07226708398979376 -0.38916870994946406 79 82 81 0.11744591559847108 15 731 16 527
920 0.9911606023514773 0.06993095303249657 -0.39060614094747353 177 180 179 0.3304625855916481 15 737 16 537 17 573 18 340
921 0.8375642407119556 0.056269826657174456 -0.3887134852300442 193 190 187 0.19542787520882457 15 772 16 540 19 271
922 1.0808047757479036 0.06580153412572705 -0.39560099023994033 107 107 109 0.32929338309817335 15 776 16 590
923 0.8838351027480474 0.05694586981603141 -0.3895995875494879 176 182 182 0.23316937388754322 15 780 16 561
924 0.8838351027480474 0.05694586981603141 -0.3895995875494879 176 182 182 0.23316937388754322 15 781 16 562
925 0.9780478788015161 0.05855832644521549 -0.3907482354988549 47 60 59 0.24056062378963508 15 793 16 589
926 1.078192613425505 0.06102306532909697 -0.39304191709695757 95 95 97 0.3574104359039838 15 801 16 610
927 0.8376536595375372 0.05123417328583456 -0.3887461944545471 120 119 121 0.12374580956246024 15 808 16 571
928 0.8351704266798733 0.05096015575110606 -0.3910256406209838 193 193 193 0.20882524872416391 15 810 16 576 17 564
929 0.89001144864543 0.051584443433939205 -0.3909540738035456 185 185 185 0.20371056165052437 15 814 16 593 17 605 18 355
930 0.9528527594219027 0.052653022517905324 -0.3902914019554136 171 174 173 0.09355364545182906 15 824 16 612 17 643
931 0.8371532916955611 0.0467668976775981 -0.3897767073731175 126 125 127 0.12251820587510652 15 844 16 598
932 0.9994065648839253 0.05087712598707266 -0.39034364707862046 60 71 69 0.08453136679369809 15 845 16 636
933 0.9981701971520279 0.04352397836929854 -0.39010448650064744 56 64 63 0.006410958866314612 15 872 16 660
934 0.8363743491404386 0.03877741002190788 -0.3898135661958994 119 118 118 0.13290954862119225 15 884 16 644 17 645
935 0.8379119017519646 0.03800539226802003 -0.38958427053301303 105 104 106 0.062125582707069894 15 888 16 647
936 1.0072276210673698 0.036947338409181636 -0.3898238436764282 57 68 68 0.3760994615854608 15 907 16 697 18 527
937 0.8371767501085869 0.029848200156502556 -0.38972759895514747 111 111 115 0.00881062221205474 15 942 16 696
938 0.8937109901995378 0.029412717017958875 -0.39041168797642983 24 25 21 0.23936158836570015 15 944 16 711 17 717 18 489
939 0.8846718071050031 0.02595169951679827 -0.3914483477443625 23 26 25 0.027284227236363597 15 961 16 725
940 0.8846718071050031 0.02595169951679827 -0.3914483477443625 23 26 25 0.027284227236363597 15 962 16 726
941 0.8375024567040905 0.025570862912929596 -0.38952647792636635 182 182 184 0.07674776651883926 15 968 16 717
942 0.8380035054496855 0.024961143719888217 -0.38996399078523164 111 107 108 0.31659504882826994 15 970 16 721 18 463
943 0.8379304584443674 0.024950042873639704 -0.3895908901550051 111 107 108 0.18861617317922252 15 971 16 722
944 0.9789911419297341 0.02188844206400459 -0.39147923724639666 48 53 58 0.11599375204634396 15 978 16 767
945 0.9790743811386405 0.021904537174992984 -0.3916080541962672 46 57 57 0.1579667129486893 15 979 16 768 17 787 18 603
946 0.98908310680337 0.018481583681643578 -0.3913831102513309 61 67 69 0.20914359010671807 15 999 16 779 18 622
947 0.8817256792993774 0.017045296334295294 -0.39148485146919754 25 25 21 0.24052347462974183 15 1009 16 775
948 0.871970339345922 0.014648693560331424 -0.39118441998477377 23 26 25 0.2846173782956127 15 1019 16 784 17 785 18 566
949 0.8367008758557501 0.015255101405888954 -0.3892330901954905 112 111 111 0.03865789807683685 15 1022 16 782
950 1.0202120032547606 0.01102230565926309 -0.376026009825576 191 194 193 0.35958259918458413 15 1026 16 811
951 1.0055695883123739 0.00929039271089892 -0.39163799975068697 55 63 62 0.001516289419891758 15 1033 16 832
952 0.8379410226781777 0.013207338800255628 -0.39187624090385587 112 111 118 0.15714939003985 15 1036 16 790
953 0.8399424744032307 0.01083309373619461 -0.3882917348815746 172 175 176 0.14994013986995786 15 1046 16 803
954 0.903372858560589 0.007583851074224799 -0.39138101933906705 18 21 20 0.29315778586693675 15 1050 16 837 17 833 18 635
955 0.8386271539701778 0.008894986051671005 -0.38976309877562815 112 108 109 0.1665379812111589 15 1060 16 819 17 801 18 580
956 0.8385755714771627 0.008903190429126488 -0.38933999000227243 95 94 94 0.15974240200484568 15 1063 16 822
957 0.8780086995886272 0.005112999987560232 -0.390481676474244 179 185 187 0.10128407059747153 15 1074 16 851 18 624
958 0.9296203459779498 0.002996647342307095 -0.39092153434553517 37 28 21 0.10391116525226725 15 1076 16 871 17 870
959 0.929678209714699 0.0029869135393231984 -0.39111796236432744 37 31 33 0.16610074003570258 15 1077 16 872 18 671
960 0.9270952206274825 7.669742187314849e-05 -0.39103655920655334 26 32 30 0.2849604144762202 15 1089 16 887 18 687
961 0.8378617480732216 0.003164227607029697 -0.38961964806319066 169 172 175 0.29737046212793217 15 1101 16 868
962 0.9534474431938281 -0.004123822997683733 -0.389749753477548 32 38 36 0.07803117661649273 15 1109 16 911
963 0.9534474431938281 -0.004123822997683733 -0.389749753477548 32 38 36 0.07803117661649273 15 1110 16 912
964 0.9158887539292172 -0.004799586340438864 -0.39053924977209437 24 27 26 0.022975845674021236 15 1119 16 919
965 1.0075458143503868 -0.009207667514760978 -0.38742915679973455 42 50 51 0.17463342990469494 15 1124 16 934 25 1955
966 0.9849004751634602 -0.009370549832456972 -0.39016026272213716 36 42 44 0.2177316570955565 15 1127 16 937
967 0.8903482874248273 -0.005414830673728449 -0.3890524527638268 23 26 25 0.02919738490420563 15 1131 16 927
968 0.8842476468764411 -0.005234788225215953 -0.3881055488657368 162 168 168 0.21104908227082506 15 1133 16 926
969 0.8370906487804957 -0.0031646707174650427 -0.389854845990338 111 110 112 0.14624551896175098 15 1136 16 916 17 875
970 0.8386265058032029 -0.003992455770705485 -0.38997964178194394 137 131 133 0.2202180007900144 15 1139 16 923 17 881
971 0.8386422943570533 -0.004011812170461104 -0.39022445762029134 115 111 114 0.2636119966660095 15 1140 16 924
972 0.8907780308622564 -0.010883681432244986 -0.390229852404361 162 165 164 0.04383611011669313 15 1158 16 957
973 0.9698395459324969 -0.017410552441256402 -0.38738083108946675 49 48 52 0.34347676214321265 15 1169 16 979 25 1891
974 0.8377386493393555 -0.0117962791160139 -0.3901119309185095 185 188 191 0.2769453306512305 15 1179 16 967 18 704
975 0.9015129341120905 -0.01759180920608713 -0.38968697430775223 160 166 164 0.12847422003655387 15 1193 16 989
976 0.9842807280813959 -0.035485796891290784 -0.38875163573984384 40 51 49 0.17238067879071634 15 1233 16 1067 17 1087
977 0.9017928944029932 -0.03013839103846563 -0.3891402536171775 152 160 157 0.23738852707202096 15 1237 16 1053
978 0.9017928944029932 -0.03013839103846563 -0.3891402536171775 152 160 157 0.23738852707202096 15 1238 16 1054
979 0.9464854994608878 -0.035383237933012124 -0.3883197781098109 25 29 24 0.17953614646764274 15 1244 16 1076
980 0.9474115830008142 -0.03575392213813452 -0.3901693987979264 25 29 24 0.3634095931654416 15 1245 16 1077 17 1092
981 0.8945437443157747 -0.03300117559626721 -0.3893755356340896 22 25 24 0.09505550578418522 15 1250 16 1080
982 0.9478061344300845 -0.041342645254793864 -0.390114751331968 169 170 166 0.16540860765244442 15 1263 16 1106
983 0.891046852005405 -0.04217821664498985 -0.3894265372194078 18 21 20 0.14835075816271948 15 1293 16 1130
984 0.9912840101567553 -0.05454678860571283 -0.3913346877222255 27 26 35 0.01368360918916729 15 1305 16 1146
985 1.0104391460586035 -0.07349711358921003 -0.3916728589586107 34 37 38 0.09462290100519978 15 1361 16 1207
986 0.9542694530483985 -0.06765292593181434 -0.3905925940692135 20 26 24 0.02392170126353915 15 1365 16 1203
987 0.9237654348652854 -0.06814017039790422 -0.3924180109823202 164 167 166 0.032192635403817636 15 1376 16 1217
988 0.9557100127245233 -0.07290288196237235 -0.39238669038286456 183 183 183 0.1788213969687697 15 1379 16 1225
989 0.91720240924796 -0.06813666433615366 -0.3920731585249356 20 20 20 0.08212246591050625 15 1381 16 1220
990 0.8825020366263867 -0.06503226830750584 -0.39050074919317906 24 27 26 0.21974057443705747 15 1390 16 1222 18 1005
991 0.8825020366263867 -0.06503226830750584 -0.39050074919317906 24 27 26 0.21974057443705747 15 1391 16 1223 18 1006
992 0.8914661000262502 -0.06839150592732166 -0.39064650905048043 21 24 23 0.04065133430287364 15 1398 16 1232
993 0.9167424116049797 -0.07319957274777603 -0.3904874364787706 157 160 161 0.26441339792255947 15 1406 16 1239 17 1230
994 0.9167424116049797 -0.07319957274777603 -0.3904874364787706 157 160 161 0.26441339792255947 15 1407 16 1240 17 1231
995 0.973512077853755 -0.0833577054781468 -0.3915528828350607 36 36 40 0.1762479937776496 15 1411 16 1254
996 0.8861523508824288 -0.07368054133833915 -0.39125886657519626 20 20 20 0.10115757806174903 15 1417 16 1250
997 0.9021670860873737 -0.0772031843716223 -0.39103649450605704 20 20 22 0.04120649127510578 15 1426 16 1260
998 0.8953808719554978 -0.07715940272545593 -0.3909184462488269 23 23 23 0.16117923423841485 15 1429 16 1264 17 1249 18 1047
999 0.8953759291555811 -0.07717055927032287 -0.3909605749488032 23 23 23 0.14196814251415724 15 1430 16 1265 17 1250
1000 0.9094745270701932 -0.08052575632112152 -0.3904818798684425 31 32 28 0.0551844260212253 15 1434 16 1269
1001 0.8367938371230901 0.08389403868715989 -0.39096010128286973 184 183 183 0.21179605113331004 15 600 17 363
1002 0.8363498569495641 0.07421513916280956 -0.3901156760968939 188 187 189 0.17955059294853282 15 650 17 416
1003 0.835859336476266 0.07215203874795437 -0.389906055978549 123 122 122 0.19057597657546 15 669 17 427
1004 0.8381908566019187 0.055212146498608956 -0.38959241787117144 99 98 100 0.03827559358466963 15 779 17 539
1005 0.8837547334594076 0.05080739135305428 -0.3924677891215674 23 26 25 0.219403527151237 15 828 17 608
1006 1.007141783600561 0.04758393139328719 -0.39069179853372377 54 65 65 0.3058641396974117 15 855 17 682
1007 0.8374822263365199 0.04158943605188188 -0.3899697195661085 123 122 124 0.10197382241836979 15 869 17 621
1008 0.837498348432561 0.04072689165698388 -0.3897308953224446 178 181 184 0.18278676463637933 15 873 17 627
1009 0.837498348432561 0.04072689165698388 -0.3897308953224446 178 181 184 0.18278676463637933 15 874 17 628
1010 0.9007567739721665 0.03321672967455221 -0.39007277171917015 30 30 30 0.10300641520952881 15 919 17 699
1011 1.0802653501531567 0.019999565521873645 -0.39602212879555804 106 105 107 0.2380748755961406 15 984 17 824
1012 0.9915724496553922 0.007163913513941859 -0.3905199140019265 183 189 189 0.03883451465845824 15 1043 17 860
1013 0.8738882271119948 0.0016018154186434133 -0.39028508096471 26 26 26 0.22200359623836588 15 1098 17 859
1014 0.8846997952910506 -0.005488288363768252 -0.39022949745161534 162 168 168 0.034046050667094076 15 1134 17 897
1015 0.9675327183243244 -0.02382689830943034 -0.3898709142370855 38 41 42 0.026063979648786623 15 1200 17 1021
1016 0.9630196587017376 -0.07809158030211293 -0.3907488681836257 184 190 188 0.20321811616949206 15 1396 17 1240
1017 0.8636294519739273 -0.06494511750346034 -0.39032891909192613 31 32 28 0.17225265958668204 15 1400 17 1213 18 1004
1018 0.8353123191103198 0.1352597937798844 -0.39121290715825274 119 119 115 0.3038079137599034 15 393 18 50 16 171
1019 0.9593466324391818 0.1006038945570239 -0.391150941392825 183 189 187 0.21903177925901648 15 572 18 186
1020 0.8368560975072106 0.05282950311544622 -0.39033325881702996 103 102 104 0.1790760987793118 15 799 18 285
1021 0.8386490765103025 0.02885142121246793 -0.3900664469765504 100 96 99 0.01660308093874734 15 946 18 443
1022 0.8389736259883639 0.009703588924926046 -0.38967366329842384 166 165 165 0.012578010632452067 15 1053 18 570
1023 0.9327605525872915 0.0019983387057903833 -0.39057710778452326 156 164 163 0.12033687583464443 15 1083 18 676
1024 0.8377834103557346 -0.011787838116477704 -0.3901122266895059 171 171 173 0.14706462004199644 15 1180 18 705
1025 0.9065148863394372 -0.08040938410813117 -0.3905390476715521 160 159 161 0.011568849644981286 15 1436 18 1058
1026 0.9065148863394372 -0.08040938410813117 -0.3905390476715521 160 159 161 0.011568849644981286 15 1437 18 1059
1027 0.8366870388452452 0.09107488477053981 -0.3915088469293217 113 109 110 0.3468161259703299 16 320 17 342
1028 0.8366764652673911 0.08217614601754734 -0.39060150789286063 179 178 178 0.3268999565073853 16 369 17 369
1029 0.8366764652673911 0.08217614601754734 -0.39060150789286063 179 178 178 0.3268999565073853 16 370 17 368
1030 0.9845179475329111 0.08487564550192273 -0.39111985499384855 183 186 185 0.001877233170723789 16 447 17 491
1031 1.0873465934888866 0.09502629594785904 -0.3966903141950596 86 89 90 0.35993923688814367 16 451 17 523
1032 0.8374404916067882 0.067766537353534 -0.39060909928313436 122 118 119 0.2128565445489502 16 461 17 451
1033 0.8347732564560211 0.06675294782148863 -0.39076138823495615 187 187 187 0.2030175031937714 16 469 17 458
1034 1.0810986925911523 0.09033917274178845 -0.3964480596540322 82 78 81 0.25226606663106377 16 476 17 541
1035 0.9261209523756052 0.07442015620066034 -0.39137122020358256 28 32 27 0.256926425719109 16 477 17 512 18 269
1036 0.9261209523756052 0.07442015620066034 -0.39137122020358256 28 32 27 0.256926425719109 16 478 17 513 18 270
1037 0.8769884755492221 0.06775275373840253 -0.39021494084322916 181 187 189 0.06730045939237747 16 493 17 497
1038 0.8368598687014677 0.061694206096149 -0.38317810657802864 148 145 142 0.3094301649664144 16 495 25 891
1039 0.9956343432474721 0.06600855248816787 -0.39071034483234507 179 182 181 0.31326475526614184 16 559 17 594 18 366
1040 1.086280758195594 0.07313123576282114 -0.3957993531975705 75 78 79 0.139365955585445 16 564 17 613
1041 0.8372493760735036 0.04699744910929413 -0.39105353143029253 114 110 111 0.1674939105949649 16 597 17 589
1042 1.0804947170513888 0.05774694022944656 -0.39550209414370413 84 84 88 0.2266068747067836 16 626 17 674
1043 1.083060583503182 0.05655473982673154 -0.3982920502773674 107 103 108 0.14748539836228103 16 637 17 685
1044 1.0072283244654794 0.047492561879626596 -0.3909414987134223 47 55 54 0.4012329213170795 16 648 17 683 18 477
1045 1.0916681687865384 0.05394224754798042 -0.4070771001188284 103 103 103 0.11925094670437805 16 652 17 703
1046 0.8375640939535068 0.03617865324443761 -0.38986311915619176 136 132 133 0.07080583235050669 16 659 17 658
1047 0.8370111345243274 0.03066029291066823 -0.3889843584123957 174 177 178 0.05990214000210418 16 690 17 680
1048 0.9715332800231666 0.03403746708669451 -0.3901472700183741 176 184 181 0.024080206235235366 16 705 17 730
1049 0.8377009658395722 0.012522780717938305 -0.39078566240011153 123 123 125 0.12047448345840996 16 797 17 784 18 549
1050 0.9968899115985796 0.012327236176014639 -0.39125926452297133 70 73 76 0.011606954263799882 16 808 17 836
1051 0.9968899115985796 0.012327236176014639 -0.39125926452297133 70 73 76 0.011606954263799882 16 809 17 837
1052 0.8739144601215246 0.009714172805379366 -0.39063353778017884 179 182 183 0.055825613889008835 16 814 17 812 18 604
1053 0.8650918974130068 0.0042107188939001375 -0.3898241022913118 161 169 168 0.21806824636739494 16 860 17 841
1054 0.8358366881912258 0.0032116389690451455 -0.3920177255185997 183 186 187 0.16513070925579082 16 867 17 835 18 615
1055 0.8392463128541423 -0.0022121025503836714 -0.3878742016998831 166 169 170 0.2621684921758417 16 904 17 872
1056 0.8375659503549946 -0.00416086344574262 -0.38941593462605134 176 176 178 0.2617666063566705 16 925 17 883
1057 0.8606639837765814 -0.012880761086847263 -0.39277366944635334 21 24 23 0.6329529873746129 16 970 17 937 18 731
1058 0.8378950199473003 -0.012873472976081969 -0.3907472083585445 175 175 175 0.2976070135563381 16 974 17 929 18 717
1059 0.8377423952783193 -0.01445153362039355 -0.38968670912105835 179 178 182 0.37695952086552453 16 985 17 943 18 723
1060 0.9600917329634195 -0.021610144940911638 -0.39045357996309765 177 183 181 0.2709923573299718 16 1003 17 1001
1061 0.9600917329634195 -0.021610144940911638 -0.39045357996309765 177 183 181 0.2709923573299718 16 1004 17 1002
1062 0.8390413658224716 -0.02498368048707491 -0.3900510792569082 160 163 164 0.10757459691531801 16 1039 17 1013 18 795
1063 0.9577550174225816 -0.03240581111816167 -0.3911113928415708 36 39 40 0.10383971611351875 16 1051 17 1073
1064 0.9845488060436417 -0.03550219289737153 -0.38921855162816577 38 46 45 0.13480514580278274 16 1066 17 1086
1065 0.933601666879496 -0.05648794105702158 -0.3906039628740996 34 35 31 0.24637637206765048 16 1171 17 1165 18 970
1066 0.9331913984157493 -0.056328739615299855 -0.38965053729214794 30 29 29 0.13833938588010472 16 1172 17 1166
1067 0.9262869639730567 0.06300665081437283 -0.39123871496703566 26 32 30 0.13524031367119677 16 551 18 324
1068 0.8364589570166974 0.038905421121500215 -0.3904807242135583 110 110 112 0.3283159956513935 16 643 18 372
1069 0.9156381137892825 0.02608836958849082 -0.39022784728967 173 181 178 0.08257311365112678 16 732 18 522
1070 0.8739186844252668 0.009718385579512928 -0.39062534074461724 167 175 176 0.05011777253602554 16 815 18 605
1071 0.8379773733282125 0.0018085966678650087 -0.3898143932233987 183 182 182 0.3290996856282742 16 883 18 621 17 843
1072 0.8391686589533982 -0.016049793638943016 -0.3899980916678567 168 168 168 0.01299266107508305 16 992 18 737
1073 0.8357882208257225 0.1285204024534305 -0.3921863188517103 137 131 133 0.13475120990231423 16 202 19 68
1074 0.8357882208257225 0.1285204024534305 -0.3921863188517103 137 131 133 0.13475120990231423 16 203 19 69
1075 0.8363736249681788 0.09957051968591246 -0.3908924087257746 183 182 182 0.27408655991007413 16 282 19 102
1076 0.8363736249681788 0.09957051968591246 -0.3908924087257746 183 182 182 0.27408655991007413 16 283 19 103
1077 0.8365316817360586 0.08993762869898062 -0.39000827392697507 132 127 125 0.2768693223479611 16 325 19 131
1078 0.9083302813717048 0.09261081055206721 -0.3886918593421427 30 36 38 0.057831129948062415 16 359 19 150
1079 0.8879801751661311 0.08105655383692127 -0.3848706321403819 27 27 29 0.033322396994391996 16 401 25 972
1080 0.8793618185999243 0.06958061323678116 -0.3852555397898084 21 27 25 0.3071691470265365 16 471 25 1021
1081 0.838027203130837 0.04927097720047473 -0.3823845096146511 172 173 169 0.09832809901714688 16 580 25 998
1082 0.8359055581391711 0.04161556449077774 -0.38281843715945907 135 135 135 0.1001708424961267 16 620 25 1038
1083 0.8386842175107728 0.03273967870948184 -0.3792293571574045 172 175 174 0.2574166193131027 16 663 25 1102
1084 0.9263959874545364 0.0060021986240715525 -0.38548099085199133 167 173 171 0.32717585096622004 16 848 25 1587
1085 0.9199942906716627 -0.004864882429558381 -0.3852781077482397 165 171 169 0.1477903475120468 16 921 25 1656
1086 0.8369862563759382 -0.008536886270967228 -0.3803282683456335 172 172 172 0.3561995490987655 16 951 25 1368
1087 0.8369862563759382 -0.008536886270967228 -0.3803282683456335 172 172 172 0.3561995490987655 16 952 25 1367
1088 0.9827450672687444 -0.03997323078767309 -0.38601563125780736 173 176 175 0.22242438957553343 16 1089 25 2096
1089 0.994393124620438 -0.05082286456660729 -0.3868754845147618 43 51 52 0.27734789437723084 16 1135 25 2155
1090 0.9310533681664938 -0.04817920785444714 -0.3845333366585097 38 38 38 0.2957224778822948 16 1143 25 2029
1091 0.8362854383848025 0.11959210347480205 -0.3929052119069296 197 193 196 0.040925397931157736 17 295 18 82
1092 0.9712061371416034 0.10999449658441146 -0.3926681973100909 185 188 187 0.05063580357221905 17 361 18 166
1093 0.8896352140752413 0.08424253072027306 -0.39249044524053234 29 32 33 0.21651691127937012 17 419 18 195
1094 0.9437417397827708 0.0615648234554101 -0.3912497113398293 31 35 30 0.06121011146107759 17 585 18 343
1095 0.978722262626024 0.05915552317988614 -0.39208420170571956 41 47 47 0.009815790706646755 17 622 18 406
1096 1.008233256774558 0.05163947818180477 -0.3913300354560972 60 66 66 0.12148324228903014 17 669 18 454
1097 0.8937873921333076 0.030654743959282634 -0.38786796292892534 27 16 7 0.0882456846890432 17 708 18 478
1098 0.8937873921333076 0.030654743959282634 -0.38786796292892534 27 16 7 0.0882456846890432 17 709 18 479
1099 0.947037940674972 0.026577549043389687 -0.39026985725658403 26 33 27 0.3105787046667907 17 755 18 547
1100 0.8849400979718152 0.020560150864124202 -0.39182645451336817 169 172 173 0.08487326301830665 17 764 18 541
1101 0.9223252883531822 0.02129838949599306 -0.3921649020848085 164 170 170 0.09625223117318513 17 775 18 562
1102 0.9540108784289056 0.021814300673663474 -0.3922614613577828 29 32 33 0.12370457562731078 17 782 18 593
1103 0.9540108784289056 0.021814300673663474 -0.3922614613577828 29 32 33 0.12370457562731078 17 783 18 594
1104 0.9796847096929949 0.022206246826691065 -0.39261650897982925 43 49 51 0.04963884156107435 17 786 18 602
1105 0.8390353657490487 0.008046400344003685 -0.389477506487759 177 176 178 0.35096373549649357 17 806 18 586
1106 0.9038716966814817 0.00794990645956155 -0.39289090790627224 16 19 18 0.08481612517175954 17 832 18 634
1107 0.9854562466064524 -0.004166553215869353 -0.39107810296477097 169 175 173 0.17420176358239334 17 920 18 739
1108 0.9225682816808907 -0.010099247465771392 -0.3921243790995425 21 24 23 0.038216289949745005 17 931 18 747
1109 0.9479944020480879 -0.009901162186568892 -0.39158777062716027 28 32 27 0.2003317967057085 17 935 18 750
1110 1.009393994215687 -0.01054940798180239 -0.39169004484742126 62 68 68 0.11734945065765562 17 951 18 778
1111 0.9971941125854191 -0.01851157875588239 -0.38939019743809256 51 62 60 0.23193781414151138 17 988 18 811
1112 0.993246416020981 -0.019339785202146777 -0.39210378247752525 40 51 49 0.19290064181451372 17 990 18 814
1113 0.9017983356880811 -0.021948683468019904 -0.39074319495429477 31 30 30 0.12760232808618419 17 997 18 800
1114 1.0819728783672806 -0.019498737606181874 -0.39794401617073416 112 112 114 0.23723214029569892 17 1005 18 842
1115 0.8697399015370374 -0.02412592290501186 -0.392011293726233 16 19 18 0.10223744657956037 17 1009 18 808
1116 0.8378272360191034 -0.025007769801785772 -0.3897903858262474 177 180 181 0.20409500003632577 17 1011 18 792
1117 0.8377223367824747 -0.025052383229803396 -0.3895401546959801 177 180 181 0.1263948438815169 17 1014 18 791
1118 1.0795995423203546 -0.02132862166924978 -0.3955364495623465 123 126 127 0.2676888644465376 17 1018 18 851
1119 1.0089971300369682 -0.02691423216210416 -0.39224293922824255 47 55 56 0.1171145378284959 17 1041 18 861
1120 1.080100162447747 -0.02645498450568156 -0.39603222943793565 125 124 124 0.34418939515043 17 1043 18 875
1121 1.082907845165079 -0.029649822994889857 -0.39887379697941044 121 124 125 0.23908333414027957 17 1062 18 888
1122 0.9138914238200965 -0.03320543019166071 -0.39208755806241796 23 26 25 0.21172431872262581 17 1077 18 867
1123 0.8911250280912012 -0.03688381195776832 -0.39091416126417555 155 163 162 0.24652676622150424 17 1101 18 879
1124 0.8597741980395875 -0.03691508155214924 -0.3888168393459837 25 31 29 0.242147025952066 17 1104 18 871
1125 0.995638795587657 -0.052836340956433324 -0.39099123482549564 53 52 54 0.28203404545971356 17 1143 18 951
1126 0.995638795587657 -0.052836340956433324 -0.39099123482549564 53 52 54 0.28203404545971356 17 1144 18 952
1127 0.9550183263535873 -0.0725548649929394 -0.3915023066900514 171 177 175 0.17514048027389265 17 1223 18 1032
1128 0.8607793728243495 -0.07492687810378512 -0.3916082876842266 20 23 24 0.037704998689567046 17 1247 18 1042
1129 0.9722462311643658 -0.08257793552040317 -0.38998376241179483 43 34 41 0.28367804216368536 17 1252 18 1063
1130 0.9230153783518135 -0.09773715157991625 -0.3867625243127545 24 27 26 0.2907086947247552 17 1290 18 1092
1131 1.0150990786556215 -0.14934428635747318 -0.38962578605062836 21 24 23 0.24444321356950205 17 1313 18 1105
1132 0.9988017592380392 -0.15032997002122683 -0.3954195796089085 24 27 26 0.24150885575004366 17 1320 18 1117
1133 0.9974220694870768 -0.15413959605355967 -0.3949959952925407 35 42 36 0.0851668401772928 17 1345 18 1131
1134 1.013685381379197 -0.15673280669318754 -0.39388559010997315 27 33 31 0.00327228202369737 17 1348 18 1136
