ply
format ascii 1.0
element vertex 452
property float x
property float y
property float z
property uchar red
property uchar green
property uchar blue
end_header
0.761366605758667 -0.05479423701763153 -0.014512310735881329 35 32 27
0.7613162994384766 -0.053725630044937134 -0.014017348177731037 39 39 33
0.7611424922943115 -0.05376843735575676 -0.014372365549206734 46 46 40
0.76103276014328 -0.0534709133207798 -0.014611875638365746 130 127 111
0.7610198855400085 -0.052695248275995255 -0.01432119496166706 73 73 69
0.7613145709037781 -0.052489377558231354 -0.013353156857192516 81 84 83
0.7611801624298096 -0.05224255844950676 -0.013454689644277096 94 94 94
0.761195957660675 -0.05228042975068092 -0.01349208876490593 94 94 94
0.7611837983131409 -0.05220341309905052 -0.013477283529937267 91 92 88
0.7611837983131409 -0.05220341309905052 -0.013477283529937267 91 92 88
0.7611536979675293 -0.05205255746841431 -0.013455565087497234 101 100 100
0.7613685727119446 -0.0520038902759552 -0.01292530819773674 108 111 112
0.7611511945724487 -0.05194626748561859 -0.013451418839395046 106 106 102
0.7611511945724487 -0.05194626748561859 -0.013451418839395046 106 106 102
0.7612190246582031 -0.051832474768161774 -0.013235695660114288 103 102 104
0.7612190246582031 -0.051832474768161774 -0.013235695660114288 103 102 104
0.7612216472625732 -0.05179322883486748 -0.013269279152154922 112 111 113
0.7614608407020569 -0.05170426890254021 -0.012466402724385262 90 89 89
0.7611678242683411 -0.05171753093600273 -0.013290297240018845 125 125 121
0.7615519762039185 -0.05163684859871864 -0.012139979749917984 79 82 85
0.7616103887557983 -0.0515860989689827 -0.011974981054663658 103 106 105
0.7609651684761047 -0.0516730360686779 -0.012699351646006107 127 131 126
0.7611699104309082 -0.0516248382627964 -0.01331258099526167 127 131 126
0.7614986300468445 -0.051572948694229126 -0.012024706229567528 110 111 107
0.7717520594596863 -0.05217708647251129 -0.025922883301973343 69 65 56
0.7598103880882263 -0.051174093037843704 -0.005782882682979107 70 63 55
0.761949360370636 -0.05152525007724762 -0.012992076575756073 114 120 120
0.761949360370636 -0.05152525007724762 -0.012992076575756073 114 120 120
0.7613084316253662 -0.0515214167535305 -0.012899087741971016 122 125 124
0.7703589797019958 -0.05272798240184784 -0.037370964884757996 119 123 118
0.7618616819381714 -0.05130975320935249 -0.010805312544107437 83 78 74
0.7594770789146423 -0.05093961954116821 -0.0016557822236791253 204 203 205
0.7612953186035156 -0.0512644499540329 -0.009950438514351845 76 71 67
0.7617496848106384 -0.05129649490118027 -0.01112072542309761 85 80 76
0.7611962556838989 -0.05136008933186531 -0.013121356256306171 143 146 145
0.7654179930686951 -0.05155676603317261 -0.01953255943953991 104 100 93
0.7611503005027771 -0.051356036216020584 -0.013153418898582458 129 128 130
0.7611503005027771 -0.051356036216020584 -0.013153418898582458 129 128 130
0.7613455653190613 -0.05132649838924408 -0.012663966044783592 106 105 105
0.760595440864563 -0.051172491163015366 -0.008734237402677536 197 198 189
0.7616034150123596 -0.05125746876001358 -0.011760707944631577 133 130 125
0.7615746855735779 -0.051254935562610626 -0.011866899207234383 150 143 137
0.7609708905220032 -0.05130620673298836 -0.01347392052412033 140 144 139
0.7619398236274719 -0.05127602443099022 -0.012910477817058563 166 166 160
0.7610930800437927 -0.05129987373948097 -0.013270671479403973 141 144 143
0.7610930800437927 -0.05129987373948097 -0.013270671479403973 141 144 143
0.7618922591209412 -0.051241565495729446 -0.01230269018560648 196 197 188
0.7615087032318115 -0.05124245211482048 -0.012140734121203423 153 151 143
0.7613040208816528 -0.05126664787530899 -0.012749542482197285 153 159 157
0.7594729065895081 -0.050901830196380615 -0.0016515889437869191 196 195 197
0.7612259387969971 -0.0512666217982769 -0.01290245819836855 151 154 153
0.7615480422973633 -0.051213111728429794 -0.011945392936468124 191 191 185
0.7629184722900391 -0.05132921785116196 -0.015715450048446655 166 166 160
0.7614004611968994 -0.05122561380267143 -0.012447366490960121 149 146 141
0.7609782814979553 -0.05127854645252228 -0.013520107604563236 119 119 113
0.761136531829834 -0.05125509575009346 -0.013126159086823463 111 112 108
0.7624297738075256 -0.05125860124826431 -0.014271439984440804 197 198 192
0.761168897151947 -0.0512341633439064 -0.013057512231171131 136 137 133
0.7613231539726257 -0.051205508410930634 -0.01266798097640276 175 172 169
0.761813223361969 -0.051234662532806396 -0.014248964376747608 190 187 184
0.7594680190086365 -0.050881482660770416 -0.0016460175393149257 193 187 191
0.7611926794052124 -0.05119222775101662 -0.013011765666306019 177 174 169
0.761141836643219 -0.0511823333799839 -0.013138684444129467 133 131 123
0.7609489560127258 -0.05118235945701599 -0.013558118604123592 112 112 112
0.7609489560127258 -0.05118235945701599 -0.013558118604123592 112 112 112
0.7611750960350037 -0.05115177854895592 -0.013090997003018856 194 194 188
0.7610222697257996 -0.051115699112415314 -0.01294652372598648 193 194 190
0.7614424824714661 -0.050866030156612396 -0.005414928775280714 199 202 203
0.7609480619430542 -0.05108891800045967 -0.01354079321026802 127 126 126
0.760757327079773 -0.051066674292087555 -0.013927590101957321 133 136 135
0.7594577074050903 -0.050833363085985184 -0.0016322570154443383 210 210 214
0.7594577074050903 -0.050833363085985184 -0.0016322570154443383 210 210 214
0.7607064247131348 -0.05104628577828407 -0.013981233350932598 130 130 130
0.7609416842460632 -0.05100492760539055 -0.0134746003895998 122 125 124
0.7606678605079651 -0.050990909337997437 -0.014052197337150574 92 91 91
0.7606678605079651 -0.050990909337997437 -0.014052197337150574 92 91 91
0.7609366178512573 -0.05077207833528519 -0.01342330127954483 133 132 134
0.7609624862670898 -0.050638627260923386 -0.013271846808493137 154 154 154
0.7609207630157471 -0.05062776803970337 -0.013370045460760593 150 150 152
0.7598380446434021 -0.050638698041439056 -0.010228321887552738 156 162 162
0.7609254121780396 -0.05049402266740799 -0.013315530493855476 156 162 160
0.7609062194824219 -0.050473153591156006 -0.013374431058764458 124 124 120
0.7609062194824219 -0.050473153591156006 -0.013374431058764458 124 124 120
0.7608969807624817 -0.0504164956510067 -0.013367952778935432 112 112 108
0.760914146900177 -0.05039138346910477 -0.013276987709105015 165 168 167
0.7615708112716675 -0.050346821546554565 -0.011509326286613941 199 202 201
0.7607967853546143 -0.0503479465842247 -0.013590523041784763 107 110 111
0.7607967853546143 -0.0503479465842247 -0.013590523041784763 107 110 111
0.7606686949729919 -0.05034736171364784 -0.013816609047353268 142 145 144
0.7608409523963928 -0.05018683522939682 -0.013431504368782043 150 153 152
0.7607588171958923 -0.050183746963739395 -0.013552678748965263 111 111 113
0.7607414126396179 -0.05005688592791557 -0.013541596941649914 115 118 117
0.7607414126396179 -0.05005688592791557 -0.013541596941649914 115 118 117
0.7605693340301514 -0.04996790364384651 -0.013889063149690628 118 119 115
0.7607868313789368 -0.049948424100875854 -0.013373928144574165 156 162 162
0.7597557902336121 -0.04978499934077263 -0.01569526456296444 109 110 101
0.7607269883155823 -0.04979527369141579 -0.013546484522521496 124 127 126
0.7606920003890991 -0.049537304788827896 -0.013594270683825016 102 103 97
0.7604061365127563 -0.04934561997652054 -0.013414240442216396 129 129 129
0.7604061365127563 -0.04934561997652054 -0.013414240442216396 129 129 129
0.7625828385353088 -0.04893829673528671 -0.010825621895492077 56 64 61
0.7590487003326416 -0.05020980164408684 -0.0012531753163784742 195 195 197
0.7595018148422241 -0.05004536360502243 -0.001632674946449697 168 167 171
0.7589453458786011 -0.049717701971530914 -0.003064503660425544 31 33 39
0.7592119574546814 -0.04940501227974892 -0.003955149557441473 41 47 49
0.7592119574546814 -0.04940501227974892 -0.003955149557441473 41 47 49
0.7616835236549377 -0.048596154898405075 -0.006222022697329521 171 184 183
0.7591627836227417 -0.049418188631534576 -0.0038162684068083763 50 42 41
0.7591627836227417 -0.049418188631534576 -0.0038162684068083763 50 42 41
0.7603232264518738 -0.047031253576278687 -0.013029421679675579 159 167 164
0.7604678273200989 -0.046795547008514404 -0.013612333685159683 168 174 174
0.7599637508392334 -0.04687473177909851 -0.012469873763620853 144 155 151
0.7603417634963989 -0.04643787816166878 -0.013062734156847 124 127 128
0.7604562044143677 -0.04800834506750107 -0.005705056246370077 187 195 192
0.7602651715278625 -0.04584077373147011 -0.013148256577551365 123 126 127
0.7603911757469177 -0.0451587475836277 -0.015201528556644917 116 119 120
0.759551465511322 -0.04796898737549782 -0.004719772841781378 41 49 48
0.7603034377098083 -0.044691260904073715 -0.013529375195503235 190 191 185
0.7597413063049316 -0.04843469336628914 -0.002227221615612507 26 26 26
0.7588212490081787 -0.03955843672156334 -0.014442479237914085 119 117 105
0.8748090863227844 -0.179610937833786 -0.24533213675022125 78 72 59
0.7776108384132385 -0.09243658185005188 -0.0499102920293808 79 79 79
1.1539623737335205 -0.11843530088663101 -0.7915435433387756 140 139 139
0.785193145275116 -0.08602357655763626 -0.0672171413898468 114 117 116
0.8760689496994019 -0.08367008715867996 -0.24851427972316742 162 168 166
0.8168074488639832 -0.0847715511918068 -0.1381073147058487 116 116 116
0.8054165244102478 -0.08346175402402878 -0.04188073053956032 39 36 33
0.8054165244102478 -0.08346175402402878 -0.04188073053956032 39 36 33
0.9326167702674866 -0.07298935949802399 -0.2161504477262497 43 48 53
0.9330946207046509 -0.07290738075971603 -0.21649013459682465 44 49 54
0.9336934089660645 -0.06996261328458786 -0.21211369335651398 197 203 205
0.8164482712745667 -0.08069705218076706 -0.07291238754987717 197 203 205
1.0156434774398804 -0.052389614284038544 -0.5323347449302673 129 129 129
0.8609210252761841 -0.06072496995329857 -0.24366211891174316 96 97 93
0.8422203660011292 -0.069649837911129 -0.08591634035110474 36 36 36
0.9181589484214783 -0.04759932681918144 -0.2197895646095276 52 60 59
0.9154505729675293 -0.04732038825750351 -0.22280699014663696 194 202 203
0.9154505729675293 -0.04732038825750351 -0.22280699014663696 194 202 203
0.9167400002479553 -0.04142743721604347 -0.2128230482339859 47 58 58
0.9050078392028809 -0.035407304763793945 -0.2243732064962387 59 70 70
0.9375630617141724 -0.0031488670501857996 -0.40901339054107666 154 165 163
0.9175389409065247 -0.012190597131848335 -0.3643638491630554 154 165 163
0.9226085543632507 0.023956960067152977 -0.37357592582702637 122 125 128
0.8981069326400757 -0.009802594780921936 -0.20331531763076782 194 202 203
1.0103861093521118 0.09833375364542007 -0.5769304037094116 104 104 104
0.9320361018180847 -0.014302296563982964 -0.12612071633338928 31 34 37
0.9815980792045593 0.2207762748003006 -0.6152217388153076 49 49 43
0.8358402252197266 0.03299122676253319 -0.2242761105298996 39 39 35
0.75909024477005 -0.11892347782850266 -0.010009645484387875 97 86 81
0.7590683102607727 -0.11973145604133606 -0.010583266615867615 110 103 93
0.7998669743537903 -0.12011852115392685 -0.09046653658151627 121 124 125
0.785028874874115 -0.11454413831233978 -0.06450924277305603 147 150 149
0.7931163907051086 -0.11362157762050629 -0.08315201103687286 135 136 132
0.8303003907203674 -0.11421721428632736 -0.1549549251794815 137 140 139
0.8522530198097229 -0.10774006694555283 -0.19546622037887573 193 197 192
0.8135579824447632 -0.1079542338848114 -0.04814822971820831 201 204 207
0.8248230814933777 -0.10328082740306854 -0.14361287653446198 130 130 130
0.8284554481506348 -0.09678789228200912 -0.16902384161949158 100 107 101
0.7728443145751953 -0.10881199687719345 -0.023192595690488815 56 55 55
0.7790598273277283 -0.10453496873378754 -0.05404532328248024 108 114 116
0.8011138439178467 -0.09987834095954895 -0.06383196264505386 58 69 67
0.827504575252533 -0.08300997316837311 -0.15842242538928986 125 131 131
0.7875257730484009 -0.09807400405406952 -0.0734451562166214 99 102 103
0.8096947073936462 -0.09685459733009338 -0.04308066889643669 30 36 38
0.8524372577667236 -0.07597409933805466 -0.11691329628229141 41 48 52
0.7989758253097534 -0.09396762400865555 -0.06033807992935181 52 52 54
0.8012956380844116 -0.09239653497934341 -0.0640086755156517 61 60 67
0.8012956380844116 -0.09239653497934341 -0.0640086755156517 61 60 67
0.9012477397918701 -0.020788155496120453 -0.3158208131790161 174 182 181
0.7897437214851379 -0.1637972891330719 -0.07479642331600189 30 28 20
0.790408730506897 -0.13550932705402374 -0.09439032524824142 133 125 113
0.8716527223587036 -0.13688653707504272 -0.090342678129673 28 31 30
0.8058581352233887 -0.1269487887620926 -0.043030887842178345 202 202 206
0.9630718231201172 -0.13255788385868073 -0.18090152740478516 34 37 38
0.9427903294563293 -0.135422021150589 -0.22694064676761627 43 46 49
0.8080528378486633 -0.12858137488365173 -0.11516685783863068 123 126 125
0.8116863369941711 -0.12891319394111633 -0.12731856107711792 109 110 104
0.9121272563934326 -0.12955892086029053 -0.21119952201843262 50 61 59
0.9121272563934326 -0.12955892086029053 -0.21119952201843262 50 61 59
0.8204269409179688 -0.12472527474164963 -0.07370853424072266 53 49 52
0.9627934694290161 -0.12339222431182861 -0.16867518424987793 203 211 212
0.9364334940910339 -0.11836513876914978 -0.2268092930316925 34 45 43
0.9563714861869812 -0.11130169034004211 -0.16899406909942627 36 33 30
0.9563714861869812 -0.11130169034004211 -0.16899406909942627 36 33 30
0.9539560079574585 -0.11118961125612259 -0.17261211574077606 201 203 211
0.9539560079574585 -0.11118961125612259 -0.17261211574077606 201 203 211
0.8205664157867432 -0.11875724792480469 -0.06425180286169052 197 199 205
0.9246318340301514 -0.1087346151471138 -0.23288990557193756 194 202 203
0.9482722282409668 -0.10586068779230118 -0.1742144525051117 41 24 24
0.8993679881095886 -0.10578687489032745 -0.3047206997871399 126 130 125
0.9574318528175354 -0.10390467941761017 -0.15669666230678558 28 31 32
0.9129751920700073 -0.09636449068784714 -0.23305678367614746 57 70 67
0.8378791809082031 -0.10483161360025406 -0.18024025857448578 148 156 155
0.9462137818336487 -0.09537475556135178 -0.16027188301086426 34 34 34
0.9242721796035767 -0.09088827669620514 -0.2020711451768875 196 203 207
0.9242721796035767 -0.09088827669620514 -0.2020711451768875 196 203 207
0.9429200291633606 -0.09090862423181534 -0.16295060515403748 35 38 41
0.9105344414710999 -0.08635347336530685 -0.24179957807064056 70 80 83
0.9231646656990051 -0.08730921149253845 -0.20103369653224945 46 49 52
0.9231646656990051 -0.08730921149253845 -0.20103369653224945 46 49 52
0.8850670456886292 -0.08516906946897507 -0.27586647868156433 173 186 185
0.8540655970573425 -0.08893000334501266 -0.2216019481420517 109 112 113
1.023884654045105 -0.02211671695113182 -0.5756738185882568 170 178 177
0.9071738123893738 -0.06011805683374405 -0.33642086386680603 154 165 165
0.9360019564628601 -0.07601183652877808 -0.15135927498340607 195 198 201
0.9256348609924316 -0.07332758605480194 -0.17472079396247864 191 199 200
0.9238739609718323 -0.06037736311554909 -0.23337844014167786 67 67 71
0.8671660423278809 0.06856673210859299 -0.3212112784385681 46 36 24
0.8100276589393616 -0.05509493499994278 -0.13693252205848694 82 75 69
0.9614070653915405 -0.06356067955493927 -0.24451857805252075 186 185 185
1.317571759223938 -0.07438933104276657 -0.6174916625022888 194 193 195
0.8398576974868774 -0.04893314093351364 -0.1184760108590126 175 170 168
0.8416719436645508 -0.04740823432803154 -0.12031703442335129 156 155 155
0.8366901874542236 -0.047156836837530136 -0.11510993540287018 149 145 146
0.8366901874542236 -0.047156836837530136 -0.11510993540287018 149 145 146
0.9064147472381592 -0.04489840194582939 -0.18734963238239288 189 189 189
0.8443419933319092 -0.04503761976957321 -0.12324358522891998 136 128 127
0.8630670309066772 -0.039747726172208786 -0.28336673974990845 54 60 60
0.8619190454483032 -0.03833334147930145 -0.2591911256313324 54 54 58
1.1495401859283447 -0.009280601516366005 -0.43710434436798096 143 142 142
1.1467845439910889 -0.007915054447948933 -0.43419408798217773 127 124 119
1.1467845439910889 -0.007915054447948933 -0.43419408798217773 127 124 119
1.1479862928390503 -0.004785975441336632 -0.4370543658733368 190 193 194
1.145641803741455 0.001093244063667953 -0.4354243278503418 143 135 134
1.1467819213867188 0.0066753532737493515 -0.43113771080970764 133 132 134
0.8794936537742615 -0.025436650961637497 -0.28892844915390015 187 190 189
1.1444200277328491 0.008608623407781124 -0.43031227588653564 181 181 183
0.8511149287223816 0.04811331257224083 -0.8693225383758545 185 186 182
1.1351256370544434 0.031501878052949905 -0.4204651415348053 151 146 144
0.8123881816864014 -0.03611965477466583 -0.14869722723960876 70 77 81
0.8123881816864014 -0.03611965477466583 -0.14869722723960876 70 77 81
0.8760886192321777 -0.024620451033115387 -0.15502436459064484 140 140 142
1.027894139289856 0.02432665042579174 -0.3097086548805237 102 101 101
0.9047700762748718 -0.0016218554228544235 -0.24175330996513367 173 181 182
0.8447126150131226 0.009229617193341255 -0.2919057309627533 57 65 64
0.9234113097190857 0.005797247868031263 -0.2164355218410492 179 182 183
1.113896369934082 0.09125148504972458 -0.39588725566864014 163 162 162
0.9100671410560608 0.003981256857514381 -0.1900671422481537 151 150 154
0.9100671410560608 0.003981256857514381 -0.1900671422481537 151 150 154
0.9004728198051453 0.013585418462753296 -0.22757893800735474 21 25 20
0.9034320116043091 0.023439625278115273 -0.22548583149909973 20 23 22
1.3854694366455078 0.2663215100765228 -0.6709312200546265 172 172 172
0.8767797350883484 0.03325355052947998 -0.23257297277450562 23 27 22
0.8918636441230774 0.03255235776305199 -0.2166653573513031 163 169 167
0.8727457523345947 0.03712688013911247 -0.23462897539138794 19 25 23
0.9006747603416443 0.03389551490545273 -0.19966697692871094 18 22 17
0.8459217548370361 -0.08883778750896454 -0.1253458857536316 142 138 141
1.6874653100967407 -0.2937166690826416 -1.005558729171753 196 192 195
1.0270628929138184 -0.1065504401922226 -0.3133569657802582 184 180 183
0.8739636540412903 -0.0819980725646019 -0.15374800562858582 188 187 189
0.9435849785804749 -0.08755861967802048 -0.22673052549362183 167 163 166
0.9524568915367126 -0.08304101228713989 -0.2353660762310028 162 161 161
0.9138486385345459 -0.07551601529121399 -0.19546550512313843 183 178 176
1.0337640047073364 -0.07634487748146057 -0.4213370680809021 29 30 26
0.9696094989776611 -0.07238994538784027 -0.4862857758998871 35 38 37
0.9696094989776611 -0.07238994538784027 -0.4862857758998871 35 38 37
1.0366045236587524 -0.06392962485551834 -0.4163641631603241 31 31 31
1.0366045236587524 -0.06392962485551834 -0.4163641631603241 31 31 31
0.9626098871231079 -0.06434169411659241 -0.49161481857299805 37 40 39
1.017844557762146 -0.05661601573228836 -0.3033144772052765 189 188 190
1.005102276802063 -0.05045988783240318 -0.4253152906894684 20 26 24
0.9455242156982422 -0.05878143012523651 -0.22713865339756012 187 186 186
1.0198420286178589 -0.03369714692234993 -0.4018372595310211 176 182 182
1.2435046434402466 -0.00024901970755308867 -0.5364352464675903 176 176 178
1.5336192846298218 0.07222084701061249 -0.836093008518219 171 171 173
0.9567033648490906 -0.0217277854681015 -0.46678897738456726 32 40 37
0.8602568507194519 -0.060611844062805176 -0.1531549096107483 22 25 24
0.8946900963783264 -0.017443692311644554 -0.5273537039756775 51 62 62
0.9068765044212341 0.010201631113886833 -0.6126068234443665 78 86 87
0.8377406001091003 -0.04045550525188446 -0.2830882966518402 72 80 81
1.0161466598510742 -0.01281089335680008 -0.29844266176223755 134 133 135
0.9252070784568787 0.003204022767022252 -0.4724350869655609 176 184 181
1.0042096376419067 0.006482873577624559 -0.3808088004589081 20 27 21
0.8136302828788757 -0.05934802442789078 -0.14354676008224487 186 192 190
0.8191570043563843 0.006957103498280048 -0.4947795271873474 186 187 183
1.031904935836792 0.04349881038069725 -0.3864605724811554 168 174 174
1.031904935836792 0.04349881038069725 -0.3864605724811554 168 174 174
0.9011324644088745 0.04711079224944115 -0.4471000134944916 40 48 49
0.9385547041893005 0.07014741003513336 -0.24850337207317352 156 155 155
0.991710364818573 -0.1935778558254242 -0.2800912857055664 168 168 170
1.4621573686599731 -0.37397676706314087 -0.7782460451126099 202 202 204
0.9525443315505981 -0.1699158251285553 -0.23831796646118164 188 188 190
1.0267984867095947 -0.17038743197917938 -0.33857351541519165 197 197 197
1.525331735610962 -0.2673797011375427 -0.8393693566322327 194 194 196
1.5261199474334717 -0.26159441471099854 -0.8398937582969666 197 197 199
1.5102965831756592 -0.25553154945373535 -0.8228752017021179 179 176 173
1.5107996463775635 -0.2291000336408615 -0.8180210590362549 197 194 191
1.4358774423599243 -0.21770517528057098 -0.7434593439102173 197 194 191
1.5090844631195068 -0.22675856947898865 -0.8241428136825562 195 195 195
1.5090844631195068 -0.22675856947898865 -0.8241428136825562 195 195 195
1.50753915309906 -0.22221462428569794 -0.8190800547599792 196 195 195
0.9898567795753479 -0.1541316658258438 -0.3565157949924469 31 31 27
0.9343122243881226 -0.15014472603797913 -0.4110622704029083 179 185 183
1.4994935989379883 -0.18390657007694244 -0.8093949556350708 195 195 197
1.4994935989379883 -0.18390657007694244 -0.8093949556350708 195 195 197
1.500267505645752 -0.18170973658561707 -0.8126426339149475 192 195 194
1.4984557628631592 -0.16622687876224518 -0.8074369430541992 195 195 195
0.8424307703971863 -0.12838393449783325 -0.270303875207901 187 186 186
0.8809986114501953 -0.16336901485919952 -0.9218441247940063 189 190 184
0.9732304215431213 -0.11967748403549194 -0.3447606861591339 23 26 25
0.9777836799621582 -0.11310017108917236 -0.33950087428092957 24 24 24
0.9484190940856934 -0.1116548702120781 -0.3693629205226898 28 31 32
0.9484190940856934 -0.1116548702120781 -0.3693629205226898 28 31 32
1.0638254880905151 -0.1046576276421547 -0.3547326624393463 189 189 189
0.9661911129951477 -0.10748040676116943 -0.34408947825431824 23 26 25
0.8993431925773621 -0.10871481150388718 -0.41819122433662415 49 52 55
1.0586087703704834 -0.09199663996696472 -0.34611910581588745 133 128 126
0.9615240097045898 -0.08659933507442474 -0.32798242568969727 165 171 173
0.8883038759231567 -0.08290516585111618 -0.3942289650440216 47 55 54
0.8960959315299988 -0.09199932217597961 -0.21797503530979156 23 23 19
0.830939531326294 -0.05653025954961777 -0.6047862768173218 129 129 131
0.8812199831008911 0.01989782601594925 -1.2319399118423462 183 187 182
0.97272127866745 -0.06699908524751663 -0.31259849667549133 167 173 173
0.8837103843688965 -0.050115589052438736 -0.38001951575279236 48 51 52
0.8837103843688965 -0.050115589052438736 -0.38001951575279236 48 51 52
0.9253851175308228 -0.04990337789058685 -0.3331916928291321 24 24 24
0.827300488948822 0.07975110411643982 -0.7582236528396606 189 190 186
0.7697180509567261 -0.09685243666172028 -0.04086054861545563 30 33 34
0.769882321357727 -0.0967390164732933 -0.04186609759926796 29 32 31
0.769882321357727 -0.0967390164732933 -0.04186609759926796 29 32 31
0.7700065970420837 -0.09663273394107819 -0.04218718037009239 178 185 179
0.7702915668487549 -0.09650127589702606 -0.04236486926674843 177 185 182
0.7705044746398926 -0.0963859111070633 -0.0424739308655262 177 183 181
0.7705044746398926 -0.0963859111070633 -0.0424739308655262 177 183 181
0.7703949809074402 -0.09638509899377823 -0.04260190203785896 32 38 38
0.7703949809074402 -0.09638509899377823 -0.04260190203785896 32 38 38
0.7711719274520874 -0.0957215204834938 -0.043844420462846756 177 185 184
0.7711719274520874 -0.0957215204834938 -0.043844420462846756 177 185 184
0.7710248231887817 -0.09571726620197296 -0.043974727392196655 26 32 30
0.7711695432662964 -0.09554111212491989 -0.044304657727479935 178 184 182
0.7711695432662964 -0.09554111212491989 -0.044304657727479935 178 184 182
0.7780018448829651 -0.09386218339204788 -0.08600257337093353 62 68 70
0.7711778283119202 -0.09536804258823395 -0.04470335319638252 29 32 33
0.7711778283119202 -0.09536804258823395 -0.04470335319638252 29 32 33
0.7711663842201233 -0.09526972472667694 -0.044894989579916 40 31 24
0.7710710167884827 -0.09529861807823181 -0.04495607689023018 176 184 183
0.7711642980575562 -0.0951484888792038 -0.04515950754284859 37 36 36
0.7709534168243408 -0.09520737826824188 -0.04528241232037544 26 34 33
0.7713062167167664 -0.09499645233154297 -0.04529854282736778 176 184 183
0.7712199687957764 -0.09501073509454727 -0.0453549325466156 176 184 183
0.7712199687957764 -0.09501073509454727 -0.0453549325466156 176 184 183
0.771147608757019 -0.09498218446969986 -0.04547468200325966 37 37 33
0.771147608757019 -0.09498218446969986 -0.04547468200325966 37 37 33
0.7715165019035339 -0.09481052309274673 -0.04546063765883446 42 31 22
0.7714220285415649 -0.09483631700277328 -0.04545413330197334 173 186 183
0.7713091969490051 -0.09486303478479385 -0.04553777724504471 40 36 29
0.7808404564857483 -0.09016451984643936 -0.08698403835296631 48 53 58
0.7715761661529541 -0.09471360594034195 -0.04552420228719711 28 31 30
0.7715761661529541 -0.09471360594034195 -0.04552420228719711 28 31 30
0.771139919757843 -0.09484728425741196 -0.04572354257106781 175 183 182
0.7709531784057617 -0.09439926594495773 -0.0604749396443367 183 183 185
0.7713803052902222 -0.09472158551216125 -0.045711345970630646 30 34 29
0.7717559337615967 -0.09456261247396469 -0.04561111703515053 175 183 182
0.7710750102996826 -0.09470132738351822 -0.04600069671869278 29 35 33
0.7710750102996826 -0.09470132738351822 -0.04600069671869278 29 35 33
0.7718509435653687 -0.09432963281869888 -0.04584343731403351 23 30 24
0.7718509435653687 -0.09432963281869888 -0.04584343731403351 23 30 24
0.7799870371818542 -0.08885936439037323 -0.08850555866956711 173 184 182
0.7799870371818542 -0.08885936439037323 -0.08850555866956711 173 184 182
0.7691159844398499 -0.09561244398355484 -0.03978215903043747 30 30 26
0.7691159844398499 -0.09561244398355484 -0.03978215903043747 30 30 26
0.771040678024292 -0.09454690665006638 -0.04628951475024223 174 185 183
0.771040678024292 -0.09454690665006638 -0.04628951475024223 174 185 183
0.7712851166725159 -0.0943644791841507 -0.047188155353069305 27 35 32
0.7712851166725159 -0.0943644791841507 -0.047188155353069305 27 35 32
0.7711304426193237 -0.09431341290473938 -0.046566788107156754 29 32 31
0.7711304426193237 -0.09431341290473938 -0.046566788107156754 29 32 31
0.7717117667198181 -0.09371304512023926 -0.046812754124403 21 27 25
0.7705174088478088 -0.09378648549318314 -0.04689699038863182 173 181 180
0.7723575830459595 -0.09304428100585938 -0.047070275992155075 22 30 27
0.7723575830459595 -0.09304428100585938 -0.047070275992155075 22 30 27
0.7710785269737244 -0.09331654757261276 -0.0477941669523716 30 36 36
0.7710785269737244 -0.09331654757261276 -0.0477941669523716 30 36 36
0.7724385261535645 -0.09275180101394653 -0.04730096459388733 166 174 171
0.7712950110435486 -0.09306081384420395 -0.047889530658721924 172 183 179
0.7709216475486755 -0.09342246502637863 -0.04609992727637291 175 188 187
0.7709216475486755 -0.09342246502637863 -0.04609992727637291 175 188 187
0.7718048691749573 -0.09248798340559006 -0.04803754389286041 27 30 31
0.7718048691749573 -0.09248798340559006 -0.04803754389286041 27 30 31
0.7721558809280396 -0.09237465262413025 -0.04785310477018356 160 171 169
0.7723007202148438 -0.09230100363492966 -0.04782075807452202 34 34 36
0.7723007202148438 -0.09230100363492966 -0.04782075807452202 34 34 36
0.7720620632171631 -0.09233615547418594 -0.047970011830329895 163 171 170
0.7723745703697205 -0.09214156121015549 -0.04790923744440079 161 169 168
0.7721236944198608 -0.09194441884756088 -0.04824824631214142 162 170 167
0.7721236944198608 -0.09194441884756088 -0.04824824631214142 162 170 167
0.7724695801734924 -0.0917791947722435 -0.04812606796622276 158 169 167
0.7723419070243835 -0.09179959446191788 -0.048219744116067886 162 168 166
0.7721053957939148 -0.09184680134057999 -0.048348963260650635 166 174 173
0.7725005149841309 -0.09161944687366486 -0.04824849218130112 155 166 162
0.7725005149841309 -0.09161944687366486 -0.04824849218130112 155 166 162
0.7721760272979736 -0.09173010289669037 -0.04834819212555885 31 30 32
0.7721760272979736 -0.09173010289669037 -0.04834819212555885 31 30 32
0.7722906470298767 -0.09161866456270218 -0.04835484176874161 161 169 168
0.7726396322250366 -0.09144361317157745 -0.04827755317091942 30 34 29
0.7726396322250366 -0.09144361317157745 -0.04827755317091942 30 34 29
0.772040843963623 -0.09161309897899628 -0.048580706119537354 22 28 26
0.7728319764137268 -0.09120670706033707 -0.048304855823516846 154 165 161
0.7775211930274963 -0.07977943867444992 -0.08511662483215332 56 59 62
0.7775211930274963 -0.07977943867444992 -0.08511662483215332 56 59 62
0.7774292826652527 -0.07988102734088898 -0.08475018292665482 56 59 62
0.771597683429718 -0.09129415452480316 -0.049098338931798935 32 35 34
0.771597683429718 -0.09129415452480316 -0.049098338931798935 32 35 34
0.771888256072998 -0.09093502908945084 -0.04914787411689758 29 29 29
0.771888256072998 -0.09093502908945084 -0.04914787411689758 29 29 29
0.7711181044578552 -0.09064270555973053 -0.04975073039531708 174 185 185
0.7711181044578552 -0.09064270555973053 -0.04975073039531708 174 185 185
0.7709206342697144 -0.0906430184841156 -0.04987182095646858 175 183 184
0.7709206342697144 -0.0906430184841156 -0.04987182095646858 175 183 184
0.7712339758872986 -0.09052888303995132 -0.04974329471588135 57 57 61
0.7712339758872986 -0.09052888303995132 -0.04974329471588135 57 57 61
0.7724634408950806 -0.09011555463075638 -0.04914331063628197 18 24 22
0.7714032530784607 -0.09029578417539597 -0.04977130517363548 170 176 176
0.7700349688529968 -0.0934716984629631 -0.04160444810986519 20 26 24
0.7711969017982483 -0.09026903659105301 -0.04997812584042549 178 181 182
0.7714491486549377 -0.0900474488735199 -0.04984554275870323 168 176 175
0.770986795425415 -0.0901511162519455 -0.05009733885526657 44 38 42
0.770986795425415 -0.0901511162519455 -0.05009733885526657 44 38 42
0.7709144353866577 -0.09002819657325745 -0.0502471849322319 30 36 38
0.7714270949363708 -0.08987487852573395 -0.049948617815971375 40 31 36
0.7714270949363708 -0.08987487852573395 -0.049948617815971375 40 31 36
0.7711768746376038 -0.08986648172140121 -0.05009942874312401 179 182 181
0.7715240120887756 -0.08969345688819885 -0.04993429034948349 27 30 31
0.7708983421325684 -0.08978277444839478 -0.0502350851893425 29 35 37
0.7720162272453308 -0.08931785821914673 -0.049803007394075394 27 30 31
0.7720162272453308 -0.08931785821914673 -0.049803007394075394 27 30 31
0.7717424631118774 -0.08934710174798965 -0.04994529113173485 162 170 169
0.7707257270812988 -0.08945412933826447 -0.0505339652299881 177 183 183
0.7720375061035156 -0.08894304186105728 -0.049959447234869 158 164 164
0.7686492800712585 -0.09225763380527496 -0.04562133550643921 49 51 57
0.7717666625976562 -0.08899208158254623 -0.050092265009880066 24 27 28
0.7727015614509583 -0.08860880881547928 -0.04969022423028946 24 24 28
0.7722678184509277 -0.08860690891742706 -0.04996452480554581 24 24 26
0.7722678184509277 -0.08860690891742706 -0.04996452480554581 24 24 26
0.7707377672195435 -0.08911314606666565 -0.05067834630608559 32 32 36
0.7707377672195435 -0.08911314606666565 -0.05067834630608559 32 32 36
0.7728888988494873 -0.0883491188287735 -0.04968542605638504 154 160 160
0.7725181579589844 -0.08841439336538315 -0.04983922094106674 150 158 157
0.7727299928665161 -0.08831088244915009 -0.049818005412817 24 27 26
0.7724018096923828 -0.08841241151094437 -0.04995317757129669 28 28 24
0.7721792459487915 -0.08792941272258759 -0.050173621624708176 27 28 24
0.7728931307792664 -0.08757662028074265 -0.04983118548989296 153 159 157
0.7711954116821289 -0.08808701485395432 -0.050545088946819305 19 25 23
0.7730535864830017 -0.08729909360408783 -0.04981901869177818 26 26 26
0.7723342180252075 -0.0875125378370285 -0.05015656352043152 21 24 23
0.77190762758255 -0.08999670296907425 -0.044833000749349594 29 32 33
0.771638810634613 -0.08745523542165756 -0.050336599349975586 22 28 26
0.768222451210022 -0.09355126321315765 -0.04130478575825691 90 88 95
0.7700644135475159 -0.08617069572210312 -0.05146061256527901 187 190 191
0.8076556921005249 -0.06941919028759003 -0.17372041940689087 177 185 184
0.904323935508728 0.001204138738103211 -0.7545453906059265 28 36 33
0.904323935508728 0.001204138738103211 -0.7545453906059265 28 36 33
