ply
format ascii 1.0
element vertex 74
property float x
property float y
property float z
property uchar red
property uchar green
property uchar blue
end_header
0.7598504424095154 -0.05288301035761833 -0.01656988263130188 132 124 112
0.7598371505737305 -0.052772898226976395 -0.016557708382606506 129 123 110
0.7598338723182678 -0.05263820290565491 -0.01661418005824089 127 124 110
0.7597760558128357 -0.05232725292444229 -0.016293775290250778 125 119 106
0.7597352862358093 -0.05182567238807678 -0.01623447984457016 130 126 115
0.759738564491272 -0.051715265959501266 -0.016199253499507904 132 125 115
0.760060727596283 -0.05255291238427162 -0.015800800174474716 128 121 111
0.7601978778839111 -0.052584461867809296 -0.01588921621441841 131 125 112
0.7602726221084595 -0.05259254202246666 -0.01574072800576687 131 125 112
0.7606707215309143 -0.051066990941762924 -0.014385482296347618 123 124 120
0.760899543762207 -0.05261468142271042 -0.014308066107332706 79 80 74
0.7611127495765686 -0.05247661843895912 -0.013988618738949299 89 89 85
0.7612837553024292 -0.05274802818894386 -0.013663427904248238 55 55 55
0.7613223791122437 -0.052473682910203934 -0.013416668400168419 84 84 84
0.7613524794578552 -0.05226234719157219 -0.013196667656302452 92 95 94
0.7612351179122925 -0.05203041806817055 -0.012936914339661598 104 105 101
0.7612764835357666 -0.051183488219976425 -0.0128920404240489 190 187 184
0.7614243030548096 -0.051362551748752594 -0.01289452612400055 89 89 85
0.761562705039978 -0.052413783967494965 -0.01297406293451786 71 75 70
0.7614461183547974 -0.05216493830084801 -0.012733615934848785 90 90 90
0.7614161968231201 -0.0518660731613636 -0.012721572071313858 107 107 107
0.7613953948020935 -0.05120472237467766 -0.012428351677954197 201 201 195
0.761541485786438 -0.05172457918524742 -0.012120435014367104 72 75 76
0.7615724205970764 -0.05123133957386017 -0.012227695435285568 179 179 173
0.7616970539093018 -0.051248177886009216 -0.01226029172539711 182 182 176
0.7618705630302429 -0.05129335820674896 -0.011364522390067577 141 137 128
0.761925458908081 -0.05129934474825859 -0.010915734805166721 170 168 160
0.7618585824966431 -0.051336854696273804 -0.009388474747538567 121 117 106
0.7620536684989929 -0.05135861039161682 -0.009280807338654995 89 80 71
0.7621511220932007 -0.05136314406991005 -0.009243863634765148 120 113 103
0.7621488571166992 -0.051361262798309326 -0.009077212773263454 182 178 167
0.7623412609100342 -0.051386769860982895 -0.009190675802528858 193 185 173
0.7618516087532043 -0.05135380104184151 -0.007950717583298683 146 137 128
0.7618418335914612 -0.05135851353406906 -0.007797607686370611 137 131 118
0.761743426322937 -0.051354777067899704 -0.0074913171119987965 162 153 144
0.7618967294692993 -0.051369745284318924 -0.007556875701993704 100 92 80
0.7618802785873413 -0.051373500376939774 -0.007403723429888487 115 108 98
0.7618213295936584 -0.0513760969042778 -0.006951130460947752 179 175 166
0.75950026512146 -0.0508766807615757 -0.0016762890154495835 205 204 206
0.7685327529907227 -0.09697528183460236 -0.0384400300681591 185 182 179
0.76854008436203 -0.0969570055603981 -0.03834459185600281 185 183 175
0.7710488438606262 -0.09523063153028488 -0.045083314180374146 49 52 51
0.771518349647522 -0.08995672315359116 -0.04981511831283569 111 108 103
0.7702367901802063 -0.09653633087873459 -0.042335350066423416 98 98 92
0.7711391448974609 -0.09508461505174637 -0.04532551020383835 34 35 31
0.7716259360313416 -0.09269659966230392 -0.04800628125667572 112 118 116
0.7712081670761108 -0.09494150429964066 -0.04549191892147064 99 107 108
0.7712811827659607 -0.09477636218070984 -0.04567945376038551 108 111 112
0.7710490822792053 -0.09538141638040543 -0.04472366347908974 34 35 31
0.7716987133026123 -0.09115584939718246 -0.049044784158468246 91 97 99
0.7703755497932434 -0.09649259597063065 -0.0424836203455925 174 185 181
0.7711470723152161 -0.0952422097325325 -0.04496629908680916 152 157 147
0.7717277407646179 -0.09127721935510635 -0.0489392913877964 161 169 168
0.7712408900260925 -0.09509721398353577 -0.045208144932985306 99 103 98
0.7717151641845703 -0.08943093568086624 -0.04999640956521034 119 125 125
0.7713173031806946 -0.09493809193372726 -0.04539616033434868 178 189 187
0.770380973815918 -0.09644021093845367 -0.04238055646419525 154 162 161
0.7718638777732849 -0.09136171638965607 -0.04887184500694275 131 131 131
0.7714022994041443 -0.09477050602436066 -0.045580655336380005 47 47 49
0.7717561721801758 -0.08934832364320755 -0.04984777793288231 163 169 167
0.7712289094924927 -0.09523046016693115 -0.04481850937008858 87 85 77
0.7719122171401978 -0.09248314052820206 -0.04790095239877701 118 124 126
0.7719373106956482 -0.08911080658435822 -0.050126127898693085 159 162 161
0.7714982628822327 -0.09478780627250671 -0.045464690774679184 105 106 102
0.7720882892608643 -0.09179987013339996 -0.04845250025391579 86 92 90
0.7721104025840759 -0.09225380420684814 -0.04796086624264717 130 138 137
0.7720680236816406 -0.08886505663394928 -0.049910351634025574 118 118 118
0.7722092270851135 -0.09180876612663269 -0.048267755657434464 143 146 145
0.7718791365623474 -0.0871540755033493 -0.05044659599661827 77 77 79
0.7722997665405273 -0.09152881801128387 -0.04851976037025452 68 74 74
0.7719364762306213 -0.08728672564029694 -0.05036453530192375 155 163 164
0.7720945477485657 -0.08733785152435303 -0.050336603075265884 58 51 45
0.7714371681213379 -0.08453477174043655 -0.05079758167266846 155 150 158
0.7715454697608948 -0.08449835330247879 -0.050746385008096695 147 141 147
