ply
format ascii 1.0
element vertex 698
property float x
property float y
property float z
property uchar red
property uchar green
property uchar blue
end_header
1.3887171745300293 2.3526527881622314 21.209293365478516 200 200 200
1.2690238952636719 0.27528640627861023 21.170194625854492 200 200 200
1.3993412256240845 2.220896005630493 21.21497917175293 200 200 200
1.2984949350357056 0.1730419546365738 21.185522079467773 200 200 200
1.4034281969070435 0.27831679582595825 21.203432083129883 200 200 200
1.5298357009887695 2.2055182456970215 21.236196517944336 200 200 200
1.414309024810791 0.10032302141189575 21.189167022705078 200 200 200
1.536780834197998 2.3011958599090576 21.212560653686523 200 200 200
2.477212905883789 1.105756402015686 21.17417335510254 200 200 200
1.5320285558700562 0.3877415657043457 21.235424041748047 200 200 200
1.532518982887268 0.3875987231731415 21.237060546875 200 200 200
2.2322778701782227 -0.8092337846755981 20.315317153930664 200 200 200
1.7868928909301758 4.611037254333496 21.1428165435791 200 200 200
3.394152879714966 2.7838826179504395 20.699630737304688 200 200 200
1.5302166938781738 -0.030227787792682648 21.211910247802734 200 200 200
1.234882116317749 -2.7966041564941406 20.474727630615234 200 200 200
1.2836776971817017 -2.89571213722229 21.19734001159668 200 200 200
2.627443552017212 2.1623799800872803 20.312885284423828 200 200 200
1.666340947151184 1.9826821088790894 21.232051849365234 200 200 200
1.6435370445251465 0.3669743835926056 21.248212814331055 200 200 200
1.5861879587173462 0.36596816778182983 19.880460739135742 200 200 200
1.7749513387680054 2.2223544120788574 21.247583389282227 200 200 200
1.7944773435592651 2.4819841384887695 21.278562545776367 200 200 200
1.788400411605835 2.473228931427002 21.24864387512207 200 200 200
1.667192816734314 0.26761624217033386 21.248210906982422 200 200 200
1.3687934875488281 -2.8246119022369385 20.87140655517578 200 200 200
1.6603503227233887 0.04861878603696823 21.242813110351562 200 200 200
1.9117703437805176 3.7674899101257324 21.273611068725586 200 200 200
1.3542742729187012 -2.940886974334717 20.367881774902344 200 200 200
1.3895483016967773 -2.6891908645629883 20.43067169189453 200 200 200
1.3895483016967773 -2.6891908645629883 20.43067169189453 200 200 200
1.7679650783538818 0.15664616227149963 21.220630645751953 200 200 200
1.841072678565979 1.8233599662780762 18.593027114868164 200 200 200
1.9121969938278198 1.734825849533081 21.27046775817871 200 200 200
1.6298153400421143 -2.5150339603424072 21.064647674560547 200 200 200
1.8980302810668945 0.5724148154258728 21.27385139465332 200 200 200
1.8895623683929443 -0.1424315720796585 21.295272827148438 200 200 200
1.8462131023406982 -0.9470469951629639 21.267932891845703 200 200 200
1.6506367921829224 -2.631215810775757 20.99846076965332 200 200 200
1.604644536972046 -2.9855592250823975 20.490476608276367 200 200 200
2.4517650604248047 1.2825051546096802 19.636552810668945 200 200 200
1.64751136302948 -2.8073697090148926 20.47739028930664 200 200 200
1.71610426902771 -2.884124994277954 21.018491744995117 200 200 200
1.664960265159607 -2.981651544570923 20.478477478027344 200 200 200
2.2855148315429688 3.648484468460083 21.24355697631836 200 200 200
2.0536036491394043 -0.15373562276363373 21.27442169189453 200 200 200
2.9450254440307617 4.482170104980469 20.752445220947266 200 200 200
1.7838934659957886 -2.9863595962524414 20.922443389892578 200 200 200
2.222285509109497 1.4240354299545288 21.301496505737305 200 200 200
2.206679105758667 0.8637255430221558 21.306045532226562 200 200 200
2.4147958755493164 3.5217158794403076 21.26697540283203 200 200 200
2.3147695064544678 0.9468845129013062 21.344287872314453 200 200 200
1.9510098695755005 -2.801175594329834 20.931737899780273 200 200 200
2.2072458267211914 -0.8745579719543457 21.279014587402344 200 200 200
1.9832993745803833 -2.762209892272949 20.814979553222656 200 200 200
2.5412113666534424 3.2425756454467773 21.328205108642578 200 200 200
2.288407325744629 -0.6957481503486633 21.315366744995117 200 200 200
2.5730607509613037 3.3929436206817627 21.314851760864258 200 200 200
2.484647274017334 1.3255715370178223 21.359577178955078 200 200 200
2.4802370071411133 1.4132966995239258 21.318300247192383 200 200 200
2.1600887775421143 -2.821967840194702 21.039514541625977 200 200 200
2.4030158519744873 -0.44015178084373474 21.305654525756836 200 200 200
2.3003876209259033 0.9196217656135559 20.335926055908203 200 200 200
2.6804897785186768 3.5239269733428955 21.275537490844727 200 200 200
2.5103139877319336 0.2137177437543869 21.327503204345703 200 200 200
2.7112674713134766 3.0921037197113037 21.332557678222656 200 200 200
2.6203696727752686 1.3321222066879272 21.345457077026367 200 200 200
2.538577079772949 -0.6313093900680542 21.360422134399414 200 200 200
2.845813751220703 3.525083065032959 21.309417724609375 200 200 200
2.848787784576416 3.523491621017456 21.31180763244629 200 200 200
2.846186637878418 3.267214775085449 21.340614318847656 200 200 200
2.901625156402588 4.6258931159973145 21.0848388671875 200 200 200
2.738837718963623 1.0734996795654297 21.37330436706543 200 200 200
2.7693710327148438 1.2033936977386475 21.38074493408203 200 200 200
2.760713577270508 0.9512934684753418 21.382431030273438 200 200 200
2.760209083557129 0.95158451795578 21.3815975189209 200 200 200
2.950472831726074 3.6482737064361572 21.34187889099121 200 200 200
2.438981533050537 -2.823500633239746 20.7802791595459 200 200 200
2.7402679920196533 -0.48831087350845337 21.37255096435547 200 200 200
2.7307746410369873 -0.49265506863594055 21.35114097595215 200 200 200
1.896422266960144 1.818753719329834 18.25016212463379 200 200 200
2.979264974594116 0.7371423244476318 21.388336181640625 200 200 200
2.9869930744171143 0.7390681505203247 21.401439666748047 200 200 200
3.501195192337036 4.6262969970703125 20.99669075012207 200 200 200
1.907224416732788 -0.7537179589271545 17.283111572265625 200 200 200
1.8188645839691162 -0.6335165500640869 18.128446578979492 200 200 200
3.1050891876220703 -0.187473863363266 21.419557571411133 200 200 200
3.161834716796875 0.7261255979537964 21.383068084716797 200 200 200
3.1562366485595703 0.5452986359596252 21.403074264526367 200 200 200
3.1529085636138916 0.5461324453353882 21.39002227783203 200 200 200
1.5857101678848267 0.47476404905319214 16.34479522705078 200 200 200
3.262751340866089 1.7621546983718872 21.437110900878906 200 200 200
3.3167593479156494 2.641876220703125 21.383886337280273 200 200 200
3.0473849773406982 -1.0197056531906128 21.33562469482422 200 200 200
3.4786105155944824 4.634016990661621 21.029081344604492 200 200 200
3.2801694869995117 0.43289145827293396 21.410036087036133 200 200 200
3.2826929092407227 0.4309534430503845 21.42156410217285 200 200 200
3.458503007888794 1.9265884160995483 21.40915298461914 200 200 200
3.4909701347351074 2.4622602462768555 21.377689361572266 200 200 200
3.38523006439209 0.35285940766334534 21.444246292114258 200 200 200
3.376997470855713 0.10642295330762863 21.452470779418945 200 200 200
3.582784414291382 2.1582696437835693 21.45000457763672 200 200 200
3.4702916145324707 0.26893487572669983 21.45707130432129 200 200 200
3.514852285385132 -0.02050722762942314 21.447429656982422 200 200 200
3.5156309604644775 -0.020268380641937256 21.44868278503418 200 200 200
3.7240772247314453 2.4196035861968994 21.431211471557617 200 200 200
3.5713539123535156 0.3469642400741577 21.471622467041016 200 200 200
3.567652940750122 0.1932847797870636 21.457210540771484 200 200 200
3.5700690746307373 0.1931964010000229 21.46747589111328 200 200 200
3.7275993824005127 2.2704107761383057 21.445770263671875 200 200 200
3.724780797958374 2.26774263381958 21.436622619628906 200 200 200
3.710637331008911 2.260984182357788 21.404197692871094 200 200 200
3.6358320713043213 0.11771807074546814 21.482603073120117 200 200 200
3.6836934089660645 0.4210782051086426 21.45073127746582 200 200 200
3.695225238800049 0.07245321571826935 21.48133087158203 200 200 200
3.69578218460083 0.07139477133750916 21.481592178344727 200 200 200
4.01810359954834 4.62299108505249 21.006916046142578 200 200 200
3.8210415840148926 0.20825399458408356 21.487438201904297 200 200 200
3.8278284072875977 0.3254309892654419 21.48040771484375 200 200 200
4.036706924438477 1.9905376434326172 21.45989227294922 200 200 200
4.307556629180908 1.6168547868728638 21.35729217529297 200 200 200
4.291456699371338 1.6456403732299805 21.345603942871094 200 200 200
3.90558123588562 -0.11567836999893188 21.486663818359375 200 200 200
3.9293642044067383 0.193377286195755 21.46100425720215 200 200 200
3.9667766094207764 0.41813358664512634 21.481727600097656 200 200 200
2.4175660610198975 0.06171858310699463 21.018436431884766 200 200 200
4.18314790725708 2.5235238075256348 21.42812156677246 200 200 200
4.228458404541016 4.64511251449585 21.043977737426758 200 200 200
4.210154056549072 4.656460762023926 20.912967681884766 200 200 200
4.0343146324157715 -0.230001300573349 21.5115909576416 200 200 200
4.113404750823975 0.5206592082977295 21.4906063079834 200 200 200
4.118828773498535 0.5229234099388123 21.49957847595215 200 200 200
4.312022686004639 4.659218788146973 20.954790115356445 200 200 200
4.317012310028076 4.6610426902771 20.966808319091797 200 200 200
4.390470504760742 3.8393137454986572 21.239900588989258 200 200 200
4.38538932800293 2.9078338146209717 21.468109130859375 200 200 200
4.364470958709717 4.660641193389893 21.000333786010742 200 200 200
4.432830333709717 1.5417591333389282 21.47209358215332 200 200 200
3.9037094116210938 1.8141413927078247 20.98410415649414 200 200 200
4.299285411834717 -0.5332416296005249 21.501062393188477 200 200 200
4.604933738708496 2.8996376991271973 21.434436798095703 200 200 200
4.411433696746826 -0.6319335699081421 21.50533676147461 200 200 200
4.6226630210876465 0.9174051880836487 21.550024032592773 200 200 200
4.6226630210876465 0.9174051880836487 21.550024032592773 200 200 200
4.838718414306641 3.112102746963501 21.422849655151367 200 200 200
4.689685821533203 1.1686511039733887 21.509765625 200 200 200
4.562765598297119 -0.6221222281455994 21.575124740600586 200 200 200
4.557597637176514 -0.616340696811676 21.56513786315918 200 200 200
4.533293724060059 -0.7649657726287842 21.539121627807617 200 200 200
4.86512565612793 3.6664669513702393 21.259761810302734 200 200 200
4.706884384155273 0.987461268901825 21.471004486083984 200 200 200
4.6150312423706055 -0.9856027364730835 21.506818771362305 200 200 200
4.735373497009277 0.12371077388525009 21.497554779052734 200 200 200
4.816236972808838 0.889002799987793 21.51829719543457 200 200 200
4.804910659790039 1.085612177848816 21.430400848388672 200 200 200
4.705628871917725 -0.649472177028656 21.541963577270508 200 200 200
4.711485385894775 -0.651593804359436 21.55474090576172 200 200 200
4.709527969360352 -0.6500746011734009 21.551298141479492 200 200 200
4.716105937957764 -0.8943746089935303 21.555801391601562 200 200 200
5.0467023849487305 3.1443254947662354 21.335418701171875 200 200 200
5.0084991455078125 2.2005789279937744 21.42684555053711 200 200 200
5.077313423156738 3.5994198322296143 21.229963302612305 200 200 200
4.96959114074707 1.1736208200454712 21.52302360534668 200 200 200
4.976675510406494 1.1739307641983032 21.5310115814209 200 200 200
4.966659069061279 1.1707707643508911 21.50664710998535 200 200 200
4.806609153747559 -0.7665280103683472 21.534685134887695 200 200 200
4.985650539398193 1.3114337921142578 21.469758987426758 200 200 200
4.849501132965088 -0.6491676568984985 21.555524826049805 200 200 200
4.860107898712158 -0.6524595618247986 21.574813842773438 200 200 200
5.140453338623047 3.370466470718384 21.28607749938965 200 200 200
5.109460353851318 1.285206913948059 21.50876808166504 200 200 200
4.931069850921631 -0.7855877876281738 21.537172317504883 200 200 200
5.085312843322754 1.063791036605835 21.491683959960938 200 200 200
5.211154937744141 3.691056728363037 21.128942489624023 200 200 200
5.132519721984863 0.8544281125068665 21.5167179107666 200 200 200
5.275565147399902 3.2814409732818604 21.321392059326172 200 200 200
5.241515636444092 3.444805383682251 21.18914794921875 200 200 200
5.212186336517334 1.3517817258834839 21.457876205444336 200 200 200
5.115738868713379 -0.47492876648902893 21.49601936340332 200 200 200
5.366854190826416 3.4326422214508057 21.204082489013672 200 200 200
5.379798412322998 3.117126941680908 21.282602310180664 200 200 200
5.378358840942383 3.5722944736480713 21.120759963989258 200 200 200
5.3512067794799805 3.5638813972473145 21.05974578857422 200 200 200
5.3180437088012695 0.6814268231391907 21.535879135131836 200 200 200
5.30892276763916 0.6737659573554993 21.487655639648438 200 200 200
4.116276741027832 1.1406688690185547 18.828784942626953 200 200 200
3.0308074951171875 0.8258192539215088 18.417327880859375 200 200 200
5.500805377960205 3.6725947856903076 21.02364158630371 200 200 200
5.354963779449463 -0.2997395396232605 21.554418563842773 200 200 200
5.502306938171387 -0.2043042778968811 21.51499366760254 200 200 200
5.5736985206604 0.12844546139240265 21.511812210083008 200 200 200
5.586807727813721 0.3465372323989868 21.4742488861084 200 200 200
5.668984413146973 -0.05669310688972473 21.490402221679688 200 200 200
5.708606719970703 0.2393368035554886 21.489788055419922 200 200 200
5.708606719970703 0.2393368035554886 21.489788055419922 200 200 200
5.8768391609191895 2.2448835372924805 21.286157608032227 200 200 200
5.87713623046875 1.8822368383407593 21.33904266357422 200 200 200
0.8935136795043945 1.1194159984588623 16.109342575073242 200 200 200
5.9131550788879395 2.495830774307251 21.245677947998047 200 200 200
5.840616703033447 0.11207982152700424 21.497333526611328 200 200 200
5.840616703033447 0.11207982152700424 21.497333526611328 200 200 200
5.995975494384766 2.0854241847991943 21.2950382232666 200 200 200
6.036312580108643 2.3650262355804443 21.240402221679688 200 200 200
6.084600448608398 1.8919312953948975 21.37218475341797 200 200 200
5.982325553894043 0.19431152939796448 21.445941925048828 200 200 200
6.154118061065674 2.0476884841918945 21.263456344604492 200 200 200
6.1512651443481445 2.18219256401062 21.225942611694336 200 200 200
6.083300590515137 -0.028517622500658035 21.466371536254883 200 200 200
6.0945587158203125 -0.156814306974411 21.479951858520508 200 200 200
6.17594051361084 1.0428956747055054 21.369226455688477 200 200 200
6.263287544250488 1.9721503257751465 21.170372009277344 200 200 200
6.202818870544434 -0.2560438811779022 21.476398468017578 200 200 200
6.440712928771973 0.6469183564186096 21.307100296020508 200 200 200
6.620574951171875 1.4307881593704224 21.290966033935547 200 200 200
6.641041278839111 2.446091890335083 21.095829010009766 200 200 200
6.516624927520752 -2.00130295753479 21.152833938598633 200 200 200
-4.931095123291016 -2.806000232696533 14.271706581115723 200 200 200
-4.294421672821045 -0.5293062329292297 20.85540771484375 200 200 200
-2.0339813232421875 -2.1562018394470215 19.74272918701172 200 200 200
-1.8942592144012451 4.255957126617432 20.689170837402344 200 200 200
-1.9374839067459106 -2.157313585281372 19.795907974243164 200 200 200
-1.9208906888961792 -2.2427241802215576 20.411893844604492 200 200 200
-1.8138444423675537 -2.248959541320801 19.812232971191406 200 200 200
0.33691510558128357 -0.5479415655136108 13.522514343261719 200 200 200
-1.7348307371139526 4.253936290740967 20.681703567504883 200 200 200
-1.7694329023361206 4.370701313018799 20.93369483947754 200 200 200
-1.5852130651474 -2.4839468002319336 20.399003982543945 200 200 200
-1.0539017915725708 -2.4684715270996094 19.41432762145996 200 200 200
-1.0787595510482788 -2.447213888168335 20.025739669799805 200 200 200
-0.8077613115310669 2.1534953117370605 20.968563079833984 200 200 200
-0.5341958999633789 -2.5283420085906982 20.158035278320312 200 200 200
-0.14478211104869843 0.022048909217119217 20.993017196655273 200 200 200
-0.10536113381385803 0.7741080522537231 21.029348373413086 200 200 200
0.02093031443655491 1.5244581699371338 21.05657196044922 200 200 200
0.1712701916694641 1.0738075971603394 21.043561935424805 200 200 200
0.24971359968185425 0.9514458179473877 20.997230529785156 200 200 200
0.26049986481666565 0.9629433155059814 21.049381256103516 200 200 200
0.2689974308013916 3.2473104000091553 21.036230087280273 200 200 200
0.3619225323200226 -0.7251453399658203 21.04836082458496 200 200 200
0.40076589584350586 1.3052982091903687 21.103221893310547 200 200 200
0.4019924998283386 1.3063037395477295 21.11115837097168 200 200 200
0.21961534023284912 -2.944119930267334 19.855012893676758 200 200 200
0.36830875277519226 -2.526851177215576 20.108346939086914 200 200 200
0.7706189155578613 4.416223526000977 20.878257751464844 200 200 200
0.8479735255241394 1.5285228490829468 21.123544692993164 200 200 200
0.8706133365631104 0.7712847590446472 21.152755737304688 200 200 200
0.7166269421577454 -2.4964640140533447 20.459115982055664 200 200 200
0.9772574305534363 4.540488243103027 21.068445205688477 200 200 200
1.0387282371520996 -0.12344732135534286 21.251848220825195 200 200 200
1.189095377922058 2.403991937637329 21.179046630859375 200 200 200
1.1893513202667236 2.4087586402893066 21.194171905517578 200 200 200
1.0442144870758057 -2.782438278198242 20.24100685119629 200 200 200
1.2864595651626587 2.3252270221710205 21.21687126159668 200 200 200
1.3356921672821045 1.9690791368484497 21.19386863708496 200 200 200
0.9141459465026855 4.260303974151611 20.216493606567383 200 200 200
1.654475450515747 4.641645431518555 21.168067932128906 200 200 200
1.917932152748108 1.7379591464996338 21.286617279052734 200 200 200
1.8779934644699097 -0.3188321590423584 21.279254913330078 200 200 200
1.7325830459594727 -2.9233551025390625 20.710893630981445 200 200 200
1.8448065519332886 -3.030465841293335 21.72624397277832 200 200 200
1.1494044065475464 2.276365280151367 19.824552536010742 200 200 200
1.8388110399246216 -3.1220712661743164 20.373720169067383 200 200 200
1.6393941640853882 1.9594216346740723 18.71502685546875 200 200 200
1.6990060806274414 1.8493359088897705 18.604045867919922 200 200 200
2.039116859436035 -2.64481782913208 20.665164947509766 200 200 200
2.3524892330169678 0.9770711064338684 21.214693069458008 200 200 200
2.190803289413452 -2.8814995288848877 20.608844757080078 200 200 200
2.54333233833313 4.5631022453308105 21.0627384185791 200 200 200
2.56958270072937 4.592979431152344 21.146299362182617 200 200 200
2.530210018157959 -0.5236824750900269 21.37027359008789 200 200 200
2.769178628921509 3.5904786586761475 21.341604232788086 200 200 200
2.736769199371338 1.3075159788131714 21.365863800048828 200 200 200
2.8433797359466553 1.39094877243042 21.374937057495117 200 200 200
2.8350107669830322 1.3863493204116821 21.353174209594727 200 200 200
2.8419649600982666 1.3892881870269775 21.367097854614258 200 200 200
2.8611483573913574 1.0734686851501465 21.37839698791504 200 200 200
3.4312286376953125 4.657417297363281 21.097068786621094 200 200 200
3.461923360824585 1.9264615774154663 21.418859481811523 200 200 200
3.535717248916626 0.18423978984355927 21.43674659729004 200 200 200
3.6083266735076904 4.661768913269043 21.03713607788086 200 200 200
3.8586502075195312 4.657893180847168 21.1296329498291 200 200 200
4.131971836090088 0.7291203737258911 21.522789001464844 200 200 200
4.288153171539307 1.63980233669281 21.903345108032227 200 200 200
4.184886932373047 -0.425812304019928 21.504859924316406 200 200 200
4.377392292022705 2.9027676582336426 21.45643424987793 200 200 200
4.331727504730225 0.7132463455200195 21.510103225708008 200 200 200
4.4355878829956055 4.615705490112305 20.975330352783203 200 200 200
4.409858226776123 4.664394378662109 20.79608726501465 200 200 200
4.429582118988037 4.659276008605957 20.886247634887695 200 200 200
5.615365982055664 0.2126571238040924 21.425548553466797 200 200 200
5.877356052398682 1.8809031248092651 21.33488655090332 200 200 200
5.779635906219482 -0.9221341013908386 21.47920036315918 200 200 200
6.107761859893799 -0.13422898948192596 21.556312561035156 200 200 200
6.2236433029174805 0.18466342985630035 21.43877410888672 200 200 200
6.083093643188477 -0.5637801289558411 21.12374496459961 200 200 200
6.489656448364258 3.397348642349243 21.028972625732422 200 200 200
-2.6061325073242188 -2.3864524364471436 21.512977600097656 200 200 200
-2.5701208114624023 -1.929386854171753 21.46250343322754 200 200 200
-2.4775497913360596 -1.621824026107788 21.38437843322754 200 200 200
-2.224443197250366 -2.383234977722168 21.528953552246094 200 200 200
-2.224443197250366 -2.383234977722168 21.528953552246094 200 200 200
-2.212089776992798 -2.066579580307007 21.507034301757812 200 200 200
-2.1520867347717285 -2.121880531311035 21.48622703552246 200 200 200
-2.134260892868042 -2.382185697555542 21.55164337158203 200 200 200
-2.102071762084961 -2.0768191814422607 21.488786697387695 200 200 200
-2.0407087802886963 -2.328108072280884 21.519962310791016 200 200 200
-1.9756935834884644 -2.6500794887542725 21.603601455688477 200 200 200
-1.706607460975647 -2.4256465435028076 19.726337432861328 200 200 200
1.1130315065383911 4.320350170135498 20.358884811401367 200 200 200
0.829382061958313 4.141911029815674 19.98077964782715 200 200 200
0.05556342750787735 0.7696323394775391 21.02503204345703 200 200 200
0.12808462977409363 3.2524545192718506 21.028484344482422 200 200 200
0.13654538989067078 3.2557790279388428 21.038997650146484 200 200 200
0.36594995856285095 0.98550945520401 21.078359603881836 200 200 200
0.607514500617981 2.948211669921875 21.002565383911133 200 200 200
1.5021089315414429 0.26287344098091125 21.22832679748535 200 200 200
1.8055731058120728 4.613861560821533 21.2196102142334 200 200 200
1.896170735359192 3.765631914138794 21.35214614868164 200 200 200
2.221104145050049 1.4226963520050049 21.28609848022461 200 200 200
2.54091477394104 3.23768949508667 21.320594787597656 200 200 200
2.616352081298828 1.2002192735671997 21.363380432128906 200 200 200
2.6168148517608643 1.199965476989746 21.36560821533203 200 200 200
2.653559923171997 3.1997532844543457 21.285327911376953 200 200 200
2.7403154373168945 -0.48843303322792053 21.3726749420166 200 200 200
2.7272915840148926 4.661231994628906 21.191017150878906 200 200 200
2.938413381576538 3.1049787998199463 21.379255294799805 200 200 200
4.338496685028076 2.6544668674468994 21.397438049316406 200 200 200
4.324639797210693 0.5068029761314392 21.543977737426758 200 200 200
5.761540412902832 2.619889497756958 21.195568084716797 200 200 200
-5.161464691162109 -2.4703967571258545 14.186455726623535 200 200 200
-4.893163681030273 -2.0641798973083496 12.761423110961914 200 200 200
-5.9268693923950195 -2.9435925483703613 21.22958755493164 200 200 200
-3.8915040493011475 -2.9584732055664062 21.070255279541016 200 200 200
-3.252976179122925 -2.833669662475586 21.006994247436523 200 200 200
-3.188323497772217 -2.351468086242676 21.210250854492188 200 200 200
-3.0035111904144287 -2.4837255477905273 21.30572509765625 200 200 200
-2.9308910369873047 -2.47939133644104 21.26473617553711 200 200 200
-2.804327964782715 -2.492668390274048 21.313053131103516 200 200 200
-2.7848706245422363 -2.14668345451355 21.20833396911621 200 200 200
-2.7013113498687744 -2.4769208431243896 21.238544464111328 200 200 200
-2.7013113498687744 -2.4769208431243896 21.238544464111328 200 200 200
-2.4964895248413086 -1.7170031070709229 21.19578742980957 200 200 200
-2.231433153152466 -0.9242738485336304 20.960729598999023 200 200 200
-2.224034070968628 -1.156927466392517 21.189374923706055 200 200 200
-2.15191912651062 -1.5122374296188354 21.123254776000977 200 200 200
-2.1491706371307373 -1.5767344236373901 21.16893768310547 200 200 200
-2.1407837867736816 -2.4298923015594482 21.260875701904297 200 200 200
-2.1407837867736816 -2.4298923015594482 21.260875701904297 200 200 200
-2.003038167953491 -1.3637374639511108 19.78315544128418 200 200 200
-2.121126651763916 -1.7197617292404175 21.109176635742188 200 200 200
-2.1218206882476807 -2.206821918487549 21.21733856201172 200 200 200
-2.104898691177368 -1.6220064163208008 21.148338317871094 200 200 200
-2.101412773132324 -2.5773279666900635 21.139957427978516 200 200 200
-2.0499753952026367 -2.2589731216430664 21.199520111083984 200 200 200
-2.0306131839752197 -2.6242480278015137 21.306798934936523 200 200 200
-2.0306131839752197 -2.6242480278015137 21.306798934936523 200 200 200
-1.9166021347045898 -2.866279363632202 21.287023544311523 200 200 200
-1.6266169548034668 -2.468942165374756 17.991455078125 200 200 200
-1.8519285917282104 -2.9725353717803955 21.34287452697754 200 200 200
-1.8519285917282104 -2.9725353717803955 21.34287452697754 200 200 200
-1.5577150583267212 -2.490133762359619 21.2562313079834 200 200 200
-1.5449230670928955 -2.546992301940918 21.225257873535156 200 200 200
-1.5307124853134155 -2.657871723175049 23.82411003112793 200 200 200
-1.4110745191574097 -2.549124002456665 21.228351593017578 200 200 200
-1.3607665300369263 -2.4799628257751465 20.540372848510742 200 200 200
-1.0518286228179932 -2.7045977115631104 21.26892852783203 200 200 200
-0.8755361437797546 -2.542933940887451 18.51331901550293 200 200 200
0.49521133303642273 2.050710916519165 19.671939849853516 200 200 200
-0.2414642721414566 2.6931025981903076 20.92920684814453 200 200 200
-0.13643372058868408 -2.9985392093658447 21.438478469848633 200 200 200
-0.13643372058868408 -2.9985392093658447 21.438478469848633 200 200 200
0.12982888519763947 2.9556996822357178 21.097850799560547 200 200 200
0.1268756240606308 2.914289951324463 20.820056915283203 200 200 200
0.24288304150104523 -3.1879470348358154 21.40753936767578 200 200 200
0.480629026889801 -2.508328676223755 20.76284408569336 200 200 200
0.6319863200187683 2.9283382892608643 21.11253547668457 200 200 200
0.6353870034217834 -2.6641879081726074 20.090808868408203 200 200 200
0.678594172000885 -2.8471004962921143 20.113557815551758 200 200 200
1.0309956073760986 -0.2828238606452942 21.62285041809082 200 200 200
1.1519306898117065 -2.746607780456543 20.24633026123047 200 200 200
1.4724465608596802 0.2544337809085846 21.200210571289062 200 200 200
1.5796869993209839 -2.8423638343811035 20.429956436157227 200 200 200
1.8781272172927856 -3.0615310668945312 21.648990631103516 200 200 200
1.8218218088150024 -0.33651313185691833 20.774444580078125 200 200 200
1.8837430477142334 -0.14488579332828522 21.26428985595703 200 200 200
1.9043713808059692 -3.023935556411743 20.534088134765625 200 200 200
2.1168904304504395 -3.0141472816467285 21.553749084472656 200 200 200
2.1311147212982178 -2.721203088760376 21.535123825073242 200 200 200
2.0800600051879883 -2.7684919834136963 20.46077537536621 200 200 200
2.0800600051879883 -2.7684919834136963 20.46077537536621 200 200 200
2.3248531818389893 -2.718740940093994 21.584117889404297 200 200 200
2.348396062850952 3.3124773502349854 21.327360153198242 200 200 200
2.525592565536499 3.234534978866577 21.28352165222168 200 200 200
2.817171335220337 -2.770200490951538 21.567533493041992 200 200 200
3.0287275314331055 4.6851806640625 21.22004508972168 200 200 200
3.1182007789611816 2.6392662525177 21.39236068725586 200 200 200
4.354431629180908 -0.6407521963119507 19.113258361816406 200 200 200
5.113658428192139 2.2482032775878906 21.87847137451172 200 200 200
5.4836955070495605 0.6888547539710999 21.45026206970215 200 200 200
-1.6089304685592651 1.904807686805725 17.747180938720703 200 200 200
-1.9493941068649292 3.377500534057617 19.453693389892578 200 200 200
-1.0931440591812134 4.26391077041626 20.736398696899414 200 200 200
-0.8465446829795837 0.8209717869758606 20.8846378326416 200 200 200
-0.501657247543335 0.22688564658164978 20.943973541259766 200 200 200
-0.4843125641345978 0.0436803475022316 20.65792465209961 200 200 200
-0.40322229266166687 -0.5452139973640442 20.967206954956055 200 200 200
-0.6105270981788635 -2.479893684387207 19.704790115356445 200 200 200
-0.23591992259025574 2.5238826274871826 21.008108139038086 200 200 200
-0.5961337685585022 -2.4568235874176025 19.659353256225586 200 200 200
-0.4977116286754608 -2.6686060428619385 20.095962524414062 200 200 200
-0.5113610625267029 -2.722442626953125 19.6846866607666 200 200 200
-0.43141448497772217 -2.4115965366363525 19.729644775390625 200 200 200
-0.02988302707672119 -0.07577866315841675 21.036542892456055 200 200 200
0.00690056337043643 -0.8653011322021484 20.9099178314209 200 200 200
0.13820691406726837 -0.24907760322093964 21.015771865844727 200 200 200
0.12981796264648438 -0.248049795627594 21.00861930847168 200 200 200
-0.04130628705024719 -2.814110517501831 20.107389450073242 200 200 200
0.4643176794052124 0.19415172934532166 19.259592056274414 200 200 200
0.3852309286594391 -0.6487051844596863 21.02424430847168 200 200 200
0.4912619888782501 -0.6113970875740051 21.16441535949707 200 200 200
0.489807665348053 -0.622639536857605 21.07201385498047 200 200 200
0.47280192375183105 -0.7384624481201172 20.87882423400879 200 200 200
0.608849823474884 1.3056533336639404 21.127132415771484 200 200 200
0.45871952176094055 -2.6663451194763184 21.261173248291016 200 200 200
0.8870521187782288 4.597174644470215 21.23942756652832 200 200 200
0.7059382796287537 -0.5593185424804688 21.0953426361084 200 200 200
1.1078556776046753 3.669281244277954 21.241947174072266 200 200 200
2.0832972526550293 1.429435133934021 18.930641174316406 200 200 200
1.0288788080215454 1.72048020362854 21.155664443969727 200 200 200
0.7858879566192627 4.544108867645264 21.096555709838867 200 200 200
1.2558555603027344 2.2054848670959473 21.199684143066406 200 200 200
0.3363463282585144 3.9772279262542725 19.855270385742188 200 200 200
0.9907330274581909 -2.779290199279785 20.35190773010254 200 200 200
0.9755325317382812 -2.7938008308410645 20.54286766052246 200 200 200
1.0490031242370605 -2.645662784576416 20.38316535949707 200 200 200
1.5580061674118042 2.1029105186462402 21.25937843322754 200 200 200
1.1941837072372437 -2.775848150253296 20.399791717529297 200 200 200
2.014479875564575 1.9399751424789429 21.45232582092285 200 200 200
1.686592698097229 2.35764741897583 21.243942260742188 200 200 200
1.8381260633468628 4.572850227355957 21.14366912841797 200 200 200
1.645054817199707 0.3678625226020813 21.25242805480957 200 200 200
1.3292036056518555 -2.7198541164398193 20.41536521911621 200 200 200
1.2927066087722778 -2.753070116043091 20.42287254333496 200 200 200
1.3668358325958252 -2.8320963382720947 20.856752395629883 200 200 200
1.3128842115402222 -2.7843148708343506 20.383743286132812 200 200 200
1.7884020805358887 1.8529506921768188 21.259708404541016 200 200 200
1.5046964883804321 -2.9036388397216797 21.225101470947266 200 200 200
1.5390995740890503 -2.753575086593628 20.65460968017578 200 200 200
1.587042212486267 -2.625936269760132 20.593833923339844 200 200 200
1.7473968267440796 -2.571280002593994 20.828046798706055 200 200 200
1.6658905744552612 -2.5467166900634766 20.525711059570312 200 200 200
2.07546067237854 0.7535250186920166 21.299917221069336 200 200 200
1.8366057872772217 -2.545142650604248 20.788814544677734 200 200 200
2.376661777496338 3.048466682434082 21.294607162475586 200 200 200
2.0203263759613037 -2.5655527114868164 21.18857192993164 200 200 200
1.9189882278442383 -2.663830041885376 20.79778289794922 200 200 200
2.4162726402282715 1.0450266599655151 21.28079605102539 200 200 200
2.4123005867004395 1.0450961589813232 21.264097213745117 200 200 200
2.4445700645446777 1.0746880769729614 21.318538665771484 200 200 200
2.587995767593384 3.124946355819702 21.342449188232422 200 200 200
2.5684354305267334 1.1709378957748413 21.35907554626465 200 200 200
2.5818779468536377 1.1734784841537476 21.39238739013672 200 200 200
2.4138028621673584 -0.6047748923301697 21.334545135498047 200 200 200
2.3159985542297363 -2.942166805267334 20.754867553710938 200 200 200
2.9030377864837646 -0.2887342870235443 20.545766830444336 200 200 200
2.7015790939331055 -0.8924455642700195 21.38627052307129 200 200 200
3.2122726440429688 4.606891632080078 21.112443923950195 200 200 200
3.389828681945801 0.35382717847824097 21.458454132080078 200 200 200
2.9785468578338623 -0.2909468710422516 21.246601104736328 200 200 200
3.897223472595215 2.0989630222320557 21.458091735839844 200 200 200
3.897122621536255 2.0992517471313477 21.45800018310547 200 200 200
3.9527437686920166 2.32478928565979 21.444337844848633 200 200 200
4.069005966186523 4.643867015838623 21.172975540161133 200 200 200
3.8208327293395996 0.20800387859344482 21.48668098449707 200 200 200
4.210695266723633 4.600958824157715 20.99934959411621 200 200 200
4.223844528198242 4.611766338348389 20.831912994384766 200 200 200
4.27853536605835 4.666149139404297 21.02391242980957 200 200 200
4.4890594482421875 0.8295035362243652 21.511798858642578 200 200 200
4.4734015464782715 0.8248358368873596 21.471586227416992 200 200 200
4.840480804443359 1.2881947755813599 21.48851203918457 200 200 200
4.68411111831665 -0.772834837436676 21.55652618408203 200 200 200
5.080250263214111 3.161139965057373 21.410810470581055 200 200 200
1.811858057975769 2.0032436847686768 22.00347900390625 200 200 200
4.975560665130615 1.1772137880325317 21.531213760375977 200 200 200
4.961617469787598 0.843497633934021 21.47540855407715 200 200 200
5.140353202819824 3.3754775524139404 21.291458129882812 200 200 200
5.196197986602783 3.1741411685943604 21.331735610961914 200 200 200
5.088222980499268 1.1458353996276855 21.401880264282227 200 200 200
5.459524154663086 -0.20214366912841797 21.378969192504883 200 200 200
6.053085803985596 2.370206356048584 21.249725341796875 200 200 200
-1.4718784093856812 4.2229156494140625 20.6307430267334 200 200 200
-0.7563868761062622 1.9073550701141357 20.894180297851562 200 200 200
-0.7468491196632385 1.913719654083252 20.913516998291016 200 200 200
-0.5631967186927795 4.42239236831665 20.921802520751953 200 200 200
-0.690589189529419 0.03656736761331558 20.94815444946289 200 200 200
0.35527876019477844 4.088723182678223 19.96977996826172 200 200 200
-0.5776779651641846 1.1608054637908936 21.008468627929688 200 200 200
-0.41936954855918884 1.9380995035171509 21.005006790161133 200 200 200
-0.7504605054855347 -2.4202234745025635 19.56793785095215 200 200 200
-0.7504605054855347 -2.4202234745025635 19.56793785095215 200 200 200
-0.3785921633243561 0.4229722321033478 20.95945930480957 200 200 200
1.0342118740081787 0.015190407633781433 17.094013214111328 200 200 200
-0.6412109136581421 -2.6415908336639404 19.7499942779541 200 200 200
-0.29690906405448914 -2.732051372528076 20.068368911743164 200 200 200
0.4815692901611328 0.24138900637626648 21.0720272064209 200 200 200
0.4238087832927704 3.3905603885650635 21.089662551879883 200 200 200
0.289153128862381 -0.791817843914032 21.05377769470215 200 200 200
0.29224562644958496 -0.7898799180984497 21.082609176635742 200 200 200
0.5316797494888306 3.425689935684204 21.073610305786133 200 200 200
0.5066942572593689 1.243796467781067 21.129619598388672 200 200 200
0.12288699299097061 -2.611593008041382 20.172327041625977 200 200 200
0.16483619809150696 -2.88340425491333 19.883729934692383 200 200 200
0.23460450768470764 -2.5508339405059814 20.116069793701172 200 200 200
0.6464784741401672 1.1935303211212158 21.087509155273438 200 200 200
0.2890643775463104 -2.5719311237335205 20.029617309570312 200 200 200
0.8846558928489685 4.545723915100098 21.1223201751709 200 200 200
0.43125462532043457 -2.4046249389648438 20.132221221923828 200 200 200
0.408555269241333 -2.4232242107391357 20.036306381225586 200 200 200
0.7174574732780457 -2.4416043758392334 20.915159225463867 200 200 200
0.5618216395378113 -2.5761706829071045 20.139732360839844 200 200 200
1.0478729009628296 0.5828684568405151 21.135223388671875 200 200 200
0.7014613747596741 -2.7195537090301514 20.075374603271484 200 200 200
1.5660110712051392 0.1685010939836502 21.25578498840332 200 200 200
1.367730736732483 -2.809128999710083 21.164777755737305 200 200 200
1.6669139862060547 0.16400404274463654 21.28604507446289 200 200 200
1.736405372619629 0.4398331940174103 21.25560188293457 200 200 200
1.422349214553833 -2.8360302448272705 20.391904830932617 200 200 200
1.4432718753814697 -3.005485773086548 20.4009952545166 200 200 200
2.071566104888916 4.526345729827881 21.013065338134766 200 200 200
2.068598747253418 4.509884834289551 20.974119186401367 200 200 200
1.531617283821106 -2.7036752700805664 20.546218872070312 200 200 200
1.531617283821106 -2.7036752700805664 20.546218872070312 200 200 200
1.576307773590088 -2.884348154067993 21.104246139526367 200 200 200
1.900940179824829 0.5769019722938538 21.294483184814453 200 200 200
1.5169376134872437 -2.8449277877807617 20.3642578125 200 200 200
1.6600863933563232 -2.6923604011535645 20.47776985168457 200 200 200
1.0461902618408203 2.588376760482788 16.17003059387207 200 200 200
2.34256649017334 1.3336056470870972 21.339435577392578 200 200 200
1.9516738653182983 -2.9955966472625732 20.618988037109375 200 200 200
2.276885509490967 -0.5241237282752991 21.32574462890625 200 200 200
2.2815589904785156 -0.5193299055099487 21.33147430419922 200 200 200
1.993051528930664 -2.88824725151062 20.670305252075195 200 200 200
2.058946371078491 -2.8608100414276123 20.68807601928711 200 200 200
2.599637269973755 4.077695369720459 21.032026290893555 200 200 200
2.07588267326355 -3.2047767639160156 20.617712020874023 200 200 200
2.715038299560547 3.1052489280700684 21.37183380126953 200 200 200
2.2393300533294678 -2.6186652183532715 20.775827407836914 200 200 200
2.9671268463134766 4.609409809112549 20.998178482055664 200 200 200
3.288335084915161 -0.05397573485970497 21.424055099487305 200 200 200
3.608278274536133 4.66550874710083 21.145111083984375 200 200 200
3.5097994804382324 0.09893321990966797 21.437782287597656 200 200 200
3.5103750228881836 0.09874062985181808 21.44028663635254 200 200 200
3.850036144256592 3.4363718032836914 21.265108108520508 200 200 200
3.998603343963623 2.1565160751342773 21.470863342285156 200 200 200
3.986769437789917 2.1503171920776367 21.443479537963867 200 200 200
3.8712704181671143 -1.0612679719924927 21.4797420501709 200 200 200
4.018543720245361 -0.23484718799591064 21.441822052001953 200 200 200
2.40047025680542 0.14713437855243683 17.604494094848633 200 200 200
4.2506327629089355 1.7651911973953247 21.476070404052734 200 200 200
0.9234067797660828 0.171354740858078 18.739389419555664 200 200 200
1.1539281606674194 0.11256220191717148 18.63199234008789 200 200 200
4.309386730194092 -0.5398715138435364 21.515607833862305 200 200 200
4.602431297302246 2.889082431793213 21.42677879333496 200 200 200
4.840810775756836 3.11364483833313 21.427539825439453 200 200 200
4.688364505767822 1.1671332120895386 21.505115509033203 200 200 200
4.706476211547852 -0.5719828009605408 21.52208709716797 200 200 200
4.894521713256836 -1.0714770555496216 21.534500122070312 200 200 200
4.9667792320251465 -0.5860998630523682 21.472888946533203 200 200 200
5.449439525604248 3.341615915298462 21.189260482788086 200 200 200
3.6714251041412354 1.029590368270874 18.25957489013672 200 200 200
4.33482027053833 1.1119697093963623 19.085494995117188 200 200 200
2.7640137672424316 1.577964425086975 18.734880447387695 200 200 200
5.751701354980469 2.6142077445983887 21.167638778686523 200 200 200
5.859306812286377 -0.19390656054019928 21.506845474243164 200 200 200
5.859381198883057 -0.1939406543970108 21.50511932373047 200 200 200
6.4828782081604 2.3361010551452637 21.137182235717773 200 200 200
6.613663673400879 2.8142213821411133 20.6475887298584 200 200 200
4.669325351715088 -3.3269715309143066 16.53133773803711 200 200 200
-4.406672477722168 -2.372525453567505 20.0645751953125 200 200 200
-4.077971935272217 -2.1924068927764893 19.889663696289062 200 200 200
-1.503693699836731 -2.358114004135132 20.701772689819336 200 200 200
-1.435558795928955 -2.3954427242279053 19.970375061035156 200 200 200
-0.9938310980796814 -2.3468997478485107 21.01966094970703 200 200 200
-0.9194733500480652 1.473148226737976 20.8931941986084 200 200 200
-0.3297479748725891 2.7982332706451416 21.002260208129883 200 200 200
-0.8470820784568787 -0.917121946811676 20.440343856811523 200 200 200
-0.8470820784568787 -0.917121946811676 20.440343856811523 200 200 200
-0.5952739715576172 -2.4098381996154785 19.57071876525879 200 200 200
-0.5156291723251343 -2.691620349884033 20.028514862060547 200 200 200
0.024413414299488068 1.7198536396026611 21.028133392333984 200 200 200
-0.08663427829742432 -0.9152113199234009 20.620792388916016 200 200 200
0.06344146281480789 4.526193141937256 21.126733779907227 200 200 200
0.1834859848022461 1.346884846687317 20.962156295776367 200 200 200
0.2622825801372528 3.1171329021453857 21.076610565185547 200 200 200
0.26648327708244324 3.116123914718628 21.07965087890625 200 200 200
0.3052332401275635 3.0180954933166504 21.126487731933594 200 200 200
0.6007543802261353 -0.6369789838790894 21.12360954284668 200 200 200
0.6032741665840149 -0.6305606961250305 21.138071060180664 200 200 200
0.6624546647071838 -0.5727465748786926 21.00359344482422 200 200 200
0.6624546647071838 -0.5727465748786926 21.00359344482422 200 200 200
0.6541159152984619 -2.617954730987549 20.515010833740234 200 200 200
0.8968213796615601 -0.2897240221500397 21.031251907348633 200 200 200
1.0567854642868042 -0.49780845642089844 19.712406158447266 200 200 200
2.862372636795044 0.3015531301498413 20.092653274536133 200 200 200
1.0505002737045288 -0.28976139426231384 21.04172706604004 200 200 200
3.28889536857605 1.0113469362258911 26.305280685424805 200 200 200
1.2917333841323853 1.0810045003890991 20.32206153869629 200 200 200
1.6678764820098877 0.2667824625968933 21.23770523071289 200 200 200
1.7767690420150757 4.54121208190918 21.132123947143555 200 200 200
1.7517139911651611 0.6927569508552551 20.257871627807617 200 200 200
1.6450414657592773 -2.8362526893615723 20.501585006713867 200 200 200
2.1948821544647217 2.2880032062530518 19.501163482666016 200 200 200
1.7164323329925537 -1.0544381141662598 20.819799423217773 200 200 200
1.729131817817688 -1.057387113571167 20.814971923828125 200 200 200
1.802437663078308 -3.0044291019439697 20.533445358276367 200 200 200
2.10334849357605 1.5461703538894653 21.301786422729492 200 200 200
1.9116392135620117 -2.626038074493408 20.907089233398438 200 200 200
1.9772119522094727 -2.9221277236938477 20.867639541625977 200 200 200
2.2764053344726562 3.5999646186828613 21.114866256713867 200 200 200
2.411600112915039 4.620689392089844 21.130128860473633 200 200 200
2.4835798740386963 4.671590328216553 21.398229598999023 200 200 200
2.589477062225342 3.3994758129119873 21.357666015625 200 200 200
2.587942123413086 3.1250908374786377 21.342710494995117 200 200 200
2.646029472351074 -0.7059981822967529 21.403993606567383 200 200 200
2.735030174255371 1.3064332008361816 21.36318588256836 200 200 200
2.8589556217193604 0.8525349497795105 21.376651763916016 200 200 200
3.0142955780029297 -0.317854106426239 21.302602767944336 200 200 200
3.1156370639801025 -0.1910635530948639 21.486225128173828 200 200 200
3.4025871753692627 3.803968906402588 21.27220344543457 200 200 200
3.3257291316986084 2.197171211242676 20.739501953125 200 200 200
4.074291706085205 1.671329379081726 20.748064041137695 200 200 200
4.077062606811523 1.4742183685302734 20.73851203918457 200 200 200
3.869553804397583 4.658563613891602 21.14969825744629 200 200 200
3.5272417068481445 4.812802791595459 23.0084171295166 200 200 200
4.232993125915527 4.6797027587890625 20.920307159423828 200 200 200
4.582669258117676 2.663041830062866 21.46443748474121 200 200 200
4.743945121765137 -1.9274555444717407 21.797569274902344 200 200 200
4.7761311531066895 -1.0001317262649536 21.434249877929688 200 200 200
4.7762908935546875 -1.000128984451294 21.433677673339844 200 200 200
1.5555235147476196 -0.6032300591468811 19.330028533935547 200 200 200
6.304965019226074 1.5001802444458008 26.412546157836914 200 200 200
5.1234283447265625 0.8587395548820496 21.502161026000977 200 200 200
5.20408296585083 3.180316925048828 21.349750518798828 200 200 200
5.229928970336914 -1.165029764175415 21.53848648071289 200 200 200
4.312668800354004 -1.2588577270507812 19.441179275512695 200 200 200
5.589295864105225 2.6477391719818115 21.321256637573242 200 200 200
5.581521034240723 2.6375420093536377 21.31918716430664 200 200 200
5.587113380432129 2.85017728805542 21.207073211669922 200 200 200
5.624885559082031 2.874695062637329 21.2966365814209 200 200 200
4.109976768493652 1.2582131624221802 19.362720489501953 200 200 200
3.79486346244812 3.691138744354248 24.734024047851562 200 200 200
-2.080378532409668 4.18651819229126 20.533525466918945 200 200 200
-2.054922103881836 -2.2846031188964844 19.388202667236328 200 200 200
-1.6642817258834839 -2.4940683841705322 20.239986419677734 200 200 200
-1.647600769996643 -2.4875571727752686 20.055051803588867 200 200 200
-1.379233717918396 -2.65036940574646 19.574508666992188 200 200 200
-1.1253643035888672 4.343432903289795 20.831787109375 200 200 200
0.06951822340488434 3.2760977745056152 17.93952178955078 200 200 200
-0.12027282267808914 0.03105829283595085 21.043663024902344 200 200 200
0.1664525270462036 3.154632329940796 21.119237899780273 200 200 200
0.10641142725944519 -2.82538104057312 20.088775634765625 200 200 200
0.42138147354125977 2.987699031829834 21.10548210144043 200 200 200
0.3691151440143585 -2.6932055950164795 20.731731414794922 200 200 200
0.6378570199012756 3.916069984436035 20.97100257873535 200 200 200
0.8534807562828064 1.527847409248352 21.126985549926758 200 200 200
0.9949093461036682 0.21116478741168976 17.728609085083008 200 200 200
1.136423110961914 1.8233948945999146 21.139053344726562 200 200 200
1.0781433582305908 -2.4920287132263184 21.052431106567383 200 200 200
1.0375944375991821 -2.5251686573028564 20.477230072021484 200 200 200
1.0295066833496094 -2.784200668334961 20.1637020111084 200 200 200
1.2060518264770508 -2.775174379348755 20.519275665283203 200 200 200
1.291420578956604 -2.722569465637207 20.62857437133789 200 200 200
1.4120543003082275 -2.8370773792266846 20.585533142089844 200 200 200
1.4120543003082275 -2.8370773792266846 20.585533142089844 200 200 200
1.591672658920288 -2.6405742168426514 21.218978881835938 200 200 200
1.5476007461547852 -2.653472423553467 21.02560806274414 200 200 200
1.4875487089157104 -2.728611707687378 20.698713302612305 200 200 200
1.6659566164016724 0.162491112947464 21.26963996887207 200 200 200
1.7340888977050781 4.530444622039795 21.12606430053711 200 200 200
1.7313629388809204 0.44095444679260254 21.270254135131836 200 200 200
1.607323408126831 -2.832563638687134 20.507081985473633 200 200 200
1.7542226314544678 -2.6665403842926025 20.712499618530273 200 200 200
2.0232620239257812 -2.860139846801758 20.58856201171875 200 200 200
2.002599000930786 -2.98040509223938 20.487741470336914 200 200 200
2.6260874271392822 4.625266075134277 21.295259475708008 200 200 200
2.4395833015441895 -2.9218225479125977 21.33135986328125 200 200 200
2.647000312805176 4.599432945251465 20.962385177612305 200 200 200
2.9063212871551514 3.4172143936157227 21.385412216186523 200 200 200
2.899736166000366 3.4156346321105957 21.371103286743164 200 200 200
2.8307549953460693 -0.4152951240539551 21.384811401367188 200 200 200
3.113002300262451 2.8526551723480225 21.352449417114258 200 200 200
3.2838597297668457 -0.05632397532463074 21.409679412841797 200 200 200
3.5727431774139404 0.347282350063324 21.478233337402344 200 200 200
3.144324779510498 4.467258930206299 20.734527587890625 200 200 200
3.968365430831909 -0.43097788095474243 21.397327423095703 200 200 200
3.942671298980713 0.4780973792076111 20.236543655395508 200 200 200
4.190890789031982 2.5295023918151855 21.450658798217773 200 200 200
4.181344032287598 -0.43174558877944946 21.482271194458008 200 200 200
