ply
format ascii 1.0
element vertex 488
property float x
property float y
property float z
property uchar red
property uchar green
property uchar blue
end_header
1.791816093616446 -0.5573501260368221 -0.4277926844178061 200 200 200
1.6590470154106332 -0.6857206271235472 -0.31200584462829284 200 200 200
1.6590470154106332 -0.6857206271235472 -0.31200584462829284 200 200 200
1.6801642296135157 -0.6772255597627836 -0.251934759104339 200 200 200
1.7969058059928673 -0.5512102678472781 -0.3412201220836097 200 200 200
1.6497325414332402 -0.6792544472057265 -0.3185658035802619 200 200 200
1.7911381420296708 -0.5477205086113335 -0.35579057649620066 200 200 200
1.6418400737713057 -0.6807478542632879 -0.3326607014903866 200 200 200
1.6689663650451088 -0.6734025578882716 -0.2778343837690291 200 200 200
1.674015487531972 -0.6723199227774636 -0.26603241819828843 200 200 200
1.6414757522251087 -0.6782615529616406 -0.330356741916219 200 200 200
1.646741274106032 -0.6766882461377619 -0.3205573055793288 200 200 200
1.6693255851689077 -0.6694798709316554 -0.27298547119045247 200 200 200
1.6693255851689077 -0.6694798709316554 -0.27298547119045247 200 200 200
1.6705011993651335 -0.6687948221896794 -0.2690268527713567 200 200 200
1.6417271127021988 -0.6743807240645725 -0.32669014266653207 200 200 200
1.6671504196790938 -0.6685823852687169 -0.2757767091491183 200 200 200
1.6462754987367196 -0.672477326251957 -0.31838361822337446 200 200 200
1.642984334900053 -0.6727218455859563 -0.32288613842624475 200 200 200
1.642984334900053 -0.6727218455859563 -0.32288613842624475 200 200 200
1.655912842894871 -0.6682296274153242 -0.299542817441788 200 200 200
1.7094786522017462 -0.6341788943845148 -0.2900778215778719 200 200 200
1.7097996001505873 -0.6276056761596196 -0.3072250064889808 200 200 200
3.280747806176369 0.9434904788047048 -0.7249068055988032 200 200 200
1.6394014178736998 -0.6694138017079637 -0.3257806073009717 200 200 200
1.705798591632671 -0.6304735963100787 -0.289195059510289 200 200 200
1.705798591632671 -0.6304735963100787 -0.289195059510289 200 200 200
1.6652004801352562 -0.6624180621201623 -0.27135536279942846 200 200 200
1.7064011825716199 -0.626740550613961 -0.29962368564097797 200 200 200
2.6527463646004117 0.29963740960342494 -0.40144661909332163 200 200 200
1.7196226436007256 -0.6395249824138591 -0.25731534179773596 200 200 200
1.6659487294000976 -0.6615710479796618 -0.2676288609242682 200 200 200
1.6659487294000976 -0.6615710479796618 -0.2676288609242682 200 200 200
1.6376283389984674 -0.6671257984892871 -0.3260923685162188 200 200 200
1.63918619448574 -0.6660356978459708 -0.32286114665189614 200 200 200
1.6354861550962179 -0.6668434920544362 -0.3291120668321055 200 200 200
1.6354861550962179 -0.6668434920544362 -0.3291120668321055 200 200 200
1.7036278249549042 -0.6295253208922886 -0.28457416124678186 200 200 200
1.7176297911422846 -0.6375056277129676 -0.25646068952685436 200 200 200
1.6410459716669448 -0.6635502675398092 -0.3180639237922793 200 200 200
1.7160210271913958 -0.6369039485441629 -0.2551685761372444 200 200 200
1.7160210271913958 -0.6369039485441629 -0.2551685761372444 200 200 200
1.6363264957793215 -0.6635751836693919 -0.32595691893452294 200 200 200
1.6327636695978165 -0.664212015909727 -0.33135738484545507 200 200 200
1.6742002901816284 -0.6592867298772819 -0.23537711303771222 200 200 200
1.6742002901816284 -0.6592867298772819 -0.23537711303771222 200 200 200
2.1030110775238566 -0.18982504419454763 -0.3580651796173183 200 200 200
1.6428827106126507 -0.658112020437706 -0.30854384204639 200 200 200
1.6728978355902375 -0.6566859525101203 -0.2338535578165606 200 200 200
1.629372794809517 -0.6613851516929914 -0.3339206924191121 200 200 200
1.6114711363647733 -0.6678404984590571 -0.3600492053159623 200 200 200
1.67183094033696 -0.6561673067663124 -0.2351602789463297 200 200 200
1.6198252200627203 -0.6553745240817538 -0.3402296377839456 200 200 200
1.6186185118355372 -0.6542649269218871 -0.34156860690295604 200 200 200
6.92139268485677 5.645577842594721 -2.918737516039864 200 200 200
4.524923055818373 2.720602104072246 -1.5118542716653567 200 200 200
4.524923055818373 2.720602104072246 -1.5118542716653567 200 200 200
1.61713625548643 -0.6532754917167584 -0.34173393949257647 200 200 200
1.61713625548643 -0.6532754917167584 -0.34173393949257647 200 200 200
5.342169723242755 3.7570614964885576 -1.9636918530656937 200 200 200
1.611384377406583 -0.6537570376061665 -0.3504428722312832 200 200 200
5.578753686171079 4.08034255428489 -2.137883083711671 200 200 200
4.847423825588754 3.1764603052805396 -1.6906872519641902 200 200 200
4.847423825588754 3.1764603052805396 -1.6906872519641902 200 200 200
1.614884832596215 -0.6510631617065852 -0.3438678509575341 200 200 200
1.61148668473782 -0.6504204156945245 -0.347789120431914 200 200 200
1.61148668473782 -0.6504204156945245 -0.347789120431914 200 200 200
1.609448639994743 -0.6509695454689403 -0.35060867731761597 200 200 200
1.609448639994743 -0.6509695454689403 -0.35060867731761597 200 200 200
1.612576192308995 -0.6497534008152881 -0.3452849555020918 200 200 200
1.612372116217758 -0.6489356764970423 -0.34528117563177324 200 200 200
1.612372116217758 -0.6489356764970423 -0.34528117563177324 200 200 200
5.156332962307276 3.649549053502018 -1.8910297495831045 200 200 200
5.156332962307276 3.649549053502018 -1.8910297495831045 200 200 200
5.156332962307276 3.649549053502018 -1.8910297495831045 200 200 200
5.156332962307276 3.649549053502018 -1.8910297495831045 200 200 200
1.6108280704569446 -0.6466520265191955 -0.3478580273059166 200 200 200
1.6108280704569446 -0.6466520265191955 -0.3478580273059166 200 200 200
5.684861282227648 4.41540367553437 -2.2156398719656236 200 200 200
5.684861282227648 4.41540367553437 -2.2156398719656236 200 200 200
5.695053993883777 4.488148775215429 -2.2458190851468007 200 200 200
5.695053993883777 4.488148775215429 -2.2458190851468007 200 200 200
1.6069766820904774 -0.6434075010872169 -0.3492905868222028 200 200 200
1.6064417431313047 -0.6442256551699539 -0.34661792809922415 200 200 200
1.6064417431313047 -0.6442256551699539 -0.34661792809922415 200 200 200
5.504516156613937 4.312073296810703 -2.131379205207671 200 200 200
5.504516156613937 4.312073296810703 -2.131379205207671 200 200 200
6.307448526226976 5.426592892258746 -2.6273197629228293 200 200 200
5.077682355794776 3.792576446342461 -1.8856822663419135 200 200 200
1.5899866450533833 -0.6329156111116845 -0.3605064575961581 200 200 200
1.5819627210537344 -0.6323899706224401 -0.36950360141078636 200 200 200
1.5869334044823067 -0.6301108031277772 -0.3627460322066543 200 200 200
37.57737326533743 52.150967817768226 -22.276908043972824 200 200 200
1.5851332044208264 -0.6264777554999025 -0.3626118238974031 200 200 200
1.5851332044208264 -0.6264777554999025 -0.3626118238974031 200 200 200
1.583054906183391 -0.6274377460347288 -0.36545217721727813 200 200 200
1.5782579842824596 -0.6258681107799907 -0.3709698349371832 200 200 200
1.5810719324004847 -0.6238774232271755 -0.36535512617002636 200 200 200
1.5828294689331865 -0.6228116625296125 -0.3624249727766557 200 200 200
1.5828294689331865 -0.6228116625296125 -0.3624249727766557 200 200 200
1.57817132599023 -0.6234246699809929 -0.3684204364716954 200 200 200
1.579294790896917 -0.620396178027968 -0.36492187154390626 200 200 200
1.5769297260305264 -0.6204259120354124 -0.3666575644937278 200 200 200
1.573007365567034 -0.6188117713534761 -0.37226946391175725 200 200 200
1.5774873930655855 -0.6168209961874733 -0.36531521832324415 200 200 200
1.8144350134209395 -0.20103799768722308 -0.5248014756371482 200 200 200
43.45812719883544 66.76370666159697 -26.248307718135408 200 200 200
1.7199825267471152 -0.33286593848132223 -0.43465523460762284 200 200 200
1.823402413729664 -0.5599935686825404 -0.4865480591978206 200 200 200
1.823402413729664 -0.5599935686825404 -0.4865480591978206 200 200 200
1.8159123363089336 -0.5552877957390682 -0.4907022689117314 200 200 200
1.813401226088427 -0.508738676239244 -0.5487482036016299 200 200 200
1.8139369827411491 -0.4994804604096489 -0.5433219950966122 200 200 200
1.8139369827411491 -0.4994804604096489 -0.5433219950966122 200 200 200
1.8046729898818132 -0.4939205545168416 -0.5483588479018846 200 200 200
1.8095382874645451 -0.5114289049007164 -0.4802599189816149 200 200 200
1.8050260902477862 -0.5021954231087198 -0.48019541616315536 200 200 200
1.8050260902477862 -0.5021954231087198 -0.48019541616315536 200 200 200
1.8064871071144504 -0.49301967937873437 -0.4759558466834455 200 200 200
2.359383022133008 0.3596096880517661 -1.4710997841804827 200 200 200
2.325481972138116 0.32701790698025307 -1.330647357868281 200 200 200
2.3264538920629634 0.3454631414820154 -1.3760303765585307 200 200 200
1.8099108871222056 -0.35115537589889256 -0.6104972837876995 200 200 200
1.805065023360215 -0.3526344251694864 -0.6159275241724457 200 200 200
1.7882659100588718 -0.3488950290750388 -0.6271849527571992 200 200 200
1.8034491505817196 -0.33902306074029986 -0.6067213579060902 200 200 200
1.8034491505817196 -0.33902306074029986 -0.6067213579060902 200 200 200
1.7896548894456559 -0.4573332969890426 -0.4762661671793096 200 200 200
1.8019968064671894 -0.32694964303856805 -0.5995507117201944 200 200 200
1.78161137672172 -0.45277161157615764 -0.4801941292810993 200 200 200
1.7683144304337064 -0.4483581172208407 -0.4864968229820111 200 200 200
1.7603021666575474 -0.4437569538285473 -0.49051161102432356 200 200 200
1.7581931667743618 -0.44027977477417646 -0.49424629860088803 200 200 200
2.149513229372296 0.30675468754657204 -0.8760728955980668 200 200 200
1.899005394356228 -0.1278026067640107 -0.6231004749464083 200 200 200
1.7791880135088407 -0.2836310225264557 -0.562176985641697 200 200 200
2.0993715843945786 0.28362024535089264 -0.8433083982509498 200 200 200
2.0993715843945786 0.28362024535089264 -0.8433083982509498 200 200 200
1.7508692938021713 -0.3786061894822169 -0.531558242565039 200 200 200
1.855169857861225 -0.1925908119176898 -0.6313532485541788 200 200 200
1.7503548542239544 -0.36923640654050965 -0.5261687729910498 200 200 200
2.0088810273297097 0.14674044992821766 -0.7044555332942656 200 200 200
1.742533487014221 -0.3968574057707576 -0.4859563700337896 200 200 200
1.7495445585926104 -0.35968161215652183 -0.5202176049733139 200 200 200
1.9257630779515014 0.0033549564272297066 -0.5585582596243496 200 200 200
9.209199237965166 11.923582443899951 -3.879750367325115 200 200 200
9.209199237965166 11.923582443899951 -3.879750367325115 200 200 200
1.8120968217198952 -0.15134431366056972 -0.6214213660923357 200 200 200
1.844535932875594 -0.09110319705820451 -0.46032520611264627 200 200 200
1.7915269396012816 -0.19735889170409682 -0.3486311595547053 200 200 200
1.7884357108189808 -0.20605385594775844 -0.33706297535629204 200 200 200
1.7911273702375674 -0.1835576988400001 -0.35420583245473164 200 200 200
1.7911273702375674 -0.1835576988400001 -0.35420583245473164 200 200 200
1.7769996093485214 -0.2144360173552398 -0.3258123699178295 200 200 200
1.7769996093485214 -0.2144360173552398 -0.3258123699178295 200 200 200
2.3702918935449695 0.9886986885872485 -0.687400448467158 200 200 200
2.3702918935449695 0.9886986885872485 -0.687400448467158 200 200 200
1.7094470494572152 -0.27634475586378626 -0.5281744800066773 200 200 200
1.6890028614926382 -0.3166349117703524 -0.4936186019597501 200 200 200
1.7094958099544915 -0.17640841930347256 -0.5541180602778418 200 200 200
1.7095205360994945 -0.26636728384773456 -0.5214619084156519 200 200 200
1.7095205360994945 -0.26636728384773456 -0.5214619084156519 200 200 200
2.25079738427112 0.8192465408424217 -0.6326604774231049 200 200 200
2.25079738427112 0.8192465408424217 -0.6326604774231049 200 200 200
1.7005330311411242 -0.2600842186321785 -0.527536918067091 200 200 200
1.7005330311411242 -0.2600842186321785 -0.527536918067091 200 200 200
1.7060182494194962 -0.15913608844546967 -0.5433160177684309 200 200 200
1.698263862955588 -0.25029599586920886 -0.5216958279606119 200 200 200
1.6653488059376147 -0.29917860234881055 -0.49894424193457226 200 200 200
1.67041514867054 -0.284801436060172 -0.49158746458562214 200 200 200
1.437886731969903 -0.8380804088396456 -0.2619406598507626 200 200 200
1.4473407729666672 -0.8219768930776767 -0.26283924724086627 200 200 200
1.4473407729666672 -0.8219768930776767 -0.26283924724086627 200 200 200
1.4576805123534233 -0.8056606379513568 -0.2622296484686777 200 200 200
1.4592581083297944 -0.8002782206088873 -0.2621466330469851 200 200 200
1.4610820286449506 -0.7966860885285694 -0.2618011747671839 200 200 200
1.4586354119511655 -0.7990742370604592 -0.26221640660678736 200 200 200
1.4687644042808543 -0.7854280900671693 -0.2598487797980129 200 200 200
1.4620223445228377 -0.7923386006560121 -0.2615797404425123 200 200 200
1.469436815836936 -0.78131356657349 -0.25935410708918527 200 200 200
1.4719984230716228 -0.7681397225047065 -0.2577207623308178 200 200 200
1.4898147567892983 -0.740614882497082 -0.24854697802579467 200 200 200
1.4889100067728143 -0.7420024377256724 -0.24846963111226747 200 200 200
1.4889100067728143 -0.7420024377256724 -0.24846963111226747 200 200 200
1.4877960547817222 -0.7397645308416837 -0.24814065675307245 200 200 200
1.4866806659340444 -0.7343264564264973 -0.2479972639040102 200 200 200
1.4866806659340444 -0.7343264564264973 -0.2479972639040102 200 200 200
1.4863146436588266 -0.7299210872914466 -0.24728082505421456 200 200 200
1.4875821300308225 -0.7278211378946975 -0.2464355205079254 200 200 200
1.4875821300308225 -0.7278211378946975 -0.2464355205079254 200 200 200
1.4875889262260087 -0.7264838016360886 -0.24672323366522889 200 200 200
1.4875889262260087 -0.7264838016360886 -0.24672323366522889 200 200 200
1.487097021746848 -0.726086614479554 -0.24653608621783757 200 200 200
1.487097021746848 -0.726086614479554 -0.24653608621783757 200 200 200
389.15484624718107 106.15529865824595 -168.80737183070124 200 200 200
8.38214478070116 1.0351271367366233 -5.210648135097977 200 200 200
350.43514148575673 96.31237201699912 -239.5960061988186 200 200 200
350.43514148575673 96.31237201699912 -239.5960061988186 200 200 200
2.7389964002828737 -0.4951416986434011 -1.1712632035783253 200 200 200
16.112532320542 3.770174257463986 -11.360538017648208 200 200 200
136.63330660877372 52.259610856057684 -151.06028451206726 200 200 200
942.1198547321193 370.21940684088815 -1033.0773752399741 200 200 200
942.1198547321193 370.21940684088815 -1033.0773752399741 200 200 200
2944.5018604223974 1176.127453648602 -3278.0821160589626 200 200 200
5.742322325150787 118.3548217034524 -71.70097212120515 200 200 200
2.1069778984199052 11.968784137001741 -5.6316824230065965 200 200 200
6.492137617551635 103.83321366681886 -43.829027642044494 200 200 200
4.4931068553106925 65.45636870625212 -27.100099512000558 200 200 200
6.764533091447078 120.74019623718699 -50.02280941512866 200 200 200
2.2750830854474855 18.642666411422105 -8.084552118453356 200 200 200
1.8757836001359305 12.70280373219719 -5.510882062790881 200 200 200
2.1225066744260523 76.09715847152741 -32.9137526536067 200 200 200
1.4262665537806103 -0.9442338085191098 -0.149533963221486 200 200 200
1.4473636927701334 -0.9269775213462105 -0.13868022634744526 200 200 200
1.4473636927701334 -0.9269775213462105 -0.13868022634744526 200 200 200
1.4483114581855143 -0.9263743732617133 -0.13897127072435678 200 200 200
1.4483114581855143 -0.9263743732617133 -0.13897127072435678 200 200 200
1.5600413479578286 -0.8552310313366411 -0.2149178104637756 200 200 200
1.5600413479578286 -0.8552310313366411 -0.2149178104637756 200 200 200
1.612749455857627 -0.8238528651195206 -0.22157103509625942 200 200 200
1.612749455857627 -0.8238528651195206 -0.22157103509625942 200 200 200
1.6748691331751169 -0.7923162181947936 -0.20165671802880472 200 200 200
1.6038739259638939 -0.8281780701880455 -0.2218353504681196 200 200 200
1.6038739259638939 -0.8281780701880455 -0.2218353504681196 200 200 200
1.6740209211403545 -0.7917836097512534 -0.20243029308027974 200 200 200
1.644365089776174 -0.8055236489990208 -0.21604578143011594 200 200 200
1.6411140131078552 -0.8038861770848096 -0.21790463427395126 200 200 200
1.6261812502422859 -0.8114772682815788 -0.2227816199196149 200 200 200
1.6725871885780397 -0.7870111151192695 -0.20243755462402077 200 200 200
1.6725871885780397 -0.7870111151192695 -0.20243755462402077 200 200 200
1.633541239191521 -0.8045121975992379 -0.22172368176965526 200 200 200
1.6385980201753916 -0.8014241027784882 -0.2202946467307055 200 200 200
3.7159570701813105 1.9959803803563898 -3.401382840758322 200 200 200
3.730275793824648 2.1183035829984824 -3.5315370567717808 200 200 200
3.730275793824648 2.1183035829984824 -3.5315370567717808 200 200 200
3.875554262385991 2.3615986516875918 -3.8853465397819624 200 200 200
2.962869219551789 0.9604671695307724 -1.736046442898059 200 200 200
2.962869219551789 0.9604671695307724 -1.736046442898059 200 200 200
2.2047840976342252 0.012300534204630459 -0.8542039232009287 200 200 200
2.2047840976342252 0.012300534204630459 -0.8542039232009287 200 200 200
2.2041152320026964 0.006117886721336276 -0.8318568915757824 200 200 200
2.2041152320026964 0.006117886721336276 -0.8318568915757824 200 200 200
2.2005915368610838 0.018611271114181704 -0.8688278702811141 200 200 200
2.2005915368610838 0.018611271114181704 -0.8688278702811141 200 200 200
2.1942849111514544 0.01681065825703574 -0.8328222270682971 200 200 200
2.1942849111514544 0.01681065825703574 -0.8328222270682971 200 200 200
2.1900649149711167 0.03624960452346656 -0.8905611300841585 200 200 200
2.184269651963897 0.020203777491627332 -0.8158038897982887 200 200 200
2.184269651963897 0.020203777491627332 -0.8158038897982887 200 200 200
2.2698434904217746 0.12807219356415572 -0.481932142087856 200 200 200
2.25879269461741 0.132839897321806 -0.4760992282067135 200 200 200
2.25879269461741 0.132839897321806 -0.4760992282067135 200 200 200
2.2492635246562966 0.1517314809367327 -0.4759970558540487 200 200 200
1.9091405273482371 -0.5172211745473663 -0.499362269722518 200 200 200
1.9091405273482371 -0.5172211745473663 -0.499362269722518 200 200 200
1.9092535089417475 -0.5091547537751692 -0.49209339466223184 200 200 200
1.924115987579831 -0.503742187519253 -0.45383806136014454 200 200 200
1.9158741057524264 -0.5005523501724957 -0.466667267739541 200 200 200
1.9179722492116582 -0.4983585793162137 -0.4588633223044313 200 200 200
1.9061946951658553 -0.4966492527827345 -0.48154511667639904 200 200 200
1.8230685275400431 -0.506681083155691 -0.6024918693094579 200 200 200
1.835707123697905 -0.49374824825130975 -0.5793478166577032 200 200 200
1.835707123697905 -0.49374824825130975 -0.5793478166577032 200 200 200
1.8222217218720775 -0.49693968079906475 -0.5979698791731505 200 200 200
1.8264706272510267 -0.49533067540164294 -0.5914191414331205 200 200 200
1.8264706272510267 -0.49533067540164294 -0.5914191414331205 200 200 200
1.8235988178362739 -0.48755440991339344 -0.591907276412967 200 200 200
1.814445228338743 -0.4908938396995241 -0.6028838228553591 200 200 200
1.7985830308259787 -0.48975316059585916 -0.6180161839837081 200 200 200
1.8061598124693143 -0.4851513276822618 -0.6080873183746254 200 200 200
1.8061598124693143 -0.4851513276822618 -0.6080873183746254 200 200 200
1.7925657329554372 -0.4779692941359737 -0.6170341586538861 200 200 200
1.7925657329554372 -0.4779692941359737 -0.6170341586538861 200 200 200
1.7843151833802628 -0.4722750031482425 -0.6226130377621969 200 200 200
1.775905923977417 -0.4667658898431989 -0.6274793900612157 200 200 200
1.775905923977417 -0.4667658898431989 -0.6274793900612157 200 200 200
1.768211788153805 -0.46913584839049377 -0.6362417171059479 200 200 200
1.9263469098229842 -0.4479683895688922 -0.2983845544871382 200 200 200
1.7623741049917454 -0.45172642801706675 -0.6323388747620419 200 200 200
1.756045154100254 -0.44587743620838394 -0.6366304400931625 200 200 200
1.7457505728704075 -0.4457485837668411 -0.6462933844584595 200 200 200
1.6246622612103732 -0.7008385905157841 -0.24777241357719565 200 200 200
1.6193402646329762 -0.7034543161092758 -0.2474629065054869 200 200 200
1.619674034887778 -0.6989806155967524 -0.24671519119538257 200 200 200
1.619674034887778 -0.6989806155967524 -0.24671519119538257 200 200 200
1.6171308587682411 -0.694916804980034 -0.24632704548727904 200 200 200
1.6158183545981648 -0.6937685626916028 -0.24601222351715815 200 200 200
1.6158183545981648 -0.6937685626916028 -0.24601222351715815 200 200 200
1.6133986074827176 -0.6922185041306947 -0.24598861920186604 200 200 200
1.6131650388211607 -0.6872925130966757 -0.24626206205951168 200 200 200
1.6138488101560173 -0.6775940243278583 -0.24542207809389863 200 200 200
1.6177639436322213 -0.6726508501931925 -0.24381651762554246 200 200 200
1.6158287395436852 -0.6729433725429121 -0.24428220105580753 200 200 200
1.6158287395436852 -0.6729433725429121 -0.24428220105580753 200 200 200
1.6157765450810622 -0.6685806998205186 -0.2440965226637895 200 200 200
1.6161571992010928 -0.6645965313326695 -0.24373597973471564 200 200 200
1.614049158625041 -0.6669181657434107 -0.2446675107421589 200 200 200
1.617599854858627 -0.6623177396032716 -0.24287449789538196 200 200 200
2.0720678616283337 -0.1488877623711555 -0.4127227706413547 200 200 200
2.0691667140274648 -0.14422360690007985 -0.3986902897092259 200 200 200
2.0681984379182627 -0.15538155207117627 -0.46084700723440064 200 200 200
2.068014912291697 -0.14838890933628657 -0.4329773321683857 200 200 200
2.065131941068024 -0.14115327498356892 -0.4106467800155826 200 200 200
2.065131941068024 -0.14115327498356892 -0.4106467800155826 200 200 200
2.063442877549858 -0.14241814582413892 -0.422405673753729 200 200 200
2.060812935832122 -0.13458452410646066 -0.3869712420545297 200 200 200
2.060812935832122 -0.13458452410646066 -0.3869712420545297 200 200 200
2.05760655722328 -0.13362176938948397 -0.419238458636778 200 200 200
2.054138180427043 -0.1278825672928676 -0.3824272376996588 200 200 200
2.054138180427043 -0.1278825672928676 -0.3824272376996588 200 200 200
2.047892261407217 -0.1249851147597499 -0.40792848805268545 200 200 200
2.047892261407217 -0.1249851147597499 -0.40792848805268545 200 200 200
2.0472474360498283 -0.11917561179809988 -0.38410219480731006 200 200 200
2.0472474360498283 -0.11917561179809988 -0.38410219480731006 200 200 200
2.0432537690275647 -0.11361891312078307 -0.375305129397582 200 200 200
2.0432537690275647 -0.11361891312078307 -0.375305129397582 200 200 200
2.0428264018656583 -0.11609293215151635 -0.3941215839345311 200 200 200
2.039710035842286 -0.10642668362911746 -0.3392989251253347 200 200 200
2.039710035842286 -0.10642668362911746 -0.3392989251253347 200 200 200
2.0389080265395823 -0.11495724838479059 -0.4165124533892864 200 200 200
2.02848973578137 -0.12590082180911794 -0.4874704133042864 200 200 200
2.0277595223587532 -0.10638182020830743 -0.4249192666023858 200 200 200
2.0277595223587532 -0.10638182020830743 -0.4249192666023858 200 200 200
2.0143014237181003 -0.14640007610986794 -0.5568050861878016 200 200 200
2.0204594476466857 -0.0871744837221935 -0.32470991046689757 200 200 200
2.0204594476466857 -0.0871744837221935 -0.32470991046689757 200 200 200
2.006057157450806 -0.1586489855957301 -0.5893612989633715 200 200 200
2.0030047492941967 -0.14985667321745513 -0.5816553852335905 200 200 200
2.007592152991695 -0.07657727597860352 -0.2835835545622816 200 200 200
2.009666143940096 -0.0752469946803941 -0.3085353610217073 200 200 200
1.9993116847933918 -0.14047049207635112 -0.5713108451907236 200 200 200
1.9948205692592078 -0.14193542684486152 -0.5799077945792042 200 200 200
1.9948205692592078 -0.14193542684486152 -0.5799077945792042 200 200 200
1.9993414635783635 -0.06668945490707356 -0.2832499649865438 200 200 200
1.9958608864751544 -0.06343985583886429 -0.29314406956369893 200 200 200
1.9882469626598243 -0.06075333425174494 -0.25826081515419325 200 200 200
1.9905396216978573 -0.05813591190950582 -0.2795391275327355 200 200 200
1.9845319991822463 -0.05456881338511397 -0.25390120392598176 200 200 200
1.9909401056132783 -0.04706088091697604 -0.30308800881754855 200 200 200
1.9058377902750296 0.03196185923317606 -0.19888194203631715 200 200 200
1.9004869700433202 0.03083508347052527 -0.21926428531415823 200 200 200
1.7671777026818118 -0.7005740239413338 -0.3700128874908984 200 200 200
1.7662526469782018 -0.5957276858311777 -0.5117311141604353 200 200 200
1.761920240794989 -0.5925716707679752 -0.5168695208137236 200 200 200
1.7571087958125435 -0.5884408531257657 -0.5194830533773106 200 200 200
1.7541301172882613 -0.5844408412805361 -0.5195361238685046 200 200 200
1.745696671798446 -0.5850063090975826 -0.5323760683813035 200 200 200
1.7757545300450412 -0.5811163063293063 -0.47932045252503697 200 200 200
1.7757545300450412 -0.5811163063293063 -0.47932045252503697 200 200 200
1.7563382347127072 -0.5826370271583444 -0.5137001911769028 200 200 200
1.7563382347127072 -0.5826370271583444 -0.5137001911769028 200 200 200
1.7908960490305663 -0.5798509860783572 -0.43399671893717184 200 200 200
1.7385922404782186 -0.5750200591585015 -0.5307859537712808 200 200 200
1.7868288382459447 -0.5740280194106826 -0.43822504870122364 200 200 200
1.7441872217469905 -0.5736235497783786 -0.522106257758037 200 200 200
1.7889729514496013 -0.5763795417115479 -0.42604547661189646 200 200 200
1.727137906891421 -0.5737501630380281 -0.5408581984586848 200 200 200
1.732763215483107 -0.5709384250063787 -0.5342947314125109 200 200 200
1.732763215483107 -0.5709384250063787 -0.5342947314125109 200 200 200
1.7146358576557699 -0.5736999510835966 -0.5612230531999713 200 200 200
1.7795705522681247 -0.5704350580629056 -0.44281563520695266 200 200 200
1.7891485433975924 -0.5689992930753337 -0.39628542028086694 200 200 200
1.703074449569299 -0.5635575968535222 -0.5614431667094554 200 200 200
1.782529730526305 -0.5623038488729406 -0.3936703402008506 200 200 200
1.782529730526305 -0.5623038488729406 -0.3936703402008506 200 200 200
1.779801462627248 -0.5597160033336155 -0.36890093744461144 200 200 200
1.9038024203771085 -0.6547832867279575 -0.3479289899385735 200 200 200
1.8938083554765115 -0.659439196183969 -0.3278868493942851 200 200 200
1.8938083554765115 -0.659439196183969 -0.3278868493942851 200 200 200
1.8861299186118134 -0.6584562768142308 -0.31946389134772846 200 200 200
1.8861299186118134 -0.6584562768142308 -0.31946389134772846 200 200 200
1.8495084498712535 -0.6205466915579233 -0.3574366984334951 200 200 200
1.8456665556186285 -0.6201186874732532 -0.3492471119989242 200 200 200
1.8477360599161925 -0.6156014120275112 -0.3636528564370587 200 200 200
1.8477360599161925 -0.6156014120275112 -0.3636528564370587 200 200 200
1.8460948788675875 -0.6171469153391348 -0.3564130459487481 200 200 200
1.8460948788675875 -0.6171469153391348 -0.3564130459487481 200 200 200
1.8391729512350798 -0.6148526721230729 -0.3495904997544701 200 200 200
1.8315373786549058 -0.6044673417874394 -0.3592347602405382 200 200 200
1.8233306343048312 -0.5936812487938908 -0.3692760651890338 200 200 200
1.8102969928015133 -0.580942232860595 -0.3825637148987566 200 200 200
1.8095797999157108 -0.5718629307527633 -0.3949906127837103 200 200 200
1.802064644947238 -0.5699062574908821 -0.3926469085802223 200 200 200
1.7967514209618873 -0.568088895882238 -0.38476937120745264 200 200 200
1.7967514209618873 -0.568088895882238 -0.38476937120745264 200 200 200
1.7920611047370592 -0.5642270235805567 -0.3846245818644838 200 200 200
1.4268626360617582 -0.9205643996568402 -0.3129502156569537 200 200 200
1.4268626360617582 -0.9205643996568402 -0.3129502156569537 200 200 200
1.7879168174818287 -0.5631591655988023 -0.3791225650037208 200 200 200
1.7879168174818287 -0.5631591655988023 -0.3791225650037208 200 200 200
1.7811556629773053 -0.5606669294330578 -0.36953535275765903 200 200 200
1.7811556629773053 -0.5606669294330578 -0.36953535275765903 200 200 200
1.745193604247105 -0.5376355304871169 -0.3448978622847551 200 200 200
1.745193604247105 -0.5376355304871169 -0.3448978622847551 200 200 200
1.7340400113900987 -0.5231731903382049 -0.3586588789308361 200 200 200
1.7302267374906486 -0.5163303826989653 -0.3644430070141623 200 200 200
1.729321054194061 -0.5127038393316199 -0.3679743315502844 200 200 200
1.6915386402679673 -0.48738096584463625 -0.3330342345854706 200 200 200
1.6879258428214525 -0.49558764288648494 -0.30662560466402344 200 200 200
1.6871518225420123 -0.4898182038796388 -0.31905347223968117 200 200 200
1.6851404783806387 -0.49061129407775084 -0.31320917108375584 200 200 200
1.6836196411215703 -0.48529203640272744 -0.3220082100857821 200 200 200
1.6806686173199403 -0.48799863066339294 -0.3060757397397231 200 200 200
1.679266150704326 -0.4863748963073105 -0.31552693494494627 200 200 200
1.6771033653940421 -0.4808331247077949 -0.31130827508104414 200 200 200
1.6771033653940421 -0.4808331247077949 -0.31130827508104414 200 200 200
1.6771033653940421 -0.4808331247077949 -0.31130827508104414 200 200 200
1.6771033653940421 -0.4808331247077949 -0.31130827508104414 200 200 200
1.6732668270832207 -0.47883303387590637 -0.3047517805794882 200 200 200
1.6732668270832207 -0.47883303387590637 -0.3047517805794882 200 200 200
1.6707332290107335 -0.47764891658519903 -0.31033282688376396 200 200 200
1.6691132836050853 -0.4775898257700804 -0.29979465359907337 200 200 200
1.6487105189352094 -0.4667633101592486 -0.25848936747808515 200 200 200
1.6487105189352094 -0.4667633101592486 -0.25848936747808515 200 200 200
1.6485285162215904 -0.46441493419651647 -0.26363844013897425 200 200 200
1.6442387815116892 -0.46022220641286 -0.259263213468812 200 200 200
1.6443968762477617 -0.4631284987415848 -0.25217829225862654 200 200 200
2.147374834001245 -0.47773418307355675 -0.3574242398658074 200 200 200
2.1294529148334105 -0.4639299935698403 -0.35249810435370604 200 200 200
2.124605117501708 -0.4635027306048278 -0.3507090762873235 200 200 200
2.114432212106259 -0.4553072730496766 -0.3477984995375979 200 200 200
2.114432212106259 -0.4553072730496766 -0.3477984995375979 200 200 200
2.1232426800993083 -0.42589853465519356 -0.45607419616799416 200 200 200
2.106437518068263 -0.4260587928786971 -0.38454137302468816 200 200 200
2.123642282070536 -0.42264626102852554 -0.46905895816218884 200 200 200
2.1176218657871786 -0.42320547376706547 -0.4392255690523424 200 200 200
2.111907381539249 -0.42572940448313057 -0.42795863668853623 200 200 200
2.104891672577153 -0.4218326065073983 -0.4162498265831037 200 200 200
2.1121102661842754 -0.4100587665879389 -0.47096143454946643 200 200 200
2.1021135051171145 -0.3976215850443434 -0.48305996748077 200 200 200
2.0857903299824905 -0.38620302238799886 -0.4953680824978553 200 200 200
2.076379842143355 -0.3727516107126059 -0.5075930523435388 200 200 200
2.076379842143355 -0.3727516107126059 -0.5075930523435388 200 200 200
2.0708283914276517 -0.3656796087080487 -0.5140341279649976 200 200 200
2.0708283914276517 -0.3656796087080487 -0.5140341279649976 200 200 200
2.0721124959866155 -0.36523782382403064 -0.5253569414277617 200 200 200
2.064041750343838 -0.36123041357897595 -0.5089593963930326 200 200 200
2.0630984654973106 -0.3580832496965885 -0.5211100839409648 200 200 200
2.0690422046984165 -0.3541975539070743 -0.5475958110805699 200 200 200
2.054951921251531 -0.35229094515789056 -0.5106388614211346 200 200 200
2.0557121046825753 -0.35047550893534785 -0.5207340836359221 200 200 200
2.0557121046825753 -0.35047550893534785 -0.5207340836359221 200 200 200
2.0527370402714777 -0.3479470156717015 -0.5295436299538157 200 200 200
2.047294593847445 -0.3443035758134597 -0.5162485766422629 200 200 200
2.051848808746884 -0.33373471494078755 -0.5419008289664532 200 200 200
2.0424520984642647 -0.3362022427911542 -0.5153271516131215 200 200 200
2.0170826703983353 -0.3070855448608176 -0.5722405919193538 200 200 200
2.00148544086061 -0.2888151643745258 -0.5893647857465664 200 200 200
2.00148544086061 -0.2888151643745258 -0.5893647857465664 200 200 200
2.000891076160096 -0.2799979254719202 -0.6300813429101457 200 200 200
2.000891076160096 -0.2799979254719202 -0.6300813429101457 200 200 200
1.993219111303423 -0.28352513457985656 -0.5774043348464155 200 200 200
1.994322579587504 -0.27980049240838895 -0.5881769810214487 200 200 200
1.9961569453335302 -0.27318151121587164 -0.6154042866912787 200 200 200
1.985168351845482 -0.2731505209374327 -0.5835725518850318 200 200 200
1.973291607242184 -0.262834980416127 -0.5737622810057723 200 200 200
1.959463438371305 -0.23636587475761675 -0.6381257534877941 200 200 200
1.959463438371305 -0.23636587475761675 -0.6381257534877941 200 200 200
1.9428723167622104 -0.22706864663584597 -0.6507127991481867 200 200 200
1.933069499649634 -0.21803558204015216 -0.659342808422262 200 200 200
1.9196559568762925 -0.2041020086401651 -0.6721601289246684 200 200 200
1.9108828165133875 -0.19506800619553546 -0.6522875636248889 200 200 200
1.9011805493839438 -0.18467141061031328 -0.6595205698867147 200 200 200
1.9011805493839438 -0.18467141061031328 -0.6595205698867147 200 200 200
1.8948329461854057 -0.18051887402295008 -0.6461155449297604 200 200 200
1.81224007755088 -0.10588956816638415 -0.6075709768865333 200 200 200
1.8036099121100344 -0.09546254071027199 -0.6165276163883491 200 200 200
1.7684461712281299 -0.05783314096051691 -0.6408735274768154 200 200 200
1.7668112329442307 -0.05749039837013678 -0.5687894466426354 200 200 200
1.766279612215501 -0.052871922627786075 -0.5727623539935518 200 200 200
1.4260846790613706 -0.9209326270142342 -0.3144428597462869 200 200 200
1.4260846790613706 -0.9209326270142342 -0.3144428597462869 200 200 200
1.4260846790613706 -0.9209326270142342 -0.3144428597462869 200 200 200
1.4263767059390524 -0.9190185369447214 -0.31296912842034963 200 200 200
1.4249580128048573 -0.919550287996079 -0.31575032787148827 200 200 200
1.4298863478632347 -0.9158075424052852 -0.3046262402048773 200 200 200
1.4298863478632347 -0.9158075424052852 -0.3046262402048773 200 200 200
1.428390992078201 -0.9099490305026433 -0.3016219421215316 200 200 200
1.4302695610347331 -0.9091456839989869 -0.29602084183985483 200 200 200
1.4273659224219162 -0.908894620245509 -0.2994379630027398 200 200 200
1.4273659224219162 -0.908894620245509 -0.2994379630027398 200 200 200
1.4298299238315468 -0.9071682133760723 -0.2947304551669695 200 200 200
1.4286716601836387 -0.9070852663380793 -0.2973874402290151 200 200 200
1.4286716601836387 -0.9070852663380793 -0.2973874402290151 200 200 200
1.427582048017285 -0.8947188464667324 -0.27865956196907127 200 200 200
1.418656283743596 -0.8795000001583361 -0.2603267452116914 200 200 200
1.4176310039216806 -0.8780564747908642 -0.258484684992298 200 200 200
1.4152342892075123 -0.8747955794468378 -0.2577057393264482 200 200 200
