ply
format ascii 1.0
element vertex 678
property float x
property float y
property float z
property uchar red
property uchar green
property uchar blue
end_header
1.103981032014008 0.09497205100785187 -0.38520325952856876 101 106 102
1.081743147989305 0.08953576859605884 -0.38622350629312796 133 141 141
1.081743147989305 0.08953576859605884 -0.38622350629312796 133 141 141
1.0883694236715247 0.013087782527359046 -0.3834671402989671 97 101 96
0.9100795729610625 -0.037977756091100566 -0.38135821080657756 179 182 182
0.9889690131758607 -0.15185033676345897 -0.3838888591603876 35 34 34
1.0935728946870893 0.09196089141981055 -0.3881765743344861 152 160 159
1.1005267256135929 0.08366317410742516 -0.387019262669234 136 144 141
1.0988575638598475 0.07672140564316264 -0.3845055494882791 138 144 144
1.0759452816932695 0.07472337691778554 -0.38698753312338585 191 195 190
1.0919724435534945 0.04456893593425345 -0.38471602884456874 100 106 105
1.099527815829032 0.03988313796974223 -0.38646357975881307 135 141 140
1.0940792552667682 0.02412760037272167 -0.3854843833691597 96 99 94
1.0868514715986186 0.019766598070714573 -0.38733471166065436 106 110 108
0.8987271844146676 0.006534096207208371 -0.3853857010337505 20 26 24
0.9952427068697649 -0.1535209377490077 -0.3833957797568994 33 33 33
1.080689202513665 0.06445159985628038 -0.3859128632031943 160 166 164
0.8297700687071597 0.04822266409952803 -0.3855009085171576 179 185 185
0.8323763506091322 0.03774951197268818 -0.3849866556327238 117 117 117
0.8346399266887076 0.010289233212327114 -0.386560686796477 172 180 181
0.8336072217991656 0.13324247262879202 -0.3880318861927732 190 189 189
0.8322616061702981 0.044964454141057764 -0.38520315485012446 127 123 123
0.8901479173120659 0.031176399651982524 -0.38541940928460966 79 75 68
0.8901828719619639 0.031207882199530218 -0.38547141330583523 79 75 68
0.8327023211568634 -0.016395374164480874 -0.3867131195656504 171 174 176
0.8785793590671332 -0.10063883658278576 -0.3847816955334128 21 24 23
0.978080952525984 0.08804264747688316 -0.3793583279465707 43 49 49
0.8323106226176682 0.0674171820240736 -0.3859776381008215 136 133 135
0.8343447134542841 -0.026676854230368485 -0.3816709364120475 178 178 180
1.0783555985599123 0.15348991074400994 -0.3844087292014815 119 121 120
1.09925852571857 0.1317682463517618 -0.3846446562221271 158 159 155
0.8316219404316872 0.0818503116897404 -0.38571632732239547 194 193 196
1.0839467461637524 0.0656343265669 -0.386056693189349 113 113 116
0.884666710613492 0.05629660890652847 -0.38320285583652564 29 37 38
0.8321759568701291 0.020846022754437785 -0.3852670206789276 129 129 133
0.8320114382400561 0.003757813787312021 -0.3849672754456998 144 140 145
1.0784108442525149 -0.037367403751552286 -0.38033309061054493 74 77 79
0.9547239817234787 -0.03343777363858845 -0.38107758704832656 28 27 34
0.879461906029841 -0.03811108798344228 -0.38492571791617247 27 27 27
0.8999601619568375 -0.08190219716425505 -0.38202666972249405 178 178 178
0.9000204219557066 -0.08191694709213398 -0.38216280003647196 178 178 178
0.990130760311939 -0.16752337796210146 -0.38996200771062317 20 17 14
1.0917775644653949 0.15828992246384604 -0.3787153132583897 133 135 132
1.0975916109065091 0.1478641981222257 -0.38685810957729516 96 96 96
1.0897078247333125 0.14155466670740663 -0.384902891302193 147 152 152
0.9400896547844128 0.11275010664036421 -0.38547142520798083 40 45 50
1.0807437685913783 0.12096138444673335 -0.38669367067309435 164 170 168
1.1128200174045368 0.11163672135021267 -0.39719055557089666 128 136 133
1.0816608147050426 0.1019700699813077 -0.3851318349781756 141 147 146
1.0777041442791395 0.09936571073654675 -0.3886256708453244 191 195 190
1.0955312481917174 0.08925337119760669 -0.38753091783254584 146 152 153
1.0908032227760605 0.08005033060953538 -0.38590196229338325 122 129 133
1.0912683633618223 0.06820583989097287 -0.388715233260733 99 101 99
1.087054066266426 0.05324195964563474 -0.3837086235223457 103 103 102
1.0921051297469284 0.04699553102553354 -0.38344171858940745 133 142 142
1.093480535625144 0.03546885945723261 -0.38499493189727885 104 105 108
1.085646171932865 0.01833659309266079 -0.38339211566342696 139 147 146
1.0988965151770835 0.08279127057552498 -0.3877666733133251 112 115 114
1.085901081087584 0.02747653659265229 -0.38383293108384725 147 153 153
0.9905401080402328 -0.06164448005171741 -0.38030610004585663 54 49 55
0.9809104316087157 -0.07520512096463762 -0.3808739919574138 33 41 43
1.0994387337919957 0.11378014851323026 -0.38404846099903445 132 140 139
1.0743300178777708 0.09535202266302648 -0.3851250167722226 191 195 190
1.0939618795414692 0.07649846042392669 -0.382126379345961 112 117 118
1.1025507746825605 0.06063935410044418 -0.3825222755035353 127 131 126
0.8896871591324762 0.04556909862108025 -0.3836893843463363 29 32 35
1.0843567834834296 0.030206410658860164 -0.3868795322584819 161 164 163
1.1066292499390271 0.05751146753102581 -0.386519357446289 125 133 131
0.8541775213976995 0.08961947750309968 -0.38394635570028796 29 35 35
0.8327909211890739 0.054991378858939996 -0.38522006027538896 122 121 121
1.004102760893914 -0.07572726515815281 -0.379688693458444 33 38 43
0.8556398404180182 0.1704873277247111 -0.39183605588772263 31 32 28
1.0844724953582665 0.1379070227327422 -0.38829503040081215 145 144 144
0.981618601371577 0.11194577378206895 -0.38069946173686553 35 43 44
0.8319142441304982 0.03881454420074448 -0.38517854598478285 182 184 187
0.8297642094246918 0.02400553927855112 -0.3856963809658812 178 184 186
0.8307135056877897 -0.030423455458767724 -0.3851803786943467 153 152 154
0.9164991599075331 0.05050378042485599 -0.3830521549958372 29 35 37
0.9064088293460565 0.03631600387325064 -0.3831618498805507 28 34 32
0.8328401503748416 -0.015006233652828962 -0.3841304099478163 190 190 192
0.8324282009983226 -0.023349814936059064 -0.3846491694100473 120 122 121
0.829966102368986 -0.02312274626728412 -0.3846368304320641 193 193 197
1.0813691362660285 0.14108251139221262 -0.3860965708716014 96 95 97
1.0979816334588732 0.13541165300627525 -0.38600638085489847 112 117 117
1.1081769756687778 0.13801052459515875 -0.3900460254046911 125 130 126
1.0850507318238833 0.11705478781471682 -0.3893590161922976 112 113 109
1.0958420018552724 0.10552940675633636 -0.39101874341363374 151 158 158
1.0997971451608195 0.10335257553301977 -0.3834849682359604 136 142 140
1.0758343655975828 0.09111219661241694 -0.38669500638138776 195 199 196
1.087284922542473 0.09181482580096025 -0.38806190633439164 165 173 174
0.9820353304672688 0.07826845179485296 -0.3794458115516906 64 69 76
0.8740986263057131 0.061455947919589096 -0.38412674035712674 30 33 36
0.9172721863333116 0.05075150543900022 -0.38430340547838926 34 40 43
0.9172721863333116 0.05075150543900022 -0.38430340547838926 34 40 43
0.8529717531729897 0.025291501306195313 -0.38183766119041934 34 39 39
0.973988212955799 0.020229439194430553 -0.38133284147929164 58 58 61
0.860071831215384 0.005086783512984453 -0.38228592827446617 192 195 198
1.0060159760235527 -0.01194497585959959 -0.3825500418421233 65 72 76
0.9168201022253074 -0.01226492125045138 -0.3819427145344376 34 35 37
0.88522010559174 -0.012293212347611104 -0.3836193072496158 192 194 200
1.07737858947414 -0.026945305999768885 -0.3850111398804564 147 153 153
0.9473085744596864 -0.06844923824038902 -0.3780407627664024 41 47 49
0.9312536644000297 -0.13350811284982364 -0.40861892340717676 181 181 183
0.9815819167710306 -0.1583752101218586 -0.3809892193329391 28 28 28
1.096415848762389 0.12336447962690927 -0.3852698525968406 156 156 150
0.8790549414540604 0.08820145403549161 -0.3850094466442152 37 36 36
0.9168499416573244 0.0888428869470909 -0.38310079832253596 34 40 40
1.0714025025208729 0.10237847706295039 -0.38175425070889885 196 199 196
0.9488174722587442 0.0829418152982859 -0.38405472864551726 44 51 54
1.094580842426957 0.08232171110975485 -0.3861335491928268 150 153 154
1.095392980009811 0.041693478382014745 -0.3856934596985209 141 152 151
1.0853739887628395 0.00888568556200024 -0.3858556306656019 111 114 113
1.0876942839296753 -0.004434375506361314 -0.3878427495411905 114 114 110
1.0982279284874727 -0.01567217053456098 -0.38501570769455656 108 116 120
1.0896627384572897 -0.02143853323277226 -0.3839913085854816 100 103 102
1.0896627384572897 -0.02143853323277226 -0.3839913085854816 100 103 102
1.0939668621051575 -0.02994186917849555 -0.3859946886211278 131 139 140
1.1015022902416147 0.08113370964849742 -0.3878814775037303 138 147 143
0.9799428222675185 0.019863755239643077 -0.3816252898550375 195 203 202
0.8579339425108495 -0.001384317173488378 -0.3834872260157062 35 38 41
1.0742059701704965 -0.004482055975227526 -0.38529951811484686 193 198 196
1.003822616322793 0.025831675806076735 -0.3796806059104338 67 80 79
0.9954795422205052 -0.15252859532944568 -0.3855246950261781 22 25 26
0.968290903027642 0.08044096917133292 -0.3740851129244702 46 52 54
0.9557672642566234 0.043525854431157585 -0.3817609090986525 183 186 185
0.8844281360210728 -0.006478674587418934 -0.3812492109130541 19 25 23
1.0871051438099242 0.16757840432413768 -0.38762628333550186 81 76 72
1.0893365575815972 0.14456000719767081 -0.38869034489058923 98 97 99
0.8895501217330526 0.031393398586596795 -0.38441788051914594 58 42 39
0.9829919160879774 -0.06556169728315182 -0.3796926921920438 41 45 51
0.9048908315506716 -0.09630173508152766 -0.3825741469086305 25 28 28
1.0413706608483075 0.14255838852333946 -0.397614589815743 199 203 198
0.8894856317257728 0.03141965892250833 -0.38440611904042843 83 65 63
1.0982344877329753 0.2848577787176026 -0.385118247065518 35 31 24
1.0990991852808303 0.2397335137502225 -0.3922333849053131 29 29 23
0.8792536708844251 0.08819884763675341 -0.3846741349053285 31 32 29
1.0869328403789498 0.07958170030210376 -0.387374463803235 162 172 172
0.9666669537655111 0.032281816379897785 -0.38154776642183313 190 200 203
1.0933119787251075 0.031970036175586046 -0.3870686956843537 151 160 159
0.9470954485988875 0.019512529968092752 -0.3803925666904637 46 51 54
1.1030799432462521 0.026457740791694447 -0.38420733800855095 128 136 135
1.0945667593521455 -0.0015034343027932134 -0.3863072773030724 154 162 159
0.8853899457295827 -0.012231286091395758 -0.3840645003212656 192 194 200
1.0981284634523776 -0.016764366384513993 -0.38716481175873135 145 151 151
1.105580174354043 -0.018641458539450036 -0.3857679873765768 101 105 101
1.0866283322631611 -0.060132210556193354 -0.38653194794142887 88 88 91
1.000553673012055 -0.06294390972452064 -0.38247072214446687 187 198 196
1.000553673012055 -0.06294390972452064 -0.38247072214446687 187 198 196
1.0849939636189994 -0.06814903574999608 -0.38412463490480603 87 88 90
1.0095652544445715 -0.1592759386867627 -0.3870889548504957 30 33 34
0.8797695367436235 0.051094279745962284 -0.38780854904561257 33 33 35
0.8614090810392255 0.07559263671931547 -0.3862168792022304 50 34 34
0.9664781554779613 0.03225623279129662 -0.3813941427083253 202 202 204
0.952802543259393 0.030080896699475182 -0.38221542656148 49 55 57
1.090383458430231 0.24728897508243958 -0.38004881949398883 39 36 31
0.8674668701517501 0.10564150203339168 -0.3925784608741645 26 31 30
0.8843731004406507 0.050052753865520896 -0.38221538648875114 195 196 198
0.9622465034023925 0.035229416641897035 -0.38066370401213623 38 38 42
0.8543013642712998 0.02671863896763288 -0.384467204466641 39 45 47
0.879100903892356 -0.0064059023671995405 -0.3832114984644458 190 193 194
0.879100903892356 -0.0064059023671995405 -0.3832114984644458 190 193 194
0.9822631838252764 -0.0467238375094501 -0.3786258674518524 42 45 51
1.1040568359523428 0.2602898287038479 -0.3906722819831313 58 50 42
1.0870132544459647 0.12953981614098975 -0.385456490538753 93 93 93
0.9429302271964198 0.08321009977476147 -0.3841476483758197 199 202 203
0.9429302271964198 0.08321009977476147 -0.3841476483758197 199 202 203
1.100873343987807 0.09763514856605073 -0.38868624786443984 137 143 143
1.1085697131493017 0.09718862430881625 -0.3891858842455622 107 107 102
1.1035494442803306 0.09118447505432296 -0.38622442046504135 130 136 134
0.9808061704201009 0.052247058510511146 -0.3841467110546066 61 67 71
1.081959290980986 0.060767514291674915 -0.3836051710165534 147 153 149
1.1036022803639705 0.014873987039117423 -0.38595101730834414 101 107 105
1.0927259305391852 0.013682345195501324 -0.3855454581122781 156 163 161
0.9862136143508758 0.0049211732431417845 -0.38064974334907625 190 203 202
0.9862136143508758 0.0049211732431417845 -0.38064974334907625 190 203 202
1.0962572806974862 -0.011243464524140072 -0.38435277332897505 107 114 117
1.1052939100499661 -0.016383659459708225 -0.3838548302180497 120 127 123
1.0783790640762387 -0.019824926487419764 -0.38437979494735003 111 114 115
1.0783790640762387 -0.019824926487419764 -0.38437979494735003 111 114 115
1.0870656725496783 -0.025196667148807503 -0.3873837883498738 107 109 110
1.1024446696801438 -0.025175162261992706 -0.3855357094527711 137 145 144
1.088352778224954 -0.030797447465337774 -0.38232016895771875 124 127 128
1.0990065317105842 -0.031428937821551824 -0.3851628735996839 110 113 114
1.094091348781351 -0.03276216191131644 -0.38188255832291224 153 159 159
1.100301469821615 -0.03929419380013291 -0.38603522386211053 107 107 109
0.8791481442588476 -0.03792869252039903 -0.38325388097127444 32 35 36
1.1028369641432694 -0.047338087267499274 -0.3862094550646427 133 140 141
0.8857125015628216 -0.04403924683277886 -0.38356574916263775 33 36 39
0.8857125015628216 -0.04403924683277886 -0.38356574916263775 33 36 39
1.0916103729875082 -0.04864605973953708 -0.3858075831320925 118 118 120
1.1022896333349494 -0.05135652391737412 -0.38159650740179535 127 133 133
1.087381570339196 -0.051975136193625225 -0.3872871038921167 95 97 99
1.087381570339196 -0.051975136193625225 -0.3872871038921167 95 97 99
1.0738478318215927 -0.05202206626191767 -0.3832151880538282 117 117 119
0.8958061229874776 -0.05647534865515731 -0.3765049849854018 25 31 30
0.943434771688035 -0.07501905538923694 -0.38343960766125307 38 38 43
0.943434771688035 -0.07501905538923694 -0.38343960766125307 38 38 43
0.9954537218329648 -0.1535542509781144 -0.3834212140141881 37 38 34
1.0026658467649598 -0.15968471512638524 -0.38351018787708707 26 26 24
0.9487353980457255 0.019758962394670752 -0.38327615682176114 40 48 50
0.9726664547227605 -0.006436363970249312 -0.38001510594882715 53 64 64
0.9624635609047177 -0.025842811277789663 -0.3816094770152182 51 59 60
0.9966252462419153 -0.05740629823726399 -0.37660157626011187 189 195 195
0.8862929004661101 0.05814486057383851 -0.3871375642447136 34 37 38
0.8864667280174728 0.01965525955909256 -0.3872855391812134 35 37 43
1.06942980506416 0.2419900834969394 -0.36496680306058105 31 32 28
1.0855386318085432 0.23913635053319465 -0.370226876744789 35 35 31
0.854674798630935 0.0912371304873353 -0.3868215600791575 32 35 34
0.9666697733787738 0.10100523384156633 -0.381106316606518 32 36 37
0.9666697733787738 0.10100523384156633 -0.381106316606518 32 36 37
0.8794112164959322 0.05730252692912005 -0.3859962142069461 184 187 188
0.947977488779139 -0.006385282417731417 -0.3816015306522971 34 42 41
1.0771239330544204 0.2117958939928312 -0.38247431340288707 28 27 27
0.864182939409644 0.07047871497315501 -0.3895645053955775 186 189 189
0.864182939409644 0.07047871497315501 -0.3895645053955775 186 189 189
0.9615013408716462 0.07053189707420925 -0.38490720279964785 28 34 32
1.0802811556811727 0.08004688392894699 -0.3780941173260868 83 79 80
0.9187958034892213 0.05264775292673127 -0.3888707352696768 33 36 37
0.9582649665475537 0.044842776575648564 -0.3861397140407735 184 187 186
0.9737771418027621 0.025425997652428377 -0.38197051681256566 182 188 186
1.0799852882229104 0.2760892985525081 -0.37068737857320816 96 93 79
1.075574930181683 0.24601849709492501 -0.36859528658756796 23 21 15
0.8317015929693653 0.08412802744954247 -0.3859712969103401 157 153 155
0.8561477017912946 0.05938249950880231 -0.38359741123396696 41 41 37
0.947934930725632 0.0566862657514843 -0.38253013187209184 36 42 40
0.831494165909333 0.04036956337997795 -0.382740579905765 139 138 142
0.8314687796948451 0.11632896693303325 -0.38538157918181815 191 187 187
0.8287794987981986 0.09672041590242908 -0.382356443760865 188 189 185
0.9579967971674401 -0.02422332097407489 -0.377982914344154 152 164 160
0.888695207078444 -0.029503599764224626 -0.3748575375838066 133 148 145
0.8909835262807991 -0.0934369610466268 -0.37919723097558067 159 162 163
0.8332530961276383 0.13122268794802344 -0.3845014668010471 195 193 194
0.8313221465893048 0.1062778085411038 -0.38585866465840823 191 190 192
0.8323482868355294 0.0025918664426369375 -0.37947779218874983 185 187 187
0.82944382902818 0.0018166070153347949 -0.3825164578095012 184 190 190
0.8897331533602804 0.0308102692724716 -0.3849454249346228 41 33 26
0.8319697563556947 0.013726301771230765 -0.38428270632776895 165 171 173
0.8326653533644964 0.07076041797199424 -0.38463801206236603 138 133 131
0.8299212842471231 0.036350429075500366 -0.3840330982669389 166 173 174
1.0032483634212572 -0.1584775652565227 -0.3765200020047756 28 30 29
0.9537411796391017 0.09366162413633657 -0.38284387004522036 40 48 47
0.9565258478333625 0.04367886175403105 -0.38308269279948626 184 188 189
0.9565258478333625 0.04367886175403105 -0.38308269279948626 184 188 189
0.8294623645493343 0.04818659593685956 -0.3851777224528919 179 182 185
1.0675422317363357 0.20509919349875777 -0.37238333182395567 35 32 25
0.8768440448511277 0.11243512287551388 -0.38590929496075493 26 29 28
0.8319624409594065 0.07385518204490388 -0.3872743775742031 182 180 178
0.8314262245756109 0.0700151082627334 -0.38539342893863415 189 188 188
0.8313317152941805 -0.0026792692694898377 -0.38410077591667496 183 183 187
0.8332620085745546 -0.02119916944638497 -0.3832005944866761 105 104 106
0.9695867201115986 0.09218167121677676 -0.3820646706809657 55 63 62
0.9272356105715571 0.07600093059200759 -0.3840802216977939 179 186 182
0.8319374720200026 0.06340844665885131 -0.3851636380236636 121 120 116
0.8292146038829956 0.047761425686430874 -0.38303774323085465 176 182 182
0.8330445562547502 0.048078685704862484 -0.38512634578706834 173 175 174
1.0012781481247164 0.06059984767632968 -0.38081762619550746 70 78 81
0.8321775200314235 0.02755529280259367 -0.38497077129453894 175 178 179
0.8533365072981894 0.025267901323295615 -0.38358006448306053 29 33 28
0.8330637866813845 0.009032962649171824 -0.3844802589202912 168 167 167
0.8318101304807495 0.0010788923278324516 -0.38411696388576727 155 155 155
0.8320513743845286 -0.01648775320981014 -0.38429501715675035 160 163 164
0.8296215891422384 -0.030546423383341275 -0.3839480428287839 165 168 167
0.9171581767034245 -0.07550123873399137 -0.3828439420425093 14 20 20
0.9611604901276669 -0.08914679813715347 -0.3788440846588015 178 181 180
0.8313435047279777 0.06265704191917101 -0.3850492943220316 178 181 180
0.8317086536667906 0.05836233441539877 -0.3846133239689937 184 184 186
0.9695781280402648 0.04009823314287336 -0.37975563445526805 54 62 63
0.8326891550594822 -0.025878856487367125 -0.38448837334324826 161 165 166
0.8293809068506748 0.08852064758889573 -0.3848942272487243 186 189 189
0.830793709457554 0.08441435343200225 -0.38491314968324075 181 177 175
0.9889733380954432 0.07046552248554544 -0.3792177270218647 56 57 57
0.9421199380408716 0.051001519932534434 -0.3831628916346343 22 30 29
0.830649367248561 0.03832927309594671 -0.3851241875936474 124 121 123
0.9661590558721658 0.04586496280166302 -0.3811098540454363 40 48 47
0.8308876795808063 0.025769339388860425 -0.38486181185902274 115 115 117
0.8330579155531102 0.0145346016921511 -0.38434726361624155 119 115 118
0.9971485762892096 0.017898869689160983 -0.37986835605176844 52 62 65
0.8307127839677787 0.008081045764679669 -0.3843254025371722 124 123 125
0.9422036733792343 -0.011839676259537947 -0.38236531269335444 27 33 33
0.8316005519357463 -0.01880426398176697 -0.3849360554224954 106 106 108
0.9273062140657291 -0.06267002180239388 -0.3808686821579582 139 147 144
0.9273062140657291 -0.06267002180239388 -0.3808686821579582 139 147 144
0.9560437050464621 -0.08057348700770547 -0.3810805008181121 180 188 187
0.8313672640198191 0.04810733804361322 -0.3848184651510469 170 169 171
0.8299790909663369 0.04769808142459708 -0.38513308634518845 189 192 193
0.8326791441016871 0.040116614518453574 -0.3815329941328383 133 129 130
0.8313685901833547 0.03848061319199989 -0.38339334637139205 180 186 186
0.9991917663754779 -0.026606543649269496 -0.37496655222725656 44 52 51
0.8327775681350338 -0.029284063400210166 -0.3847707939927421 175 175 177
0.9071950920798275 -0.03490767995937687 -0.3825824899303104 24 30 28
0.8544177402056528 -0.03715049035351704 -0.3854734507982945 23 29 27
0.884902201250249 -0.04397423847683388 -0.3825454690897957 15 18 18
0.909192418310912 -0.06908965313008258 -0.3788671866623692 19 21 21
0.909192418310912 -0.06908965313008258 -0.3788671866623692 19 21 21
0.9174633079819186 -0.07560884473837888 -0.38347487623754634 14 20 20
0.8796017490617701 -0.07541507371171864 -0.38347234259718793 20 20 20
0.8635986271022446 -0.08967996102749053 -0.3797430279029162 16 20 15
0.8786353342411902 -0.013188288136487203 -0.3850274085730401 12 18 16
0.9102867475690963 0.05615384031913155 -0.3830933786426548 16 22 20
0.8296542946997116 -0.023758816705796725 -0.3851341551048766 159 167 168
0.8333485926091682 -0.025478226037319193 -0.38412307429251963 110 116 118
0.8297346366965789 -0.02605839901724812 -0.3826277695070965 155 166 166
0.9795386983790982 -0.037988047644255125 -0.3805805689714959 47 58 56
0.8315246057754482 0.10047573826583184 -0.3852956475051195 177 177 179
0.8313578912253308 0.06267699634212574 -0.38511761445499326 178 181 180
0.8304626737590861 0.05325664529430175 -0.3842299426192575 117 119 120
0.8843202452348107 0.02460203258863955 -0.3831406912717749 167 175 172
0.943204586975851 0.025303125460167164 -0.3843505247952324 47 55 54
0.8313386735247806 0.0048338869590365445 -0.38344487637420027 163 170 173
0.982595612891428 -0.15030060263700387 -0.37995381073402973 20 23 22
0.9987891617961598 -0.15764987239434045 -0.37796918771877697 12 15 15
0.8317356913299728 0.06307680851616862 -0.3847731299327582 171 170 174
0.8739467753439567 0.06145295016526478 -0.3855765866622472 27 33 31
0.8315106892951638 0.047463251797331234 -0.3853841213417075 112 110 112
0.9962013772468059 0.04413365606648657 -0.3816940851937982 64 77 76
0.8315351854808601 0.03271710021320003 -0.38394588364853033 182 181 183
0.8320441468648766 0.02483150301933823 -0.3844365615561929 141 138 141
0.832057937058943 0.020574213458031867 -0.3848838785449988 107 106 110
0.832057937058943 0.020574213458031867 -0.3848838785449988 107 106 110
0.8316214982197231 0.01984111874884628 -0.3851516486564164 178 179 183
0.8325480554412326 0.008223140042721386 -0.3846063918014974 91 90 88
0.8310425211757962 0.003179471839314607 -0.3847412824769689 115 114 114
0.8299623008673486 -0.0002701583740387191 -0.3848338525519694 166 172 172
0.9102345062771903 -0.006428153501636653 -0.3829076336646738 22 29 23
0.8794338088117983 -0.012411229142896553 -0.3850547135531224 21 24 21
0.8794338088117983 -0.012411229142896553 -0.3850547135531224 21 24 21
0.8544728028302961 -0.014030298692670572 -0.3871594762316598 21 25 22
0.9300166240177429 -0.025411663526347085 -0.383924282979016 16 20 15
0.8321843968611545 -0.022004494657107538 -0.38483306876095286 161 164 165
0.8330397886883272 -0.0238602752364606 -0.38426918027384654 107 106 108
0.8330397886883272 -0.0238602752364606 -0.38426918027384654 107 106 108
0.8304044654497871 -0.03029634695463298 -0.38476183028267 132 132 133
0.8304044654497871 -0.03029634695463298 -0.38476183028267 132 132 133
0.9156090358946288 -0.03784949027877838 -0.38039930422797497 20 23 22
0.9160156564495818 -0.038190850350238136 -0.38130891620583673 30 34 29
0.9489978517786991 -0.043866971771232124 -0.3825873293227659 25 31 33
0.8783893842001744 -0.037893068160513986 -0.38151886584105515 23 23 23
0.833305954155055 -0.03652855802159837 -0.38474685493633043 116 116 118
0.833305954155055 -0.03652855802159837 -0.38474685493633043 116 116 118
0.9105079263330281 -0.06984377942739123 -0.38274591500692373 18 22 17
0.8795298472163244 -0.07548360613596294 -0.38380117190977475 21 18 17
0.8313192453926098 0.11175648124633424 -0.3867163252759123 184 181 182
0.8313192453926098 0.11175648124633424 -0.3867163252759123 184 181 182
0.8295025110091565 0.07176102058765782 -0.38538698796419063 181 182 179
0.83142822755472 0.018028125827909424 -0.38439017552018456 184 186 186
0.8307141891877845 0.009543422495223003 -0.38455692304604505 142 141 143
0.8788877826591381 -0.006619474590479162 -0.3836550428155781 160 166 164
0.8330359475087086 -0.014587580780689793 -0.38449667372434004 128 128 130
0.8314186838734482 0.09977822182030455 -0.38718373068172496 186 185 185
0.8311779994159961 0.08537199584322366 -0.3831121572278683 186 189 192
0.8311992956605381 0.07754166933364323 -0.38237202940745635 119 116 117
0.8325945787925968 0.07418831149645987 -0.38279470350416095 138 138 140
0.8291080462980253 0.06618206940486329 -0.38330421340967996 180 186 186
0.8312217792594463 0.050303477416356525 -0.38398114058707317 198 198 202
0.8312912239772484 0.06794304169350972 -0.384873331429069 198 197 201
0.8313529571969553 0.06395606073689816 -0.3841053948481759 197 195 198
0.8326185529752979 0.05971937636168725 -0.3847310410906994 163 162 164
0.8323130726061375 0.037719422044408354 -0.3861798971070241 131 128 131
0.8326746047642927 0.031211349782970757 -0.38626456548948557 193 194 197
0.9175546896714801 -0.006774132118779567 -0.38491537296462913 186 189 188
0.8846288330563639 0.08295971303883334 -0.3863656171997932 34 34 36
0.9731947383999794 0.020001840299527746 -0.3809877056385547 47 53 55
0.910467283846945 -0.03832101905986432 -0.3827922029949193 184 187 186
0.9162605437740919 -0.0436904055292993 -0.38168780291744336 182 182 182
0.9162605437740919 -0.0436904055292993 -0.38168780291744336 182 182 182
0.9868783179957474 -0.06269042123754325 -0.3811629978303655 199 199 201
1.09228136480818 0.25464624427856025 -0.3870269600965204 70 67 62
0.8313259555309364 0.09751420013824613 -0.3861779042239562 128 125 120
1.0856805413924255 0.12227715665068027 -0.38663872885443434 115 119 114
0.8311548922158574 0.09210605291275606 -0.38488829501357347 120 116 117
0.8327539446073735 0.09080139555419929 -0.3847067491986187 189 189 191
0.8526132236111877 0.08769190934667238 -0.3814849835463257 25 29 28
0.8526132236111877 0.08769190934667238 -0.3814849835463257 25 29 28
0.8303897422909462 0.08529171870186644 -0.38542715519170256 134 131 128
0.832307889802195 0.08457574381853283 -0.3855003272086043 181 177 178
0.8296074683777298 0.08126865157410036 -0.3865356139155882 185 188 189
0.8326346824803205 0.06685196177919106 -0.3837844274427319 186 185 187
1.0768702043799576 0.06284148789517682 -0.38460511395763436 94 95 96
0.9427719746032133 0.0511542939826692 -0.3844675705560629 32 38 36
0.8310015819005322 0.04151304614973726 -0.3846339196351245 175 177 181
0.8314804293488357 0.03874845982622411 -0.3842262747844588 178 180 182
1.0019435144179762 0.034680872965888086 -0.3794324964263971 57 67 66
0.8324321549492539 0.03111074580793855 -0.38436556131431676 193 194 197
0.8319933498419678 0.027503258331498415 -0.3847995428606687 174 174 178
0.9729491799333344 0.025017236732493505 -0.3806471619676834 182 190 188
0.8330308816283812 0.021714431801691674 -0.3845745486216392 173 175 176
0.9109370952585054 0.0196383228073708 -0.383797430206236 21 24 23
0.8328617884778812 0.00906765812428793 -0.38381076596069763 162 161 163
0.8315017056897716 0.004944961731579715 -0.38439755647638124 164 166 169
1.0015800563701154 -0.012957737268228572 -0.3779262965671774 55 63 62
0.8350313579575658 -0.024311881442499374 -0.38517803837885306 166 166 166
0.8844889888594685 -0.043525317265859675 -0.38108591397302544 17 20 19
0.8314842293524218 -0.03899865133339065 -0.38488146923880023 88 87 89
0.8852536731978256 -0.07556918120920501 -0.3837208673673006 160 160 162
0.8848781423182218 -0.0750964729023041 -0.38234132009503985 136 142 140
0.9627384454106361 -0.09386274173966629 -0.38115369760272605 36 39 41
0.8301139513870834 0.05961483657745522 -0.38467899536762307 141 141 144
0.8338208452304423 0.010033036752263726 -0.38363981272624537 172 175 176
0.8299341570218363 -0.0036452901373877507 -0.384675952031378 116 115 116
0.8310529453650487 -0.010362874911170907 -0.3843810745812366 108 110 110
0.8300711164978612 -0.012867722640437552 -0.3846395030221343 165 167 169
1.0023043238192917 -0.03623347745939003 -0.3785022902399256 56 64 63
0.8326432551725055 -0.025947233378592047 -0.3847598562274676 160 164 163
0.8315265571446758 -0.02587785681464213 -0.3841824834557763 160 160 159
0.8601329161223824 0.011757155583712523 -0.38409161621809856 167 173 173
0.8332540869166789 0.01257290619655661 -0.3841558503537241 167 164 165
0.831810993949701 0.012565978720920813 -0.3851971854649728 138 137 143
0.8299988442047697 -0.004006495746513255 -0.28232163285510725 166 166 168
0.8315351602810108 -0.025838427532109343 -0.3840836215655195 160 160 159
0.9111390678910192 0.08303384208827833 -0.3859074597840144 28 31 30
0.875191892251685 0.07866751066450924 -0.3835013252739937 30 29 29
0.828143701042432 0.06802258783921775 -0.37688055784026797 186 188 188
0.8310667912198461 0.04156437374142173 -0.3855933653541164 175 177 181
0.8319986579515933 0.03755583935105605 -0.38382181973688934 108 106 108
0.8323210355902602 0.029509903702942618 -0.3831428864711884 196 196 199
0.830779966668579 0.024298499982712083 -0.38355960071205186 121 123 124
0.9095631900731804 0.018537145693887466 -0.38340670160936274 32 35 36
0.9095631900731804 0.018537145693887466 -0.38340670160936274 32 35 36
0.8670472888456052 0.0007277522002540377 -0.37930596305219666 25 25 25
0.830366572206259 0.10072657026852967 -0.38143089613737813 198 195 198
0.832080205694737 0.08530849770957295 -0.3852507489611514 131 127 128
0.8320634903699676 0.0824669500663111 -0.37816630294339654 140 137 136
0.8311795948818362 0.06244591629899136 -0.3834570425961826 189 187 188
0.8312004193108309 0.04721764760002144 -0.3830140281423909 106 106 110
0.8314110908282469 0.04334449050807856 -0.3833689077072596 180 180 182
0.8314607520535413 0.038737174224626914 -0.3839836108609763 178 180 182
0.8310811664784546 0.03709854958424746 -0.38334679252313025 179 182 184
0.9157664504449249 0.025190259570485738 -0.38117114125073814 34 40 39
0.9109774418226574 0.01963657410328675 -0.38389003131168525 25 25 25
0.8620072405773835 0.00358856893191255 -0.3767765541649166 190 190 190
0.8847604255120805 -0.006818589653666274 -0.3832330417932215 30 34 29
0.9272301841190245 -0.0512225672427546 -0.38188166973356585 24 27 26
0.8730305850027404 -0.05997178119154796 -0.38789274669323426 32 28 29
0.8730305850027404 -0.05997178119154796 -0.38789274669323426 32 28 29
0.9426543735523626 -0.07541066728424616 -0.3823726810857994 30 30 32
0.9037506402906419 -0.08920270200789436 -0.4074040188339148 24 24 24
1.0833508140032946 0.16906577165067252 -0.38265125826135865 82 83 79
0.8957756398546242 0.035790893430749274 -0.38336103703117874 172 178 178
0.9167487352816234 -0.0067561659187519215 -0.3835568642606578 159 168 165
0.9182844580711518 -0.01338511043372982 -0.3848384313337137 20 24 23
0.9182844580711518 -0.01338511043372982 -0.3848384313337137 20 24 23
0.9548705918381003 -0.0337603025671416 -0.3812822944483662 35 38 46
0.9110257203833645 -0.07031413939772746 -0.3840622372038952 21 21 21
0.8759682602558735 -0.06680564790847117 -0.38429660547715044 21 21 21
0.8759682602558735 -0.06680564790847117 -0.38429660547715044 21 21 21
1.0742413791624623 0.11855344860967112 -0.379552544280006 126 129 128
0.9981113194580138 0.034886654103298394 -0.3799655883971206 55 63 62
0.9396789347908266 0.025399665568123096 -0.37833248232374866 40 46 44
0.9729403837103245 -0.006139913131338615 -0.38119099052102134 51 56 58
0.9161934502710989 -0.012132017686543943 -0.3816710531662277 34 34 34
0.954585646173107 -0.033760921206449745 -0.38077650016039993 44 44 57
0.9836616732742497 -0.06617267433112599 -0.3806338024292142 41 44 47
0.9501083186167009 -0.071011072028718 -0.3846436816201347 30 33 34
0.9801452500409646 -0.07507636167104204 -0.38019133508258535 37 40 43
0.8310287044652823 0.14005024574293803 -0.3879125200395904 193 189 190
0.8319302393647251 0.11707665820021097 -0.38694357370590476 191 189 191
1.0820189294596843 0.09158396496833801 -0.3839233629732846 88 91 92
1.0793667428690232 0.07434839064152335 -0.3839733251496702 126 126 124
0.8318542980506318 0.04026772142431401 -0.3842656181557927 176 176 178
1.0869952324301058 0.05052184241430381 -0.3945984718962966 103 103 104
1.0787357068396004 0.0415549466667124 -0.3846292850513648 120 126 124
0.9579500770634388 0.029118812843134785 -0.38062535221994304 36 39 41
0.910743692991678 0.019607294442938475 -0.3833421137305899 21 24 23
0.9550104798092434 -0.030955737667443545 -0.3815830987007951 176 184 183
0.9166281555852979 -0.04382594569029685 -0.38275843663938525 157 160 159
0.9423341558431956 -0.07482360746236126 -0.3813100632905768 26 26 27
0.8960224417424283 -0.0834201890626686 -0.38288064248084597 23 23 19
0.8315808299885187 0.036215488947615844 -0.38416740844084785 117 113 114
0.8320788088336698 0.024366368569236147 -0.3840963765687171 116 112 115
0.8320477326000092 0.024354140814445733 -0.3841087002731932 116 112 115
0.8331587010836577 -0.01377242193982933 -0.3840433058617796 162 165 164
0.8331338501068255 0.13752887682359738 -0.3860754776786524 187 186 186
0.831065483771731 0.10238470841328241 -0.38694948851747263 207 206 208
0.8310088027864666 0.08019564558620544 -0.3855487812188702 183 189 191
0.8332431934378777 0.051476710051722975 -0.38442135714342485 189 189 191
0.8310861233200125 0.1372133459958537 -0.3906350150466101 119 119 115
0.8321547762111077 0.11203525114971545 -0.3861429348924862 190 185 188
0.8290204844584692 0.07666911763452261 -0.3868253126185137 191 190 190
0.9952487443133424 0.07743076171457282 -0.38295905743596287 65 73 74
0.8313996215199747 0.06103256114264607 -0.3863501808506465 183 182 183
0.8315787207445925 0.046548282460844526 -0.3857112330295428 148 147 149
0.8319819516294314 0.04487346545854049 -0.38432942266655035 124 119 123
0.8315559521763828 0.024980600117156092 -0.38408574582535326 176 176 178
0.9806996736035566 0.11527548519629706 -0.38433423839240016 64 72 75
0.9113229399426744 0.056543664896742236 -0.3856820008647933 26 33 27
0.8320532297661585 0.02974362171409381 -0.38435150351218034 178 178 181
0.9723198131088351 -0.006476362638246336 -0.37943030037292585 55 63 62
0.9426164038795286 -0.04378005257676547 -0.382669563274739 185 186 182
0.919706805938268 0.09113675302239413 -0.3914462869249949 26 32 30
1.0021166738731009 0.08877214517237109 -0.3789180323932035 65 73 72
0.887479473171147 0.058756020361297664 -0.3906593897451172 21 27 25
0.887479473171147 0.058756020361297664 -0.3906593897451172 21 27 25
0.9484001856864409 0.0198207851081096 -0.38311231405289337 41 47 47
0.9793113783637235 -0.011806331618056132 -0.3801141199016944 52 58 60
0.8307895372787455 0.11785265204671648 -0.3835864688114991 184 182 184
0.8289784449535086 0.11045201820199459 -0.38516549089822927 194 193 193
0.8317186039465252 0.08735107021251508 -0.38384228617249977 141 137 138
1.0883413714116776 0.12059557324743259 -0.39031434456613506 106 107 103
0.8325632959219685 0.08329420542005307 -0.3832914945138212 144 137 134
0.8312450251940631 0.0815097449402495 -0.38452157131840736 180 179 179
0.8302574835647447 0.08092152224531583 -0.3841202414482047 126 123 124
1.0722945260363983 0.10604563709489452 -0.38065675610783495 126 125 122
0.832897095886492 0.07368251448083873 -0.38487271505659826 139 133 135
0.8292703178852732 0.0663885954100734 -0.3854819682616996 187 187 187
1.080167348034513 0.08617211395090617 -0.3854468387525318 119 123 122
0.8296631726941732 0.05216323893033747 -0.38559899542111276 181 184 185
0.8630575978199695 0.037371080944190276 -0.38525534059757083 19 25 23
0.8313844234630728 0.034150925817171475 -0.384051879173805 178 178 180
0.8315899719245481 0.02503724607765856 -0.38452890783337423 176 176 178
0.8320898924702286 0.024436060165401504 -0.3848151928225886 116 112 115
0.8310542415067261 0.01299031781185411 -0.38476158599347965 112 111 114
0.8310542415067261 0.01299031781185411 -0.38476158599347965 112 111 114
0.8341747811797263 0.010225691988008694 -0.3848809862144808 173 176 177
0.831465420609072 0.009939386317548473 -0.38404733315672424 175 175 177
0.8323659239265616 0.003170826104912291 -0.3853276463345922 123 120 119
0.9803722017209239 -0.006449653076674189 -0.3816853176562984 179 185 185
0.9731063690522891 -0.006498083606416215 -0.38055022064750466 44 55 55
0.8324070686437037 -0.010493950230700372 -0.3855344472493289 106 105 107
0.8309841920314637 -0.013321591074786516 -0.38461284745319857 107 107 107
0.833526794297051 -0.03525426832651205 -0.3863673561609779 121 117 120
0.979602360299614 -0.07478168908993066 -0.37981981085148653 28 33 37
0.832905176587731 0.022487542594742803 -0.38473347587897366 169 170 170
0.8330036182080672 -0.008351770899691795 -0.38438985044289564 104 98 101
0.8310460860665982 -0.03826033829104437 -0.3852731385274327 162 165 168
0.9665803873365798 -0.09378861154213743 -0.3797411271739469 181 184 185
0.830901315103574 0.11658436447874909 -0.38630087280663067 199 199 201
0.8785344807023322 0.08706423925545444 -0.3828211458588292 27 27 27
0.8785344807023322 0.08706423925545444 -0.3828211458588292 27 27 27
1.0847806827781346 0.04025147027808275 -0.3865492094249804 119 123 118
1.0745514267821081 0.036128675305497994 -0.3800234893189722 120 126 124
0.8324212895416364 0.004476653069105144 -0.3834550126632061 132 129 126
0.9904189646850586 -0.0018329518320118533 -0.3807217744133929 55 59 59
1.0787342995223717 -0.00674613890220695 -0.3858977592622194 132 136 135
1.0028535829614436 -0.03736733764335028 -0.3812631942725494 60 68 69
0.9832790142007064 -0.06590593947254526 -0.3800174889043563 41 49 49
1.008224222735223 -0.15265148537053164 -0.3772548610129036 19 20 20
1.010753145686687 -0.15696352439325986 -0.3841854536249215 32 38 36
0.9851546658914678 -0.1624613782993195 -0.38462885139333197 31 35 30
0.8286069490574525 0.07630250089675605 -0.38606951218740326 183 183 179
0.8313689216495226 0.06666844301595694 -0.38541852514775166 189 189 189
0.9160696580212032 0.05090441849263686 -0.383431178050291 28 31 32
0.9734694195454981 0.05147523847765038 -0.38189925341947295 181 181 181
0.8756291172343708 0.01568107221278647 -0.3842416613206542 22 23 19
0.8756291172343708 0.01568107221278647 -0.3842416613206542 22 23 19
0.8792327032622398 -0.012471076623660217 -0.3846878209008892 17 20 19
0.9162770137462359 -0.011881690644881093 -0.3830770389261201 24 30 30
0.9162770137462359 -0.011881690644881093 -0.3830770389261201 24 30 30
0.8311913265204964 -0.026739998468444905 -0.38476587723589023 112 114 111
0.9074277098524764 -0.034841270634942814 -0.3831909716234507 24 30 28
0.9104697504684507 -0.038346833520603966 -0.3824213281805415 167 177 170
0.9810600478390037 -0.15664269167882067 -0.37860478981377416 18 18 18
0.8320223259756779 0.08084070944622274 -0.3857345369508751 135 130 131
0.9790228163113361 0.02510551256084857 -0.37997019677673294 74 82 80
1.0806497884495179 0.21892787219269155 -0.38648887384975406 41 42 36
1.0875259144646867 0.20835742223772807 -0.3940144202840777 41 41 37
0.8320815007455626 0.08105860978809275 -0.386221081687304 128 126 123
1.0820292233170845 0.11420441887989087 -0.38571802503312025 83 82 83
1.0758504958210355 0.11027247494047743 -0.38114750998849095 100 102 102
0.9863490680165249 0.07514829039618108 -0.3803599953595761 44 50 50
0.9888818033232698 0.0701437638629874 -0.3787969007545964 57 57 51
0.8315903926827201 0.04665184228732684 -0.38605152847559665 121 116 117
0.8793019066570064 0.050864389846569526 -0.3862558760970597 25 25 25
0.8323297276899708 0.03107585887994884 -0.3841493096039127 189 189 192
0.9916582809298535 0.026705232622867347 -0.3792890737349307 56 64 65
0.9784177752300566 0.019536628543940983 -0.3793919118876204 183 189 189
0.9785433650972323 0.01949796881685419 -0.37956647861091725 183 189 189
1.079220032495415 0.014594048538595783 -0.38580398745703204 107 110 111
0.8297741735540675 -0.0037954728171493033 -0.3830733158454388 122 121 124
0.9999217284360071 -0.009938314168477626 -0.3818572923017619 57 62 67
0.8309955427598659 -0.02860960371664221 -0.38328134486420484 116 116 116
0.9177394336008654 -0.07612470673106521 -0.38177578792719613 21 24 23
0.8761084436024783 -0.098771901000102 -0.37450000158773916 18 21 20
0.8768876146903376 0.11358049107984083 -0.38798099981065387 25 28 28
0.8315729014360026 0.06836762275873995 -0.3862415441271023 171 170 171
0.8307581414352884 0.062004489218258206 -0.3853938984851084 135 135 134
0.8314182713527511 0.04054752075916657 -0.38301296831902987 148 149 150
0.8323396409542109 -0.03957160065555048 -0.3835127672502473 173 176 175
0.8318337333637289 0.03508278914749615 -0.3845120840962827 133 127 129
0.8323497915914608 0.10260887574676267 -0.38741096287970955 200 203 206
0.8331719427232767 0.08144433206568791 -0.38548293901073555 200 200 202
0.9546671853704 -0.03102371217502511 -0.3810153206235371 200 200 202
0.829739641341629 0.03811805832790467 -0.38498012530671066 195 195 198
1.001137778590403 0.028161185411800377 -0.38034931481481193 70 73 74
0.8532533427612431 -0.0756201656477653 -0.3824852339123714 24 24 25
0.8789180339811378 0.08809478290624743 -0.3849017297049759 19 25 23
0.8324088589138758 0.07365538920942002 -0.38499892409688347 137 134 130
0.9413173325526194 0.08758304219106634 -0.38165457675672 38 46 43
0.8309305288216037 0.07073365560349813 -0.38520441385742427 176 175 173
0.9380549917593061 0.059227292339672395 -0.3814936525650268 43 49 49
0.8307385335787085 0.04550436826481316 -0.3840438267151325 157 160 161
0.8293111106114694 0.020820828241710405 -0.383867821175131 170 174 173
0.8315157326565451 0.008830256162044574 -0.383983740536407 161 169 169
0.8308629157541499 0.008123881320037886 -0.38444112187252005 109 114 116
0.8308769320842553 0.0005867142586668194 -0.3843528049115667 117 123 125
0.8330625060772554 -0.017060980198889554 -0.3841933914234402 160 166 167
0.8309492177444636 -0.018728715091488286 -0.3835178823974433 110 113 112
0.9975208614788171 -0.013311282631826108 -0.3790695068348062 68 77 77
0.954645659415916 -0.033648823210574254 -0.3813820795314202 45 44 46
0.941871623245637 0.024852382972653606 -0.38228394383088465 53 61 61
1.0036178153993984 0.028308615422770415 -0.3835685913796746 87 98 96
0.891089640397547 -0.022959784286056686 -0.3816757855950702 184 184 184
0.8309579466361731 0.13041217260955815 -0.385602224858475 205 205 209
0.8309579466361731 0.13041217260955815 -0.385602224858475 205 205 209
0.8297403612536544 0.12261108569951829 -0.3866139195547859 196 202 204
0.9394440832535284 0.11295562101420487 -0.38103167304119456 46 54 53
0.938655158327775 0.0558601437718127 -0.37759814654804796 196 202 202
0.9537479495972744 0.05834915691692169 -0.39151310111581705 49 60 58
0.989507466157726 0.04393269363843596 -0.38124835624170844 63 74 72
0.9092640199206576 0.019342257573940997 -0.38113592483673253 31 37 37
0.9929619828671706 0.0434647806853699 -0.3777546064646328 87 98 96
0.9800239588188229 0.03698339333497424 -0.37177035278691706 78 89 87
0.9485555953927816 0.01955492742865724 -0.38253356617991824 48 54 56
0.9485089932635294 0.019561869852307442 -0.3825434883908393 48 54 56
0.9965180185343953 0.0343237652513503 -0.3728602387181411 80 86 86
0.9301181424403385 0.17823364204599318 -0.3878354061760457 26 26 22
1.0691820872057796 0.11603625157393514 -0.37443791065338383 128 132 127
1.094137063664007 0.10828604720856522 -0.38740624283483244 82 83 80
1.078714702142525 0.09156290052693723 -0.3788979443921382 124 125 122
0.9410225550099695 0.11361199335733699 -0.3832457591588573 41 47 47
0.8852310063178419 0.082640800345568 -0.3861568245938254 32 38 36
0.885196112670542 0.08256522665181364 -0.3858725998280407 35 38 39
0.9172433495312773 0.05092333816909194 -0.38496457645051596 33 39 39
0.9172433495312773 0.05092333816909194 -0.38496457645051596 33 39 39
0.9698719025249163 0.028681078841823627 -0.3817053066672916 61 67 67
0.8967732574331461 0.006178334272601724 -0.38110731783993596 27 30 29
0.8532842314094267 -0.013244683578603289 -0.37963186257549286 25 28 27
0.8787442625424409 -0.012139626073909513 -0.38221710693554295 25 28 31
0.9398911600597478 -0.01264959053439785 -0.3801778830527545 34 37 36
0.9398911600597478 -0.01264959053439785 -0.3801778830527545 34 37 36
0.9099592928670903 -0.04327788347984465 -0.38094815779570823 28 27 27
0.9806855903645646 -0.061414628893721776 -0.3778482408116692 52 47 48
0.97107718086154 -0.06879177566058524 -0.3774285448481906 36 37 38
0.97107718086154 -0.06879177566058524 -0.3774285448481906 36 37 38
0.9639585749700322 -0.08611918410393629 -0.37250996172931916 37 37 39
0.8300821268113872 0.13018775356679757 -0.38567121767358675 167 166 166
0.8310982256915052 0.07284730215044924 -0.3859412387433414 203 203 205
1.0917065582979446 0.1095211380990139 -0.38259358450309133 78 81 80
0.8336364321287062 0.043969511990110795 -0.3818317839820911 199 199 201
1.0879734439590671 0.09735435256479234 -0.3853018957755057 118 124 122
1.0978815792419594 0.08880056593730386 -0.38427573519634955 74 74 76
1.0868180732193677 0.0832905524324378 -0.3823677027401134 114 120 120
1.0835872576595273 0.07430843747974679 -0.38310865599124333 121 127 125
1.0846034595194596 0.05596483804813625 -0.3829984898178781 120 123 122
0.9925924120896256 0.02845469506325511 -0.3828657135247287 71 82 81
1.080964533953962 0.03936565773220315 -0.38329732546219214 130 132 134
1.0941776198947244 0.04089331338442085 -0.38685690780544135 96 97 93
1.081325617723163 0.035567279717195324 -0.3849979317689467 135 135 137
1.0854631839668127 0.031011653153064707 -0.38326468802989744 121 123 122
1.0799802528087252 0.029846594111093347 -0.3826289027940681 128 129 131
1.0859674646956778 0.025128718373393533 -0.38490956949547883 104 104 106
1.088274564195721 0.023318585542551205 -0.38522601516866545 114 117 118
1.0887743470511082 0.01913502041764318 -0.38618294802454867 115 118 119
1.08026949484884 0.018052247299828666 -0.3844380774659216 128 128 130
1.085334011887365 0.01634243836901096 -0.38104774311753464 93 92 94
1.0894589166234183 0.012867174776070113 -0.38460102672187874 98 98 98
1.0817089739710275 0.005975784781702343 -0.38686165426856306 121 124 126
1.0868300291216322 0.003310744361469968 -0.38433788451603884 112 112 114
1.0862950689520026 0.0006737170468444677 -0.3835361923152767 109 109 110
0.991541634561432 -0.06228819333440343 -0.38152979468921283 60 48 61
0.9659361380266143 0.031900779923044395 -0.3804266337635219 185 196 192
0.9905315033202794 0.02789491145384657 -0.3797672002664867 59 70 68
0.8842104617372446 0.01871518216695184 -0.38141768861499536 24 27 26
0.884285154068345 -0.006751660174271108 -0.3811829798185249 23 29 27
0.8788683969971638 -0.012411300135388633 -0.3825914755361245 23 27 22
0.9866225766008764 -0.06515910379463791 -0.3800292513354266 40 42 52
0.9162330931622984 0.08835372296954684 -0.3831408749495087 26 32 30
0.9477700026886636 0.05641394056722532 -0.3825614370092447 42 51 50
0.9576738802951991 0.0291098562342598 -0.38022822997455663 51 56 58
0.9101301021392795 -0.012243292926502886 -0.382033712075559 162 170 167
1.0944508375891993 0.2865616212278331 -0.38680936312212355 32 26 21
0.9688657734313938 0.09158468514231694 -0.38108181204381314 51 58 52
1.0055036556014854 0.050904717512412045 -0.38323422363708104 62 70 71
0.907221114715556 0.03695163882351406 -0.38593007861950657 35 38 36
0.9216663544188956 -0.06477364481887259 -0.381746307143395 23 29 27
0.8310701021262266 0.11079348620267006 -0.38434095882570496 148 145 142
0.8320776401010006 0.06368017147331533 -0.38588237400529146 121 120 116
0.8320776401010006 0.06368017147331533 -0.38588237400529146 121 120 116
0.8328924533251333 0.031684170960624904 -0.3843628644883343 127 134 129
