ply
format ascii 1.0
element vertex 671
property float x
property float y
property float z
property uchar red
property uchar green
property uchar blue
end_header
1.0938051510481552 0.05205934777132812 -0.3885837809306824 97 97 98
1.1036029529857045 0.05370901913127992 -0.3989092391445035 97 97 98
1.0822386654436773 0.04675235851680327 -0.3902899618687469 161 172 172
1.0993361676569167 0.02933659266265259 -0.390645807958578 132 142 141
1.0820650358887804 -0.0014450721824238947 -0.3905005513507508 115 115 119
0.9192901967019895 -0.01211784134916973 -0.38890086697008275 26 32 32
0.8307991428535063 0.08426586411794085 -0.3887539396266221 205 208 209
0.9445963242888834 -0.07583812394536674 -0.38746464340156506 27 30 33
1.0951627671724846 0.1085154995207818 -0.38468617381634684 142 148 143
1.0939870810968086 0.06565662246802062 -0.3891143094238089 105 104 104
1.1046207295616968 0.03527746336060765 -0.3879573206734902 127 133 131
0.8692462103907888 0.009040836840419753 -0.3874963280243515 183 191 192
1.0113753317591814 -0.004942086164406498 -0.37549354947174834 196 202 201
1.0978836878356992 0.14353296617613018 -0.38956788543201926 149 154 152
1.0748623972228544 0.07785218256616351 -0.3878543109445661 190 194 189
1.1057743415993353 0.07221523638637255 -0.39527592222947816 109 116 116
1.0830800736478323 0.06852163337678556 -0.38902372461633467 158 162 161
1.0863742967399292 0.060878701894634686 -0.3998185517736934 188 195 189
1.0929346499162036 0.05334140892259577 -0.3895132281138153 142 148 148
1.1027687286655676 0.0407727918072364 -0.40851430608052275 169 170 172
1.1135573862300256 0.02278915543798051 -0.40680858989740043 105 106 106
1.1172214245506498 0.006232308522258814 -0.40944212644142075 100 103 106
1.0191568662503216 -0.07830461227256441 -0.40252113233342696 49 57 61
0.932971916857049 0.10674108252849114 -0.39256106733030516 33 39 39
0.8738514055936726 0.06572732253950894 -0.3902468401019987 43 43 45
0.856309804740824 0.027891674723997506 -0.39016902753784544 30 36 34
0.8320926539396806 0.1122854129135311 -0.38717270383212066 155 151 154
0.8320926539396806 0.1122854129135311 -0.38717270383212066 155 151 154
0.8730941405654918 -0.001670500504796218 -0.3833839946338549 27 30 31
0.8278375552135225 0.12967816215658087 -0.37399230689184054 200 205 207
0.8301188189042511 0.08026588210291807 -0.38208363375359633 126 121 124
0.8314132839841009 0.08325533754607314 -0.3840621660430155 157 153 156
1.0024212818604066 0.08722363956110928 -0.37813979107713075 85 96 96
0.9434782472356262 0.08380658402680748 -0.38600953105342917 187 190 189
0.8552905757187341 -0.07603283912709106 -0.38840837258605954 24 27 26
0.9065133951533929 0.1097044145970778 -0.3834720232876023 42 41 43
0.8339412814505213 -0.02798865039086033 -0.385642362494361 116 118 119
0.8316726959943015 0.09201201101537425 -0.3843891039458062 146 144 144
0.83064255257095 0.07156813536020866 -0.38261032228018316 137 137 138
0.8351523230524308 -0.027901629628373576 -0.38630343397774863 171 168 169
0.8599309912563878 -0.049245973380872846 -0.3873542798767299 27 27 27
0.8824183390966085 0.09040295198493567 -0.39441146125396653 33 32 32
1.094546534665733 0.011911271113193489 -0.39405379801502716 144 152 151
1.094546534665733 0.011911271113193489 -0.39405379801502716 144 152 151
1.0917669957200287 -0.031678599961544346 -0.3983744906548068 179 189 192
0.974710972653899 -0.0689204672977714 -0.384622844338939 39 45 45
0.998429279627112 0.07376870843238588 -0.3946813137918714 65 70 71
1.096875196185335 0.03703422287121021 -0.4001047933166719 106 109 110
1.1199264372636004 0.03724651251925987 -0.4008571295880536 106 108 108
1.094980968948822 -0.010928530556624011 -0.40023085435417893 149 155 155
1.0966250727541427 0.052138590594667786 -0.4002838903219559 129 137 136
1.0870076538447955 0.02971619012819562 -0.3995829833800276 174 175 174
1.101727410071027 0.01996305867707895 -0.3972515185949107 139 145 145
1.101727410071027 0.01996305867707895 -0.3972515185949107 139 145 145
0.8344252534016005 0.013428429256097921 -0.38574028357405904 180 180 186
0.8318689658052756 -0.03832748346853555 -0.38506803018969016 105 103 105
0.9926498681937274 -0.15073296064641595 -0.3900866592046989 38 41 42
0.8340952854032959 0.06640043273177677 -0.38917587163455064 190 190 186
0.8319927830623461 -0.020759110075860003 -0.3890966509367793 132 135 136
0.8448132116112894 0.007470051568978444 -0.39047524304376063 188 191 192
0.9219730349072295 -0.001158048908484037 -0.38451149698855125 29 35 35
0.8319467890012372 -0.02793337972828442 -0.38620443930697823 127 130 131
0.8319467890012372 -0.02793337972828442 -0.38620443930697823 127 130 131
0.9265451877237569 0.07564210398229927 -0.38290726046362306 187 195 190
0.8327258451770575 0.04357762672198085 -0.3849408614155539 191 190 190
0.8301231790706561 0.08143519032773125 -0.3860202460090437 183 186 189
0.8470991579582371 0.0603230066768837 -0.38987141503264694 192 195 196
0.9784099130903233 -0.011391852072890816 -0.3794436842190673 51 56 58
0.9791110256054555 -0.07378643964928085 -0.3798383961769949 33 39 41
0.9833914088079687 -0.07563399852864965 -0.3859961877768804 28 34 37
0.8341890996157854 0.12836098648327568 -0.38626904805769 195 195 197
0.8792880923962147 0.05078474768506572 -0.3856615330659511 34 34 34
0.9166002288120627 -0.011689933351199576 -0.3826405519143616 32 35 37
0.9098883416355902 -0.06815062863646895 -0.381782412932779 30 30 30
1.0864155944016476 0.10293832132239708 -0.39528512908240226 155 161 161
1.0058246146789627 -0.03641384609203617 -0.384236509361393 43 49 49
0.8783437538412145 -0.10014946895192711 -0.38864598158719155 22 25 26
0.9978116156032053 0.06631050732005093 -0.38800063183936984 195 198 199
0.9299950570652827 -0.05669862356318644 -0.38810443996848265 167 169 171
0.8326831325082681 0.09979704942141013 -0.3853775452389203 133 133 135
0.8338077008133901 0.06747280077575725 -0.3861202039239953 177 180 181
0.8338477075742255 0.063647736427285 -0.3860678004141689 181 183 182
0.9558360772289239 0.043726637143026416 -0.38207137773117716 179 185 185
0.9594263847983044 0.037578597692182775 -0.38277630315192074 53 61 62
0.8332038237588958 0.0382729121101213 -0.38689603489442675 117 117 117
0.8331827649773074 0.03824621531537764 -0.38684547718734114 117 119 123
0.8317443841084954 -0.0376052176702239 -0.3869224526796916 169 176 179
1.0046587890410403 -0.07530057756503769 -0.38170924841964654 44 46 51
0.9403664881112274 -0.0988506825901954 -0.3832677667895233 28 34 32
0.940568026722772 0.08827322535006664 -0.3813852112775653 34 40 40
0.940568026722772 0.08827322535006664 -0.3813852112775653 34 40 40
0.9773055372359464 0.08754678269563812 -0.3799731926636127 72 75 76
0.9706909143149617 -0.04217966552608684 -0.37797613800580127 33 39 41
0.9706909143149617 -0.04217966552608684 -0.37797613800580127 33 39 41
0.8849252028101161 0.08221265807004159 -0.3844035104970952 31 34 35
0.910439658597879 0.08240292227729705 -0.3849823728298372 30 36 36
0.829579524816806 0.06934631961120744 -0.3844534251399768 187 190 191
0.9158252705673172 0.05061489715341321 -0.3815825843877616 27 30 29
0.9158252705673172 0.05061489715341321 -0.3815825843877616 27 30 29
0.9069497995594671 0.03624311663680559 -0.3841528093700454 23 29 27
0.9111624087305791 0.019707681861601684 -0.3854638418415658 25 28 26
0.8857373275700281 -0.04335225474809548 -0.38448326194361493 23 26 25
0.8857373275700281 -0.04335225474809548 -0.38448326194361493 23 26 25
1.0773426762983949 0.11228874380964383 -0.381898996494934 98 97 100
0.9782297080779654 0.08811525412362434 -0.38083936577329 33 41 38
0.8312844794170791 0.08150735236187795 -0.3862796612222586 139 140 144
0.8434346415493248 0.008081285516506586 -0.38163404909035636 178 181 182
0.9271123994882523 -0.0015429787454293254 -0.38235736732565495 29 28 35
0.9734938705808173 -0.005351530082588694 -0.3833189146661167 30 36 34
0.9678617329852348 -0.016033400314155215 -0.38133211556706365 37 44 45
0.9730571896198348 -0.0682747150208814 -0.38138223922718484 22 28 26
0.9730571896198348 -0.0682747150208814 -0.38138223922718484 22 28 26
0.9785986435763862 -0.005794335782988587 -0.37967082014671893 189 195 195
0.854687982294155 -0.013335094621984532 -0.3842159116619081 37 38 39
0.9896203682331043 -0.04617616240750838 -0.3795486742229785 36 42 44
0.9940569368180759 -0.14908039619423835 -0.37628766230852756 21 24 23
1.0838791995366783 0.08311052587255359 -0.39084730280505664 160 169 168
1.079252100083683 0.08265351297223872 -0.39184268302341535 187 192 186
1.1106143471084675 0.03197918193243569 -0.39056315172481676 110 110 110
1.008326052397276 0.02405899873050662 -0.38425045731530444 78 81 84
1.008326052397276 0.02405899873050662 -0.38425045731530444 78 81 84
1.096012225759564 0.016298197237447437 -0.39518105065969167 156 164 163
0.8794825805128241 0.019464100276518608 -0.3847268259020818 180 183 184
0.8796338898656741 0.01948659315157001 -0.3851673581720497 180 183 184
0.901400160769762 0.006603498623815928 -0.3925716983891507 20 26 24
0.951082190898988 -0.044045527182985 -0.38611092060537505 32 37 42
0.951082190898988 -0.044045527182985 -0.38611092060537505 32 37 42
0.9190148534023385 -0.07005973909517639 -0.3877756469880467 168 172 170
0.9190148534023385 -0.07005973909517639 -0.3877756469880467 168 172 170
0.9908280968860288 -0.1527832793254399 -0.38783099163283147 35 34 34
1.0044833608328338 -0.15870067234778798 -0.3839726289387199 32 33 35
0.8549878967296387 0.09050978520524464 -0.3833140990989691 30 36 34
1.1085550188485513 0.09560059985771711 -0.3912911392186756 101 106 102
1.0857633430352216 0.09008017431746518 -0.391961810328946 133 141 141
1.0857633430352216 0.09008017431746518 -0.391961810328946 133 141 141
1.0849500153010612 0.013183129197612145 -0.38100428503678885 97 101 96
0.911404430900188 -0.03798453835853392 -0.38489233124817185 179 182 182
0.9928057316154969 -0.15436820799806045 -0.3907914437897151 35 34 34
1.1020887016833467 0.09336246083708329 -0.398613979792802 152 160 159
1.1092246152009768 0.08487094035866018 -0.3974448068072888 136 144 141
1.107404385709128 0.07776176670268296 -0.3947525641661968 138 144 144
1.0837036024631694 0.0757108092012051 -0.3970015799053607 191 195 190
1.1001175128409164 0.04487507201564996 -0.39469147708143787 100 106 105
1.1079620946370283 0.04007300391244637 -0.3965965787741631 135 141 140
1.102260155098021 0.023972780442457944 -0.395451594259157 96 99 94
1.0947922114035955 0.019523563436283312 -0.3972601441873044 106 110 108
0.9014046191366001 0.006482823916760306 -0.39260935781840667 20 26 24
1.000786635569249 -0.15745400582537752 -0.3929036301167066 33 33 33
1.0886839630048475 0.06522417680642965 -0.39601896772077116 160 166 164
0.8304180797491729 0.04855047915761078 -0.3864358721095969 179 185 185
0.8330667615664158 0.038123898412908794 -0.38621858771495554 117 117 117
0.8354182269362984 0.010707546818998406 -0.3883750613539765 172 180 181
0.833717238155487 0.13198253320317108 -0.38523193260667066 190 189 189
0.8328623182180077 0.04523097354303821 -0.3854294440878004 127 123 123
0.8904665385942214 0.031428200344422855 -0.3857986072213879 79 75 68
0.8905361518002418 0.031500161985374475 -0.38597792541863896 85 71 63
0.8334303033120416 -0.0159171722109504 -0.38808361387347057 171 174 176
0.8789819797430198 -0.09997572732204787 -0.3860271864588556 21 24 23
0.8328802675534169 0.06768045160569067 -0.38641350359027116 135 132 135
0.8349881382113904 -0.026155959686499045 -0.38275988698366903 178 178 180
1.0940465863666708 0.12962373094421012 -0.3807068513604685 158 159 155
0.8321449123378061 0.08178817439042164 -0.3850480946233626 194 193 196
1.078593061284615 0.06477745966777632 -0.38152725868204435 113 113 116
0.8849348086451626 0.056442689757362205 -0.3834850524241823 25 31 31
0.8327096745578346 0.02126244323428227 -0.3852205983918852 129 129 133
0.8325479044197222 0.0042675518199536975 -0.38506570427636894 144 140 145
0.9541470901673719 -0.03272739248338447 -0.38063935905224017 43 41 48
0.8797704848151999 -0.037486358143554346 -0.3853536598383221 25 28 26
0.9000255522410867 -0.0809126537685334 -0.38205568476933016 179 182 181
0.9000783630323147 -0.08093003231714169 -0.3821551205325394 178 178 178
0.9875975879453808 -0.16418935351321293 -0.3863681063533418 20 17 14
1.0944839356091476 0.0684925074856162 -0.3935307137013118 99 101 99
1.0901811955679777 0.05343216218810867 -0.38841971057636426 103 103 102
1.0953065051794904 0.04713587439573972 -0.38819279210492075 133 142 142
1.0967165439983684 0.035520308856316386 -0.389784973037606 104 105 108
1.0936713451768032 0.01817079087741719 -0.3934133736269734 139 147 146
1.103796925312728 0.08343991137824759 -0.3942752103289592 112 115 114
1.083554218504562 0.027402444738183117 -0.3828916577211381 137 143 144
0.983572586029685 -0.07599332931983915 -0.38612169189619744 33 41 43
1.1088025153872325 0.1159631795942578 -0.3951203871031263 132 140 139
1.0825746323881091 0.09700435098915709 -0.39568755552780505 191 195 190
1.1026766059687898 0.07767058003654222 -0.3926104041147235 112 117 118
1.1114642789998483 0.06141382741399205 -0.39300129422489977 127 131 126
0.8902176919011398 0.04572070605276373 -0.38533521692323913 29 32 35
0.8544306686963047 0.08953925936328692 -0.38322681011010323 29 35 35
0.8333882430687682 0.05537966868205989 -0.38617382705546216 109 108 110
1.0802317110753314 0.13598069992420703 -0.385067918290777 145 144 144
0.9809284782841816 0.1114817094141975 -0.38042997905764936 35 43 44
0.8324816790040263 0.03920295075981255 -0.3859552512933837 182 184 187
0.8303324639755594 0.0244467175805233 -0.386564700003659 185 188 191
0.9164722572866341 0.050618833822072884 -0.3834065138243957 29 35 37
0.9065898719339122 0.03658263922389293 -0.3838637412524158 28 34 32
0.8334696125290685 -0.014551342379582366 -0.3858431861918139 190 190 192
0.8306089197866825 -0.02265449865214983 -0.38641033543249276 193 193 197
0.8606483627374361 0.005342308622983432 -0.3839428725574599 192 195 198
1.0844032475350334 0.10653938174567551 -0.3978252076478388 196 199 196
0.9556169300743919 0.08599856673965975 -0.39774116163241674 44 51 54
1.1089499925771478 0.043293417111352386 -0.40145731292768233 141 152 151
1.098093251982691 0.009195160885868288 -0.4011224827932527 111 114 113
1.100501780157881 -0.004648632439008089 -0.4031794818280336 114 114 110
1.1024827318590817 -0.0222966302387975 -0.39910276836287817 100 103 102
1.1024827318590817 -0.0222966302387975 -0.39910276836287817 100 103 102
1.113181774143862 0.0836919538958235 -0.4015207565313686 138 147 143
0.9872601686461728 0.020679284489711607 -0.3943953025188784 195 203 202
0.8610746570116576 -0.0009744657492390483 -0.3956073698320071 35 38 41
1.0852501931453877 -0.004664245193239918 -0.3991224449116016 193 198 196
1.0046551755283712 0.025942089876331606 -0.38223540163458747 58 69 68
0.9978225230962103 -0.15402773610369241 -0.39053499146759385 22 25 26
0.8898325305149973 0.031607946198159084 -0.38512950951715724 58 42 39
0.9819634036672502 -0.0645598065746496 -0.37897524220713197 41 45 51
0.9052413127533839 -0.09573898761086641 -0.3840517164210178 25 28 28
0.8895102181661704 0.031419596877898366 -0.3842010223538176 83 65 63
0.8844091126793543 0.09316879413877258 -0.40070234690662115 31 32 29
1.1009430125691528 0.08346450410668663 -0.40406641256497206 162 172 172
0.9764108610974835 0.035048368619032766 -0.3993096253815575 190 200 203
1.1082338612973082 0.03400664298080084 -0.4044200415484705 151 160 159
1.1185288014788064 0.028245752417746257 -0.40152905821145757 128 136 135
1.1098404094008272 -0.000917778485514139 -0.40391796757117376 154 162 159
0.8915804623152097 -0.011136058535468073 -0.403080252621967 192 194 200
1.1135697486775018 -0.01689873836950484 -0.4048146713580442 145 151 151
1.121365325561709 -0.018884354421043453 -0.40336015684273546 101 105 101
1.012328984926643 -0.06490716453853536 -0.40104454935396433 187 198 196
1.012328984926643 -0.06490716453853536 -0.40104454935396433 187 198 196
0.8790702355679197 0.05016496723747535 -0.38513919391886775 33 33 35
0.8625018618789281 0.07621558137702693 -0.3894880026528247 50 34 34
0.9703284824672255 0.033075266709434885 -0.38865759716445397 202 202 204
0.9562327563811532 0.030855061570258968 -0.38913990867896675 49 55 57
0.8674961678890706 0.10469732990133311 -0.3915014270470078 26 31 30
0.884469168669341 0.04988417306056061 -0.3822411072454238 195 196 198
0.9611093458886671 0.034770264417825644 -0.37917333916025125 38 38 42
0.8547269651001261 0.02690954236897084 -0.38547695541372573 39 45 47
0.879472308196116 -0.0061100089553427755 -0.3844110663508507 190 193 194
0.879472308196116 -0.0061100089553427755 -0.3844110663508507 190 193 194
0.9809253931972639 -0.04605259616478042 -0.3772112740742621 42 45 51
0.8841743168247407 -0.03841219340184874 -0.39967593420080705 32 35 36
0.8910453967208691 -0.04481602037159952 -0.4001066130785261 33 36 39
0.8910453967208691 -0.04481602037159952 -0.4001066130785261 33 36 39
0.9018193767035043 -0.057817202196987924 -0.393428906003516 25 31 30
0.9427896016721349 0.01643912174163582 -0.3724361670292393 40 48 50
0.9667951001739304 -0.008665780273274122 -0.3709931652348824 53 64 64
0.9572210622161373 -0.027367751405882632 -0.3732091732597792 51 59 60
0.9915178009124253 -0.058190642368884986 -0.3701414184938413 189 195 195
0.8860892624904315 0.018375247180267642 -0.3863392726426986 35 37 43
0.8524995264043512 0.08547216955639962 -0.37592550309977824 32 35 34
0.9610019798530378 0.0950231353832429 -0.3718665690303653 32 36 37
0.9610019798530378 0.0950231353832429 -0.3718665690303653 32 36 37
0.8766062335592107 0.053167412439555015 -0.376391560917946 184 187 188
0.9433849553029395 -0.008421495577132081 -0.3734731545947994 34 42 41
0.8307512299552963 0.1128024576408203 -0.378239102079074 191 187 187
0.8282734631320765 0.09423121050940297 -0.3768709249567511 188 189 185
0.9587398811874966 -0.024084713412393863 -0.3817402806242366 152 164 160
0.8872348600276498 -0.029676082980831044 -0.3728049398230033 133 148 145
0.890915613315248 -0.09336200074393937 -0.383332566383456 149 153 148
0.89056467994905 0.03106883112642769 -0.3888356438404234 41 33 26
0.8321895284794761 0.01400208688996332 -0.3871247313646364 165 171 173
0.8322733685224474 0.06928359096935191 -0.38103561149744325 125 121 122
0.8293450350677569 0.03473024507250072 -0.37884433428229874 166 173 174
0.9544428863756932 0.0939645246099796 -0.38448745715526106 40 48 47
0.9567107506668249 0.0437798262812645 -0.3846421476310924 184 188 189
0.9567107506668249 0.0437798262812645 -0.3846421476310924 184 188 189
0.8294314866734522 0.04807118617424143 -0.384295637041571 179 182 185
0.9689267714145361 0.09186480130625448 -0.38124107415159014 30 34 29
0.9265858327923789 0.07572061687657539 -0.38321951776430696 179 186 182
0.8319827854629722 0.06320272853719491 -0.3845985009770096 115 115 120
0.8292852620320975 0.04794803002288633 -0.3845678455882584 174 177 178
0.833121350874319 0.04827207445674687 -0.38632793790425723 173 175 174
1.000160435748358 0.060322728708436066 -0.3802738337954905 70 78 81
0.8323201384398954 0.027845914864864454 -0.38728729180634536 175 178 179
0.8534017230827116 0.02543765588998993 -0.3853584132673109 18 24 22
0.8332273042738035 0.00924536455798626 -0.3869838424935482 157 157 159
0.831938897062424 -0.015880338351189682 -0.38494341602083676 160 163 164
0.8298870278630915 -0.030462275485125444 -0.3889878989898278 165 168 167
0.916706417761092 -0.07494847887871077 -0.38653358473746185 18 21 21
0.9610511455305559 -0.08906526837310466 -0.38342479127153273 187 190 191
0.8316911086463826 0.058286718784848944 -0.3847680750491778 184 184 186
0.8301655929151711 0.03714925661262298 -0.3815310579372675 124 121 123
0.833097832025782 0.014568753950844211 -0.38585346541473714 114 114 116
0.8308129834121676 0.00818455943433916 -0.38714618998064554 125 125 127
0.8315406401804678 -0.01876449307980707 -0.3862889338301629 106 106 108
0.8313026285842089 0.04789322449982278 -0.3844352299481098 170 169 171
0.8296628105283239 0.04666028982532645 -0.3824996927835423 175 175 176
0.8331444367362069 -0.02923246654471713 -0.3899245554198913 168 164 165
0.9045709728067731 -0.034825554391255766 -0.37887484715394565 18 24 22
0.8778060894987815 -0.013290886161846677 -0.38389007288110466 12 18 16
0.9082672483990127 0.05464518930967447 -0.3789709295688345 16 22 20
0.8290629857161421 -0.023880260028651953 -0.3809646183648939 159 167 168
0.8326545562431923 -0.025576727441370642 -0.3799723177970739 110 116 118
0.8291236455783025 -0.026187981733108236 -0.378415915399505 155 166 166
0.9756569515659984 -0.03767355002037118 -0.3776170100103297 47 58 56
0.8310003010236884 0.0981786270392152 -0.38020032598725406 177 177 179
0.8309914059863196 0.05357869175843245 -0.38540707585207384 120 122 121
0.8831844094598847 0.02392409594224838 -0.3808189010234134 167 175 172
0.9409791119700296 0.024637282549270185 -0.38162433121877426 47 55 54
0.8309697971730182 0.00435922148618694 -0.38124768563134087 163 170 173
0.9798536937592085 -0.14802339024983807 -0.38183208739233127 20 23 22
0.83196145614455 0.06347398298804517 -0.3873994574192514 171 170 174
0.8318501334491211 0.04793368626347903 -0.3894173865316027 112 110 112
0.9933980467812799 0.043821796653401336 -0.3789826641325682 64 77 76
0.8325102884944391 0.02514400972792549 -0.3901721098591134 141 138 141
0.8325260498491409 0.020849353856444618 -0.3907028012349572 107 106 110
0.8325260498491409 0.020849353856444618 -0.3907028012349572 107 106 110
0.8320812304734138 0.020113776078031692 -0.39093942227602935 178 179 183
0.8797854288332774 -0.01226367254586992 -0.3893110287733027 21 24 21
0.8797854288332774 -0.01226367254586992 -0.3893110287733027 21 24 21
0.8548545755458511 -0.013869474530880041 -0.3919631241588172 21 25 22
0.929531584015203 -0.025023185924483323 -0.3863276242820975 16 20 15
0.832580826087153 -0.02207248716598117 -0.3908772936556386 161 164 165
0.8334341621887974 -0.023953080351008377 -0.39031625500839306 107 106 108
0.8334341621887974 -0.023953080351008377 -0.39031625500839306 107 106 108
0.830769354228631 -0.030329746785669985 -0.3904248314000768 140 141 145
0.830769354228631 -0.030329746785669985 -0.3904248314000768 140 141 145
0.9154062855155259 -0.03762401845401235 -0.3838583369552551 20 23 22
0.9477087378195744 -0.04315248481375473 -0.38423528592884365 25 31 33
0.8785641038679349 -0.03781817554916179 -0.3860436442840863 23 23 23
0.9091108055054514 -0.06851787074560012 -0.384216197106442 18 22 17
0.8786055830080765 -0.07401414171453577 -0.38526907475443656 20 20 20
0.8306513330599458 0.10937253847406474 -0.37961087454205245 185 187 187
0.8306513330599458 0.10937253847406474 -0.37961087454205245 185 187 187
0.8316901391586494 0.018299733565735377 -0.38818095489314025 171 174 173
0.8310107544920106 0.00977775398400488 -0.38886591187733294 142 141 143
0.8792106839796925 -0.006450789917428241 -0.3874386042083127 160 166 164
0.8334094712939469 -0.014430510961319604 -0.3885343895910603 111 110 110
0.8837712525112851 0.08230841412120625 -0.38350879087309275 34 34 36
0.9756170965392365 0.020005551810310974 -0.38684429826075045 47 53 55
0.9121708365739944 -0.03911110391129532 -0.3907861303490575 184 187 186
0.9181832268918856 -0.04467158365657074 -0.3900817938498373 182 182 182
0.9181832268918856 -0.04467158365657074 -0.3900817938498373 182 182 182
0.9921279003315218 -0.06502795872693426 -0.3927430891294325 199 199 201
0.8310458540695614 0.09647697008991954 -0.3829474470106997 128 125 120
0.8325644581344005 0.09013939846064321 -0.38278364858513264 189 189 191
0.8522203968379147 0.08693591650411213 -0.379472169370971 25 29 28
0.8522203968379147 0.08693591650411213 -0.379472169370971 25 29 28
0.8321953286934872 0.08416655250568487 -0.3843827969165154 181 177 178
0.8295462365312484 0.08098511841601869 -0.3858045442897663 185 188 189
0.8327367122508199 0.0669508487837531 -0.3853068800123138 186 185 187
0.9405492256906836 0.05052492294444522 -0.38094075000134553 32 38 36
1.0005564834054863 0.034393121378157726 -0.37830101065395133 54 62 59
0.8333426002090955 0.021842130911832847 -0.3891794654652412 173 175 176
0.8326950746803302 0.009174384693535697 -0.38432959419277046 194 193 195
0.8351480939874317 -0.02425152712853252 -0.38909385637764315 166 166 166
0.8316984367522412 -0.03901823110054746 -0.38954472935016704 109 109 105
0.8832548381670667 -0.07333965107863669 -0.3821174796671012 160 160 162
0.8835377601506103 -0.0735694725518414 -0.38256745052566965 160 160 162
0.830043458493917 0.05950116003545099 -0.3845431462838504 141 141 144
0.8340313019692974 0.010108226593319924 -0.3873813894251309 172 175 176
0.8301427368808675 -0.0035836590512787502 -0.3888137545342848 122 121 124
0.8312938938555811 -0.01033128337246533 -0.3881520238878594 108 108 107
0.8328789911427756 -0.026002983633027877 -0.38941443630876915 161 165 166
0.8598195468948758 0.011939101329507098 -0.38445356955319915 167 173 173
0.8331015018877124 0.012811743874877352 -0.38469418772625347 167 164 165
0.8316752570639702 0.012825165919932135 -0.38578886294012277 138 137 143
0.8313975503013429 -0.025359962498877234 -0.38575504984070913 160 160 159
0.8947346268577967 0.03557342519181972 -0.3817143635239265 172 178 178
0.9163342735285831 -0.006680914518151227 -0.38519369844868334 159 168 165
0.9178247068999449 -0.013256120624741035 -0.3865489008590293 20 24 23
0.9178247068999449 -0.013256120624741035 -0.3865489008590293 20 24 23
0.9541370443497433 -0.033687225188637766 -0.3832191328486611 35 38 46
0.9103662986485698 -0.06990737213525364 -0.3868107162266948 21 21 21
0.8755072393571223 -0.0663851570119923 -0.38723782772215865 25 25 21
0.8755072393571223 -0.0663851570119923 -0.38723782772215865 25 25 21
0.9984238473844832 0.03459657844929409 -0.38184642215309134 55 63 62
0.9396794505433483 0.02518782652780972 -0.38022727905942866 32 40 37
0.9733974858821892 -0.006426965900796633 -0.38433046131203735 51 56 58
0.916321370429468 -0.012258850959157764 -0.3847943988745715 34 34 34
0.9550962251180651 -0.03414209948349662 -0.3847927551807902 44 44 57
0.9848944353173419 -0.06705811780102765 -0.3861170229996418 41 44 47
0.950986523529349 -0.07172788842818573 -0.39021204686356914 30 33 34
0.9814288382012706 -0.07608220784048014 -0.3860005770832842 37 40 43
0.8296983771613892 0.13457602992228426 -0.37546650550805055 193 189 190
0.8308807979252129 0.11340544091704534 -0.37769569061643515 191 189 191
1.0781814326939962 0.09091777451697404 -0.377008939502534 88 91 92
1.0832841661467334 0.0510144728938716 -0.3896555440873132 103 103 104
1.0759070822851666 0.04180739111013459 -0.38116164941307956 120 126 124
0.910382600527247 0.019579302678940456 -0.38406876203868456 21 24 23
0.954740909663685 -0.03060332036907301 -0.3848144065281924 176 184 183
0.9167498059854227 -0.04353485641082116 -0.3873934771137196 157 160 159
0.9421056212292976 -0.07424213631105542 -0.38663501621871227 26 26 27
0.8963183131895845 -0.08301772547465755 -0.3896362070369338 23 23 19
0.8311434418057725 0.035217549515149556 -0.3816531819746262 117 113 114
0.8316179116737179 0.023503922409218805 -0.38156205877039906 116 112 115
0.8328004368357536 -0.013825010777206048 -0.3830575550561936 162 165 164
0.8308877069647954 0.10157531819728625 -0.38453622079599387 207 206 208
0.8306526789118149 0.07910136986095298 -0.38268292529877757 183 189 191
0.8298366668740647 0.1324405160747638 -0.37915246951603465 119 119 115
0.8314240307893187 0.10984725963085537 -0.38004771212835703 190 185 188
0.8289347232239145 0.0765163574703667 -0.386644834725534 191 190 190
0.9895258580006704 0.0751966290197951 -0.374054160093486 65 73 74
0.8314237604076594 0.06104147235725324 -0.38731642050652193 183 182 183
0.831759261975993 0.046725225469491545 -0.38832756047970807 125 122 121
0.8323008926787507 0.021559892447474534 -0.38109021998046516 169 170 170
0.8325031989223058 -0.00852838452241228 -0.38199228269674923 104 98 101
0.8309750359476216 -0.03778238514908392 -0.38575042482456917 161 171 173
0.8721617565496589 0.012354978484485695 -0.37321744136562734 22 23 19
0.8721617565496589 0.012354978484485695 -0.37321744136562734 22 23 19
0.875116558386168 -0.01469703635874503 -0.3727465721750657 17 20 19
0.9108224154647715 -0.013746074067415608 -0.3728607790416625 24 30 30
0.9108224154647715 -0.013746074067415608 -0.3728607790416625 24 30 30
0.9021854182504352 -0.03561794530378167 -0.3731087421159833 21 24 23
0.9050583313631362 -0.038955177395507835 -0.3724743267483049 154 162 161
0.8315976848005742 0.08004353695859685 -0.38285329481033586 129 128 130
0.9766938648507811 0.02442932908968804 -0.37722051843672527 74 82 80
0.9763907964340717 0.019062921847396254 -0.37784229055313995 189 195 193
0.9766509497524696 0.019061419383273926 -0.3782673612610508 189 195 193
0.8313831157639041 -0.02863743844488139 -0.38868862619141586 120 124 124
0.8309429847623884 0.06639631781144716 -0.38129845771636317 171 170 171
0.8302486183123827 0.06033855024873163 -0.38127365654572937 135 135 134
0.8312696384084419 0.03976147437463837 -0.38170305644721253 148 149 150
0.8327636918117046 -0.03959823193125984 -0.38784331666117516 173 176 175
0.8315692325823851 0.03490222033062025 -0.38404200419373985 133 127 129
0.8321415422658747 0.10173884070817621 -0.38490534107998886 200 203 206
0.8329043521428152 0.08082437195222898 -0.3834178059973966 200 200 202
0.9518351529484476 -0.030753473099697285 -0.37844064695443885 200 200 202
0.8293952933056893 0.03778980660338422 -0.3831701842963498 195 195 198
0.9980771971517068 0.02762342037305492 -0.37763986461907945 70 73 74
0.8524305366568258 -0.07439333632370751 -0.3824761831250122 24 24 25
0.8777124075140414 0.08634218956238136 -0.38080287378003963 19 25 23
0.8319890203178648 0.07205152014992226 -0.38115264418394557 137 134 130
0.9389925971354847 0.08582645647796791 -0.37748679408135877 30 31 30
0.830528354692609 0.06915886227423197 -0.3813592595460565 176 175 173
0.9355366779412365 0.05774319888176661 -0.37745506978435395 43 49 49
0.830252530929548 0.04419389890419105 -0.3802563791036924 157 160 161
0.8288062116803118 0.019946774503172175 -0.3803193330386496 170 174 173
0.8309553962426098 0.008219879422469894 -0.38064192542340625 161 169 169
0.8303199939517046 0.007541438271912237 -0.38111528439973474 109 114 116
0.830328748312238 0.00016811426188984704 -0.3811640530261055 117 123 125
0.832472035699736 -0.017073218459491352 -0.3814256363503007 160 166 167
0.8303959569509178 -0.018723643799720874 -0.38076424002097603 110 113 112
0.9945813408817499 -0.013256162369571492 -0.3773283411145152 68 77 77
0.9523485201927947 -0.03322052831395654 -0.3801258996759023 45 44 46
0.9402647037375583 0.024430985575513847 -0.3804471183797093 36 40 36
0.8899846946472012 -0.02273808941400453 -0.38126584496936206 184 184 184
0.8297129049550874 0.12824548915479222 -0.38081543670800544 167 166 166
0.8310099562127737 0.07253917049095482 -0.38542267938280955 203 203 205
1.0877552909276211 0.10777557045407622 -0.3773768733070842 78 81 80
0.8336401766957305 0.04388165114324393 -0.3832354717547699 199 199 201
1.0841757142979231 0.09589855677969429 -0.3805285755361256 118 124 122
1.0940144765902817 0.08744865245629899 -0.3797973144031714 74 74 76
1.0833850941487893 0.08205291641369403 -0.37841489736147405 114 120 120
1.0802693787012458 0.07322835401590895 -0.3795117009093472 121 127 125
1.0813796740264245 0.05512861289167548 -0.38007330700624564 120 123 122
0.9912971604334141 0.02814305645501784 -0.38245925211948106 71 82 81
1.0778124257048622 0.0387410880545161 -0.38093502216549735 130 132 134
1.0905014086120264 0.04029130684236744 -0.38398273007250816 96 97 93
1.0780743344388684 0.03502399492993354 -0.3826350531906436 135 135 137
1.0821930960364432 0.030472457953454178 -0.3810813532996793 121 123 122
1.0768748614644517 0.02931785157207915 -0.38061519300808605 128 129 131
1.0825621843679896 0.02469480789089311 -0.3827605212960414 104 104 106
1.0847841828433618 0.022909530592129648 -0.38306401487632974 114 117 118
1.0851790026584567 0.0187985486626333 -0.3840414995840834 115 118 119
1.0770067273301427 0.017700555419074226 -0.3826173968073377 128 128 130
1.0820699696261629 0.01590993304285386 -0.37936707525775426 93 92 94
1.0858712732635123 0.012563767400026652 -0.382695933627951 98 98 98
1.0781614897544913 0.005831194863788018 -0.38511614415171214 121 124 126
1.0832046823985693 0.0031202111100448898 -0.38268454323599993 112 112 114
1.082707411588437 0.0004937617098580566 -0.3820111256157426 109 109 110
0.9894612733707009 -0.06177001830786512 -0.3829169591011238 60 48 61
0.965757240489573 0.031788041966585454 -0.3814484357103981 185 196 192
0.9898833492679737 0.02765342297563933 -0.38024853415100823 62 73 69
0.8846441809230569 0.018916627369566442 -0.38484210919905865 24 27 26
0.8845002879089654 -0.006731065358581786 -0.3847242852759242 23 29 27
0.8789950115736421 -0.012364914637901243 -0.3860789918516416 23 27 22
0.9848380376004061 -0.06474799216126582 -0.3818576562201412 40 42 52
0.9157996243631947 0.08792007098763818 -0.381441176229008 26 32 30
0.9465921088311134 0.055869183505871105 -0.3807584206977394 42 51 50
0.9560222931020438 0.028652891918841596 -0.3786008720439451 51 56 58
0.9087839702158312 -0.012157260435721802 -0.3810890142758906 162 170 167
0.9652930937182781 0.08913924338282217 -0.3750544804757631 51 58 52
1.0026418926302003 0.0498888249215934 -0.3801325573465827 62 70 71
0.9065564377869118 0.03666071784573233 -0.38560498552607414 35 38 36
0.92000869387158 -0.06395986283479825 -0.3816146691605256 23 29 27
0.8306708092425269 0.10868174556623236 -0.3796826590675307 148 145 142
0.8314890238897221 0.06190242954026959 -0.3812846962403122 121 120 116
0.8314890238897221 0.06190242954026959 -0.3812846962403122 121 120 116
0.832197544791963 0.03038578053466894 -0.3800858739495228 127 134 129
0.8296918982082023 -0.00389976771153672 -0.3794291209033607 181 181 185
0.8324778892475918 -0.014166756495171642 -0.38071129933717274 175 174 178
0.8302267005406521 -0.01628107439036476 -0.38080731716570304 133 132 135
0.8302267005406521 -0.01628107439036476 -0.38080731716570304 133 132 135
0.9270840888685028 -0.054366587632283886 -0.37928665618108026 165 170 168
0.8789489445694169 -0.07181663900159625 -0.3678521878036958 168 168 164
0.8301572693625741 0.12593248919591382 -0.3773949538496607 188 184 187
0.8311026855401572 0.10381974217087281 -0.3799473099115361 191 190 192
0.8822922606336085 0.05431970907588856 -0.37738883129166667 27 33 31
0.762476431498019 0.07078026293015179 -0.39503085926968545 66 70 63
0.8325042033941407 0.06802454154930865 -0.38635329704626864 148 149 150
0.7713203097406476 0.10062548103444924 -0.38629536815616766 21 20 14
0.7663156217086423 0.07020263039508513 -0.3903293382270271 25 25 21
0.7675045209188004 0.06721093988304719 -0.3917017217694609 55 58 53
0.7714778843654755 0.07585451667272317 -0.3948664162630299 41 44 43
0.7636059365568425 0.05796625632181301 -0.3950088860225473 62 62 62
0.7636059365568425 0.05796625632181301 -0.3950088860225473 62 62 62
0.7685922093957143 0.058446976448821276 -0.3928747069663964 64 64 64
0.7665474574656409 0.046481870994188365 -0.39518286475982095 25 25 25
0.7694805662537842 0.04738154381952366 -0.3936155044039315 48 43 39
0.7642610182008666 0.043112577130190635 -0.39431022741343547 68 67 67
0.7642610182008666 0.043112577130190635 -0.39431022741343547 68 67 67
0.7658452689532831 0.04310734628039151 -0.39522320587146537 30 27 24
0.7643194695564836 0.04157348638441052 -0.3959869285144155 41 38 33
0.8311778019159601 0.06007737550892585 -0.38626340252829544 143 142 142
0.8311800808798331 0.06006561672795181 -0.3861787780538327 153 155 156
0.8302645783495446 0.05333155471943194 -0.3861361342056273 176 176 177
0.8330840368907287 0.04545949983862263 -0.3874620893243866 133 130 129
0.8321874457357087 0.037754236689949046 -0.3873673516977899 183 183 187
0.8796983677953822 0.05684198702463113 -0.3860668433391803 173 176 175
0.9167023681461208 0.05152879350238468 -0.3846052554551845 31 37 37
0.9644914762133746 0.06591942924685971 -0.3826367695860272 45 53 52
0.8854447423714269 0.020111721182740565 -0.3865474613081938 24 27 28
0.8348148586509553 -0.014917905523558287 -0.38585554507605074 164 170 170
0.9831381561428363 0.043115565034647634 -0.38173726402567715 56 67 66
0.8806115496370687 -0.006451764755484204 -0.38826140399382436 161 169 166
0.8313447378690005 -0.030103357720433967 -0.3882364655417824 129 131 130
0.773747561152372 0.10286428124308648 -0.39139592768841897 61 62 58
0.7614344415508284 0.08269536564089562 -0.39313544657134286 44 44 43
0.7614344415508284 0.08269536564089562 -0.39313544657134286 44 44 43
0.7623168754961158 0.08165507049114232 -0.3945277075614296 45 46 42
0.7710293548432993 0.07626013268867136 -0.3913375301609222 46 47 43
0.8320407045636669 0.09080595247343985 -0.38638436399420273 125 125 128
0.8342502690353067 0.07336225871204434 -0.38652984645432603 186 184 185
0.8790912030745329 0.08825174177830247 -0.38489744487110383 31 34 33
0.956418558033148 0.0976764405943269 -0.38539418115227925 69 70 73
0.8725597883850781 0.06752024832116155 -0.38539148296349524 176 184 185
1.0005522503450415 0.0949824728635943 -0.3830379763650315 86 92 92
0.8330925919192916 0.024888983549220034 -0.3865864310304509 113 113 114
0.8324491202655964 0.005462048229202301 -0.38628346066249564 176 182 183
0.9947604882793261 0.042058881550345484 -0.38293230619591706 67 75 76
1.0019571492745105 0.028484217743209844 -0.3814762907752885 80 88 89
0.9488065505795623 -0.005628967650009587 -0.3832334298345706 38 46 45
0.9800638243305682 -0.011456167428213853 -0.38155183560710165 51 56 58
0.9111895740541319 -0.0688534626801998 -0.3852916434309908 24 27 26
0.919038502729428 -0.10075359874115616 -0.3853320547134907 28 34 34
0.9951395824153696 -0.1589132337577523 -0.37936251374180086 27 28 24
0.8324819632379831 0.04696940436047414 -0.3869426800298445 137 140 139
0.8544224207937957 0.02569958577365385 -0.3865624070609373 23 29 27
0.9529894752532256 -0.016301577827870877 -0.38151817671588395 85 93 97
0.9167622830553739 0.11337826877649516 -0.38259038442488985 40 43 44
0.7745860951330021 0.02815364451877527 -0.3913572719825323 57 58 54
0.9247806837661348 0.07536736581759841 -0.3900584176947086 38 44 44
0.92613611335604 0.06745805091250191 -0.38351341457221744 187 191 190
0.8300820808763022 0.03712451431036512 -0.38551512398819565 180 183 183
0.9111101420478127 0.056936171177414674 -0.3851526208269894 33 39 39
0.9111101420478127 0.056936171177414674 -0.3851526208269894 33 39 39
0.8340731390700571 0.020854777136230695 -0.38632297047188524 177 174 172
0.8538571318569856 0.02523956710490783 -0.38506103682624165 27 33 31
0.8324638003685769 0.002958684589178318 -0.38622510241995567 174 174 177
0.8324638003685769 0.002958684589178318 -0.38622510241995567 174 174 177
0.9978054396152207 0.04230314604009882 -0.3806352920450292 67 77 77
0.9900684419436093 0.03670654315174071 -0.38339201872582185 63 71 72
0.8549348437410923 -0.012481965338338048 -0.38821989651844135 23 26 25
0.943566122584345 -0.01160909581361973 -0.38563128351694387 36 42 44
0.9650774399076949 -0.025787258458197185 -0.38620833621966427 43 45 51
0.8324391962228317 0.10641297070203629 -0.3858362321616737 190 186 187
0.8323062777410719 0.10096937609375059 -0.3860484604112314 191 193 196
0.8302371904922081 0.08232170602282525 -0.38610417829987015 188 188 188
0.8637716387205282 0.0378298921931409 -0.385575814979979 24 28 23
0.8962327457047309 0.03620667771477776 -0.383793089727791 171 184 183
0.9349415677403501 0.012873656698476189 -0.3825070622235787 178 184 183
0.8352198979807861 -0.028118795792435973 -0.38641902429672764 165 164 163
0.9860062345114078 0.002005156102134853 -0.3805534535204117 73 78 83
0.8305767556013921 0.09804312819826116 -0.38657453466868125 186 189 192
0.8295854603634853 0.09578373989928882 -0.3855266355023383 189 192 193
0.8344000099231511 0.0734894729431363 -0.38728673854462536 186 188 187
0.8605193558428212 0.06352500290410805 -0.38579570585936085 177 183 183
0.8328533162442614 0.04754040233240595 -0.38776121160213983 124 125 127
0.8849456853026807 0.020059895977939567 -0.38486447913413596 23 28 25
0.8658976846550172 -0.08993572663872522 -0.38683533608816556 17 20 19
0.8330471052133402 0.09805047232676856 -0.3859134204180596 190 189 190
0.8306076868954059 0.09583934893790381 -0.38650635492247787 184 186 187
0.8790553008459864 0.08821146148006952 -0.38488660497202337 31 34 33
0.9106076521709154 -0.011548086803156733 -0.3835190007818428 183 189 189
0.9481122807258826 -0.04278134323716744 -0.3819976272203972 30 33 36
0.885456041240862 -0.07429966843776296 -0.3838974630061013 169 170 166
0.885456041240862 -0.07429966843776296 -0.3838974630061013 169 170 166
0.9886504944630108 -0.15427599483936832 -0.3848892844205857 14 18 15
0.8569475840281778 0.05993563311821944 -0.38502655456605084 31 34 33
0.8323708744343606 0.0055152890892594016 -0.38585149292693505 176 182 183
0.9105554268392397 -0.037361687064371374 -0.3830201255682625 182 188 188
0.9416416088586985 -0.09938132474542959 -0.3825712332060996 25 28 29
0.8582654088842329 0.0768326585481217 -0.38568129120938377 33 34 35
0.9157022190189864 0.025401829464918545 -0.3809459722007052 23 29 27
0.9157022190189864 0.025401829464918545 -0.3809459722007052 23 29 27
0.941815014732243 -0.036827168416820384 -0.38250130071464367 27 30 29
0.8794938830444029 -0.0372762270530554 -0.38391087725289036 25 28 26
0.9300155291128829 -0.054938669223639804 -0.3840648053777894 166 169 169
0.9176460303891174 -0.09768547630633002 -0.3791988018995721 22 28 28
0.9420467473707612 -0.04260433374687019 -0.38216924321880225 185 188 189
0.855032751914884 -0.0759657268009986 -0.38692885050092923 29 32 33
0.9689994242778986 0.11033961919623234 -0.38188349083029166 46 46 49
1.101363981965877 0.10282613189792782 -0.38484483458610236 99 93 96
1.084517125092744 0.10214964831945696 -0.38503689657009327 91 90 92
1.084517125092744 0.10214964831945696 -0.38503689657009327 91 90 92
1.0963657783947247 0.09760859189525788 -0.3838666029737957 108 107 107
1.0933594861748406 0.0947021426905278 -0.38455375766982924 107 106 106
1.0869310331880466 0.09038920176203781 -0.38309382162502814 169 174 174
1.0981069543954545 0.08986389198275777 -0.38226194121340207 163 166 165
1.0914353230268652 0.08864930965695679 -0.3836859032948102 169 169 169
1.0958951754182635 0.0884562436282267 -0.3831108770967874 91 91 93
1.0826054733643842 0.08816492255505035 -0.3850075934285451 160 165 166
1.0913780775944208 0.08563993888892463 -0.383529577366762 166 169 169
0.885640156276657 0.08277074361999312 -0.38815547704884984 29 32 35
1.0976548272924924 0.08127694017141895 -0.38352163817273777 107 106 107
1.0976548272924924 0.08127694017141895 -0.38352163817273777 107 106 107
1.0978227632589614 0.08106144667861837 -0.3865094227054138 172 177 177
1.0801522496617082 0.08037546188167273 -0.3846313281990856 98 99 95
1.094775278747939 0.07653408538650072 -0.3822041542416298 165 170 170
1.0815257692896758 0.07551688330857374 -0.3835299673277676 157 165 164
1.0880817339115396 0.07316574026165507 -0.3846004453587343 109 109 112
1.0938944789182017 0.07093909120971323 -0.3834065993892829 112 112 116
1.0881577392372757 0.07088182867958134 -0.3829384200440027 170 175 177
1.0916250603637676 0.07113478028443786 -0.3850001286382102 166 169 170
1.101966604626652 0.0689423134416544 -0.3844098043282917 164 166 164
1.0956916733015767 0.06837242573659957 -0.38540843584158413 128 129 131
1.099097992842504 0.0645889585115217 -0.38383170337234457 111 114 114
1.0839027936485366 0.06358428689587423 -0.3852829604450091 149 153 152
1.0955191293747628 0.06327895522594534 -0.3845572814066959 109 109 112
1.0955191293747628 0.06327895522594534 -0.3845572814066959 109 109 112
1.0915072123390064 0.06275957638840748 -0.3841609062822199 153 159 159
1.0999755719567514 0.059706933763072845 -0.38385601464248736 109 108 110
1.0999755719567514 0.059706933763072845 -0.38385601464248736 109 108 110
1.0944865808267465 0.05788113608015449 -0.3821201743723049 135 138 139
1.1011740953501128 0.055325169582476796 -0.3825388405427181 163 166 160
1.0945382628613503 0.05411660482091655 -0.38454436386503643 163 167 167
0.8849956481968874 0.056453040052477886 -0.38388943716357926 25 31 31
1.0980695022282474 0.05218374482264848 -0.3832455344431819 165 165 167
1.0955910838808913 0.05020292083034358 -0.3828605359663407 96 95 100
0.9731043242259998 0.051460378656229176 -0.38264311070388923 181 188 187
1.0850593925761796 0.04914108874283997 -0.3833767698609951 98 97 99
1.0939985043348692 0.048672339554924934 -0.3824633228745695 159 159 162
1.084747621257376 0.04498036185580807 -0.38283639415009746 87 87 91
1.0903644309594456 0.04469582008250975 -0.3852424024409855 100 104 107
0.9669577284643714 0.04623250440169658 -0.38254741604053544 32 35 36
0.9669577284643714 0.04623250440169658 -0.38254741604053544 32 35 36
1.091457425729006 0.04189082469633038 -0.38439442530679846 152 160 159
1.082655361493464 0.04044129784921643 -0.3830770924888646 151 154 153
1.0952212525297071 0.040097217073358955 -0.3837608945007547 156 162 162
1.088672579248569 0.03923426562352261 -0.3850630884822187 163 170 168
1.094529789968269 0.03404282000890333 -0.38235055029483284 163 166 169
1.0966436628171266 0.033886095229532266 -0.3829024376948227 101 102 106
1.0966436628171266 0.033886095229532266 -0.3829024376948227 101 102 106
0.928837267232336 0.03733752052544802 -0.3820996796327573 19 26 24
1.0844342490080505 0.030937224813680036 -0.38105902104225853 99 99 101
1.0873846964454705 0.02863463685355184 -0.38270172388645396 166 169 167
1.0873846964454705 0.02863463685355184 -0.38270172388645396 166 169 167
1.0882156008499524 0.027286656805371574 -0.3863512744359768 104 104 106
1.0837559500262666 0.022451149091429496 -0.38772374089042966 104 107 110
1.0805102093436443 0.02034578188136243 -0.38724795185811967 146 152 152
1.0867479807917486 0.018771457193038056 -0.3872090473299344 141 148 146
1.0774367144980384 0.018848593241551026 -0.38411433422001234 147 153 153
1.0972966968617655 0.014097034072052895 -0.3837251821478495 153 153 154
1.0825427444003266 0.014590890127259075 -0.3845962702247489 84 87 88
1.0825427444003266 0.014590890127259075 -0.3845962702247489 84 87 88
1.0910489785625337 0.013137966701491192 -0.38279061761365296 102 101 104
1.0867941054233752 0.008833831373370507 -0.38361561139373085 102 101 103
1.085852598921743 0.007850556699176474 -0.38580010365692397 149 152 153
1.0936748497948579 0.007165324482994049 -0.3859581450024206 92 90 92
1.086549116343696 0.004941362417792022 -0.385042048755896 149 154 153
1.094432418897491 0.00428204418286196 -0.3836196179592729 161 165 164
1.084444114488825 0.004094812055472832 -0.38374058462763305 146 152 150
1.0931820110095618 -0.0008233869593406652 -0.3843958816323175 107 106 109
0.9897355042188866 0.001275805927127355 -0.38145738247491323 171 177 177
0.8853211919695432 -0.005916515180060588 -0.383618613938423 35 38 37
0.9419233635414722 -0.01141564115648712 -0.38338282499235055 26 27 31
0.9169035573415433 -0.01162093082992721 -0.38386371222065796 32 35 37
0.8308771713643656 -0.009132219889354205 -0.38654079567144967 193 193 195
0.9545709835761534 -0.030011232676911272 -0.3818063589277027 163 171 170
0.9603800587256462 -0.05570817896209618 -0.38237080951144153 24 30 28
0.9367364591118639 -0.061947972439308996 -0.38148555799066536 29 32 31
0.921614762167966 -0.06350539621340014 -0.38231698165907607 32 31 33
0.921614762167966 -0.06350539621340014 -0.38231698165907607 32 31 33
1.003157152900245 -0.0743193184045678 -0.37958197864947685 34 37 38
0.8575973351822525 -0.06517769575041557 -0.38352168452995666 32 35 37
0.9414307004529857 -0.099106451057499 -0.3817773277391022 32 32 33
