ply
format ascii 1.0
element vertex 616
property float x
property float y
property float z
property uchar red
property uchar green
property uchar blue
end_header
1.0953408186399916 0.05326374017132553 -0.3882953309488679 94 94 93
1.079671807473018 0.04716032003816148 -0.3858926336095852 161 172 172
1.0960623139223435 0.029786434693429314 -0.3854467918248378 132 142 141
1.078177377929574 -0.0008869957627007547 -0.384595157540398 115 115 119
0.9169594875916467 -0.012005819582628684 -0.3842373011788513 26 32 32
0.9394199523135477 -0.07422999836147488 -0.3781797458332088 33 36 37
0.9397456775000399 -0.07419976562507946 -0.3777617735552295 27 30 33
1.0915678249753162 0.1082406811121646 -0.3792306648446257 142 148 143
1.0900701359516733 0.06558590296348708 -0.38322378266532686 105 104 104
1.1001467031847525 0.03543118175735512 -0.3815258602720958 127 133 131
1.0079797270803847 -0.004698544566559645 -0.369937114820081 196 202 201
1.0936441310393927 0.14254116111666584 -0.38286039670357935 149 154 152
1.0702425301016867 0.07718282310518343 -0.3807168683464415 190 194 189
1.0780317648709221 0.06789661857957968 -0.38147064928771085 158 162 161
1.0872501801411132 0.052831320037707435 -0.38137779602211674 142 148 148
0.8312328044858657 0.11233189008890707 -0.38716477386550513 155 151 154
0.8312328044858657 0.11233189008890707 -0.38716477386550513 155 151 154
0.8310544159749033 0.07869593776617564 -0.3850896398838615 152 149 152
0.8734630621582901 -0.0011566892825469223 -0.38647005864751566 27 30 31
0.8289378686180607 0.13631900631297944 -0.3879286984229548 193 192 192
0.8299604370993873 0.08102562038502818 -0.3846411069174802 151 150 153
0.8311666702159616 0.08410271641534081 -0.386326603158212 157 153 156
0.8311156994926954 0.046590102131119616 -0.3845769531275749 140 142 138
0.9412428671253459 0.08321575868618238 -0.382599246703572 187 190 189
0.8538562608192012 -0.07585387390005205 -0.3844729703533551 24 27 26
0.9051370957119631 0.10965771272893514 -0.38138143843790784 44 41 44
0.8294484018181286 0.07156842035101944 -0.381571044106918 137 137 138
0.8326358268772467 -0.02756899111150777 -0.3773787261374274 171 168 169
1.059103013973412 0.07814659976565962 -0.36737024662002243 187 188 184
1.0839903852661603 0.027806027127533967 -0.3738341165356083 104 109 113
1.0773851968719834 0.012049661212426673 -0.3734397207027862 144 152 151
1.0773851968719834 0.012049661212426673 -0.3734397207027862 144 152 151
0.9666605451023137 -0.06647106556569414 -0.3708777879141199 39 45 45
0.9999284249109284 -0.16254721264138752 -0.3851276050697651 32 32 32
0.9875613742317242 0.07109045582625263 -0.37706676316275617 65 70 71
1.0808651814026915 0.03605589211534835 -0.38068600968136324 106 109 110
1.1023795239355927 0.036273568979087234 -0.3808235643254135 106 108 108
1.0895240319100135 0.021841161574456838 -0.38234064933591116 151 159 156
1.0792271571548087 -0.009771062065232036 -0.38089828128950104 149 155 155
0.8338121955199926 0.013271626341193474 -0.38665401616142403 180 180 186
0.8308859560838606 -0.03860748069674115 -0.3833391022419979 117 123 124
0.8445571646195054 0.007419608234443798 -0.3917091169357734 188 191 192
0.9219190546820836 -0.0011480923621888313 -0.38469229511935715 29 35 35
0.8309767400803851 -0.028421107197781483 -0.385563978166371 134 138 141
0.8309767400803851 -0.028421107197781483 -0.385563978166371 134 138 141
0.9272062709171799 0.0766814063084677 -0.3857620121135529 178 189 189
0.8324369691912541 0.04393385786725804 -0.38636844809322457 191 190 190
0.828930616863541 0.08141049985594043 -0.38520731283800486 183 186 189
0.9777522332182784 -0.011435580183417407 -0.37772627594451424 51 56 58
0.9785084700203236 -0.0740784837209686 -0.3774535099204942 28 34 37
0.9800064244694111 -0.07474191054599665 -0.3796286679911594 28 34 37
0.8329983399510194 0.1292662137667298 -0.38739126902256527 195 195 197
0.8778760774678283 0.05083930882156165 -0.3835746905833212 34 34 34
0.9154695322859092 -0.01177028627014943 -0.38032070743992863 25 28 29
0.9092065654789276 -0.06852198949963426 -0.38061336736217793 30 30 30
1.0665051827815808 0.09823189540460231 -0.3702150395656895 155 161 161
0.9962005931565928 -0.03458315267791377 -0.36905194664184926 43 49 49
0.8319625980615 0.10017077264921385 -0.38583170874590667 133 133 135
0.8326880838597707 0.06334278756552487 -0.3843861735420412 181 183 182
0.9561183011741173 0.04378339983229734 -0.3819840024987322 179 185 185
0.9596648525197038 0.03757410412246347 -0.38253799953272416 53 61 62
0.8319595029355974 0.037876472397830735 -0.3845206123121654 117 117 117
0.8301030519958604 -0.03765222398922811 -0.382213328061507 169 176 179
1.0032926669666622 -0.07545119964222553 -0.3783825054810416 44 46 51
0.937923857746794 -0.09828964331214605 -0.37778434717477133 28 34 32
0.9835898329405135 0.08980677973103625 -0.3884335068562581 72 75 76
0.970709206088857 -0.04273752510126879 -0.3766793259527175 33 39 41
0.970709206088857 -0.04273752510126879 -0.3766793259527175 33 39 41
0.8832088299040922 0.08164035112146553 -0.38021511994610185 31 34 35
0.9084666794370411 0.08178250409579406 -0.38014846210230846 30 36 36
0.8282728245058697 0.06894564139802598 -0.3820554404388511 187 190 191
0.9140444750743222 0.05021326289794399 -0.37722332936310843 27 30 29
0.9140444750743222 0.05021326289794399 -0.37722332936310843 27 30 29
0.9050368352710604 0.035835827835534025 -0.37939373913892765 23 29 27
0.9093173200526885 0.019391126763051478 -0.3808353780108973 25 28 26
0.8842859090339451 -0.04354162272067788 -0.38080950717699275 23 26 25
0.8842859090339451 -0.04354162272067788 -0.38080950717699275 23 26 25
1.0736337702803929 0.11135590673835119 -0.3748234261255616 98 97 100
0.9757469276421712 0.08745387430505042 -0.37518124074073333 33 41 38
0.8299767235861888 0.08114025455216206 -0.38362799921252544 139 140 144
0.8420703168973388 0.007760523450193276 -0.3784748224252214 178 181 182
0.9255478895674838 -0.0017686560388632034 -0.3783958288431815 29 28 35
0.9719626988436445 -0.005547860778425767 -0.3792538696586253 30 36 34
0.9661526220605129 -0.01615075292424187 -0.37693510791963103 28 34 36
0.9723575821883732 -0.06869210607876593 -0.3788280168633333 34 37 38
0.9723575821883732 -0.06869210607876593 -0.3788280168633333 34 37 38
0.9765995193077789 -0.005938051638398813 -0.37482022617422517 189 195 195
0.8530938440106426 -0.01352357058030601 -0.3798677008045262 37 38 39
0.9881052279775283 -0.04627699963283455 -0.37542733583753507 36 42 44
0.995001947140098 -0.1509868202039587 -0.3760592284307826 23 26 25
1.0802541915719777 0.08291981364769738 -0.38504121893786086 160 169 168
1.0756593835523063 0.08245524781931571 -0.38603571593408537 187 192 186
1.1061965579589128 0.03217560271332435 -0.3839610546078012 110 110 110
1.0044022616516215 0.02409748742276389 -0.3773104522211266 78 81 84
1.0044022616516215 0.02409748742276389 -0.3773104522211266 78 81 84
1.083677365505664 0.016745436271240595 -0.3797715387957436 156 164 163
0.8778654184374315 0.01929084515448446 -0.3805839555096705 180 183 184
0.8779598114441544 0.01931450702111123 -0.3808288009978165 171 179 178
0.8969246745326108 0.006806886411473761 -0.38075928413887306 26 32 30
0.9468903875216343 -0.04302297548087013 -0.37726730875126835 32 37 42
0.9468903875216343 -0.04302297548087013 -0.37726730875126835 32 37 42
0.9149917614936257 -0.0684099438066224 -0.377954036833856 168 172 170
0.9149917614936257 -0.0684099438066224 -0.377954036833856 168 172 170
1.0059774015309715 -0.15376027392890643 -0.3770492109854838 35 38 37
0.9848678776428786 -0.14883085450610734 -0.3767860665920091 35 34 34
0.9982767173306506 -0.1546329420726867 -0.37307964930007764 32 33 35
1.0908243649874352 0.09258381024634846 -0.3704609948832195 101 106 102
1.068957573678994 0.08724029634497349 -0.3709908289678753 133 141 141
1.068957573678994 0.08724029634497349 -0.3709908289678753 133 141 141
1.0825917958690339 0.013533598799880548 -0.3763354849922455 97 101 96
0.9058696250366203 -0.0363768894035546 -0.3723261425976119 179 182 182
0.9876261387863925 -0.15135382345165402 -0.38165932932160623 35 34 34
1.0887228664757802 0.09123695577814928 -0.3823301835422791 152 160 159
1.0956291019349205 0.0830686124426556 -0.38120590719287795 136 144 141
1.0940539350395548 0.07623676821505133 -0.3787916184225365 138 144 144
1.071485779293275 0.07424704397066177 -0.3813227929008288 191 195 190
1.0874107962611266 0.04451010194722068 -0.3790956981858984 100 106 105
1.094839530130911 0.039883459241510315 -0.38076091614811763 135 141 140
1.0895289753621173 0.0243276648435581 -0.37984015276086175 96 99 94
1.082401564332676 0.020011020460211394 -0.3816755223623625 106 110 108
0.8969212125112579 0.00676736579077452 -0.38076499169480205 20 26 24
0.9918035750923383 -0.15100016300876865 -0.3772329428009045 33 33 33
1.1073647394008055 0.06776687859578172 -0.41416309229207016 160 166 164
0.8291355272951375 0.04816817012057096 -0.38426197519919886 179 185 185
0.8317333534015446 0.037715452827994426 -0.38368915183917435 117 117 117
0.8339641212673289 0.010310885832558752 -0.38498784683867265 172 180 181
0.8327205337585638 0.1326289569514364 -0.38562924113846986 190 189 189
0.831432395953373 0.04485022845498468 -0.38275551386578693 127 123 123
0.8890694237290068 0.0311968007702381 -0.3830472983629867 79 75 68
0.8891697450505958 0.03128410751627582 -0.3833759950246218 79 75 68
0.8318044854648833 -0.01614553627478765 -0.3836975441424434 171 174 176
0.8771721345624904 -0.09955870309840155 -0.3810079527172338 21 24 23
0.8316617023259835 0.06742357370979238 -0.38483099479148203 145 143 148
0.8335613466842263 -0.02641214909066428 -0.3789045002083109 178 178 180
1.097119057560009 0.13139697727824104 -0.38205317452252624 158 159 155
0.8308673145270158 0.08165799547743664 -0.38363996299509356 194 193 196
1.0815338418317615 0.06552312462237958 -0.38285130741284135 113 113 116
0.8833210972935405 0.05609125710577249 -0.3797322424599005 34 40 42
0.8314112360386691 0.020918380717500393 -0.3827436579075677 129 129 133
0.8312457805530605 0.00392241996759047 -0.3823268775588371 144 140 145
1.0754482541821642 -0.03669036929171018 -0.3761580959583436 74 77 79
0.9528144214719918 -0.03282664111255806 -0.37708383890392705 43 41 48
0.8988118213129213 -0.08115751085597377 -0.3788047091686253 179 182 181
0.8988580535588214 -0.08118479489361466 -0.37881370377630774 178 178 178
0.9887875166603105 -0.16637801692523654 -0.3865154798033876 20 17 14
1.0823634818770875 0.052698202509449406 -0.3777139857459047 103 103 102
1.0871284604747076 0.04650725125278161 -0.3772108199358122 133 142 142
1.088328139257563 0.03512654984822557 -0.3785723058086895 104 105 108
1.0795720915385403 0.01823236815206664 -0.3758992406683541 148 159 159
1.0846830200726791 0.08028894705738748 -0.37128072338279033 112 115 114
1.0796749739817608 0.027300797436286155 -0.3759034427410553 147 153 153
0.9755937069926249 -0.07337812181525843 -0.37248838347431235 33 41 43
1.0935752441445223 0.11223804037765031 -0.37684125635675353 132 140 139
1.0690738561195534 0.09415984339522433 -0.3781643747106666 191 195 190
1.088054448928703 0.07550459904562823 -0.37483316687172774 112 117 118
1.0963058590241797 0.05986536304087073 -0.37501945577559415 127 131 126
0.8880424800739304 0.04533528225076403 -0.3792741876357725 29 32 35
0.853403808081722 0.08956042749655652 -0.38188619761680065 28 34 32
0.8321787085950968 0.0550869647860873 -0.38429347026662786 122 121 121
1.0781871609285913 0.13558296568910644 -0.38017323031653766 145 144 144
0.9783493916346341 0.11067465647492107 -0.37459755933002764 35 43 44
0.8311810487137565 0.038858240844639146 -0.38325413611296333 182 184 187
0.829036062483384 0.024074517473766082 -0.3838370201961061 178 184 186
0.9145281720678665 0.050152466904147354 -0.3783463190152012 29 35 37
0.9047296402301426 0.036192651667746246 -0.37887276724037583 28 34 32
0.8318783759533271 -0.014828782446344434 -0.3809554639755282 190 190 192
0.8290284634883012 -0.02291455109388491 -0.3815268295286669 193 193 197
0.9083169319764027 -0.011565418115655353 -0.3627592054270833 34 35 37
1.0638591856776891 0.10002965124375833 -0.37264543464288874 196 199 196
0.945239157041308 0.08163723803051394 -0.3771831953540558 44 51 54
1.0893104578234156 0.08137302621666125 -0.37972540033041235 150 153 154
1.0879230208202517 0.04090909081331594 -0.3770109536326677 141 152 151
1.0786039793673738 0.008861850882450301 -0.37766836672458737 111 114 113
1.0809108303869706 -0.0041879924524684115 -0.3796195629748747 114 114 110
1.082975144194889 -0.02084149769420165 -0.37597004500682774 100 103 102
1.082975144194889 -0.02084149769420165 -0.37597004500682774 100 103 102
1.0054593000921377 0.026592487189294734 -0.38371720647085117 70 81 81
0.993921929500331 -0.1520220692909989 -0.3848073675877039 22 25 26
0.8882161184488548 0.031432059224354165 -0.3810434597268912 58 42 39
0.9812511626644742 -0.06475953734284723 -0.37640623513821264 41 45 51
0.9038285564311349 -0.09558380872165777 -0.38019423590594403 29 31 33
0.8880066276581784 0.03139814698763197 -0.38068368101997135 83 65 63
0.9823926488878231 -0.04584428833428042 -0.37969906816582816 42 45 51
0.9569867561227389 0.023978215029380807 -0.3998540073001785 40 48 50
0.9813771600428564 -0.0036111785742025298 -0.3956331605703514 53 64 64
0.9696860577046793 -0.0240604544930395 -0.39557160313082185 51 59 60
1.0050218526909138 -0.05689795305285697 -0.39031224195653613 189 195 195
0.8557625943428108 0.09473685337411004 -0.3930848579296922 32 35 34
0.9712039833944267 0.10567372892919737 -0.3888432594254811 32 36 37
0.9712039833944267 0.10567372892919737 -0.3888432594254811 32 36 37
0.8813486697329783 0.06044000900655837 -0.39319480128190704 184 187 188
0.953042155127391 -0.004303429159696515 -0.39132787395923174 34 42 41
0.8312260110614886 0.115880979592765 -0.38513105724072316 191 187 187
0.8286669031143981 0.09695380160479548 -0.38325358131059123 188 189 185
0.9595667964062925 -0.023668309769031504 -0.38270831269111877 152 164 160
0.8892809493076326 -0.028927592053948 -0.3788087845417695 133 148 145
0.8911748300048661 -0.09322864158298627 -0.38216696712767473 159 162 163
0.83235651689238 0.070977855440424 -0.38478671689755495 138 133 131
0.8298624581115386 0.037359494779890166 -0.38692310202446484 166 173 174
1.0081510537017266 -0.16125079750156576 -0.38448373909513134 28 30 29
0.9531119760311761 0.09395580765514829 -0.3834026167436005 40 48 47
0.9566917417294499 0.04431060824343627 -0.38504986988466255 184 188 189
0.9566917417294499 0.04431060824343627 -0.38504986988466255 184 188 189
0.829170139064446 0.04849518332681662 -0.38597865918241897 179 182 185
0.9698151860494189 0.09294992607883075 -0.38459177904507474 30 34 29
0.9269800059956029 0.07650925852983424 -0.3856856730137367 179 186 182
0.8316351072710303 0.06359925982074356 -0.38506926042424816 121 120 116
0.832773773460108 0.04843748041309293 -0.3855034297370412 173 175 174
1.0016075646358293 0.06131739192085881 -0.38340631067679554 70 78 81
0.8319271639840001 0.028039585266257248 -0.385505846478984 175 178 179
0.8318206329091988 -0.01579911987846832 -0.384848086635031 172 178 181
0.8294483395293369 -0.02986874712432571 -0.3851863375483919 165 168 167
0.9617306381064854 -0.0889671270276801 -0.38201840273171056 187 190 191
0.8313783630580006 0.0584884154333742 -0.38439468527065923 184 184 186
0.8290999568843476 0.08849598908423148 -0.38480899752008607 186 189 189
0.8304063198619495 0.08418918638475881 -0.38409105378759223 186 187 190
0.8303436680594176 0.038603470907691756 -0.38494526823684544 124 121 123
0.9667183153929448 0.04670433318556715 -0.3840416132075462 30 41 41
0.8327914443632906 0.015021008975950165 -0.38461496979861926 119 115 118
0.9981498899836184 0.018662268387445526 -0.38327544715928324 52 62 65
0.8304708304036155 0.00861311229145168 -0.38477223287422074 125 125 127
0.9424143704224783 -0.011240245489583295 -0.3848485580127284 27 33 33
0.8313510142638671 -0.01815479345248715 -0.3854976770948793 106 106 108
0.9277025106330034 -0.062291320176965995 -0.3838515396017516 149 155 149
0.9277025106330034 -0.062291320176965995 -0.3838515396017516 149 155 149
0.8785761335259992 -0.012537081140453666 -0.3871670757454318 12 18 16
0.909146774082707 0.05596056137027693 -0.38222018472003133 16 22 20
0.8293321788836141 -0.023089532625802527 -0.38512336860085333 159 167 168
0.8330073269903702 -0.024802424517029444 -0.3841117289765179 110 116 118
0.8294198235636074 -0.02537433078349213 -0.382660877660585 155 166 166
0.9777172115451731 -0.03733748544191017 -0.37985322430012486 47 58 56
0.831203543330002 0.10032259106367107 -0.38482608209656777 177 177 179
0.8302173113961911 0.053610359320593194 -0.3845239511050023 120 122 121
0.8834541551480444 0.024830898915165052 -0.3824611448555128 167 175 172
0.9414742268990889 0.025392417310630886 -0.3831243363265907 47 55 54
0.8309667150445853 0.0052858636633810584 -0.38309422669175525 163 170 173
0.9832677158287851 -0.150142304717538 -0.38305500069809223 18 18 18
0.8315017227155695 0.06338734079456894 -0.38546831250597324 171 170 174
0.831307514177563 0.04786261396623345 -0.38627560970807967 112 110 112
0.9959371708402134 0.044769878296830934 -0.38343093665210387 64 77 76
0.8313656574629036 0.03320247476479692 -0.38510767750629943 189 189 189
0.8318829086760507 0.025321083471379142 -0.38561116118210903 141 138 141
0.8319037961957728 0.021077078175146303 -0.38610151762914463 107 106 110
0.8319037961957728 0.021077078175146303 -0.38610151762914463 107 106 110
0.8314692663200117 0.020346032073269613 -0.38637245123076014 178 179 183
0.8323841249973403 0.008772139248942523 -0.38554788195788786 110 107 110
0.8308917001569174 0.003745307157746183 -0.385737743781974 115 114 114
0.8792951429564497 -0.011820152344853558 -0.38675220869239246 21 24 21
0.8792951429564497 -0.011820152344853558 -0.38675220869239246 21 24 21
0.8543485901544442 -0.013447925977651863 -0.38876886766546875 21 25 22
0.9299521849132368 -0.02480118192858314 -0.38592596591719663 16 20 15
0.8321019308202805 -0.021438978354983255 -0.3864749667966467 161 164 165
0.8329599977725565 -0.023295285704210033 -0.3859338597777752 107 106 108
0.8329599977725565 -0.023295285704210033 -0.3859338597777752 107 106 108
0.8302971446287373 -0.02963452184789539 -0.3859445504263092 132 132 133
0.8302971446287373 -0.02963452184789539 -0.3859445504263092 132 132 133
0.9155814223925091 -0.037266937861896166 -0.3824679347527583 20 23 22
0.94904037325748 -0.04327720294620523 -0.384803371800688 25 31 33
0.8783277290123095 -0.037318588743393354 -0.3834519878209527 23 23 23
0.9105521849418388 -0.06929908398627035 -0.38498211948659716 18 22 17
0.8793922432491798 -0.07473532061983838 -0.38534846063976874 21 18 17
0.8308919958722595 0.11143081320164185 -0.38606291511238633 184 181 182
0.8308919958722595 0.11143081320164185 -0.38606291511238633 184 181 182
0.831237711626123 0.01855434402289913 -0.38517523751592203 184 186 186
0.8305437705670187 0.010104067178927941 -0.38542870136895485 142 141 143
0.8785618952037811 -0.005941483774532884 -0.38459817737899765 160 166 164
0.8329075476669795 -0.013945921932087074 -0.3854954425061735 128 128 130
0.8845024106418524 0.08349761176995484 -0.3883241254308423 34 34 36
0.830892676014935 0.0970753531528034 -0.38507473908807427 128 125 120
0.8323261133223762 0.09048113675089363 -0.3837885259976344 189 189 191
0.8520150601185654 0.08747714143019202 -0.3808226745490129 25 29 28
0.8520150601185654 0.08747714143019202 -0.3808226745490129 25 29 28
0.8319017846205359 0.08435261832561351 -0.38470024983127094 181 177 178
0.8292364444367479 0.08109132636706293 -0.38578286772029236 185 188 189
0.8322776671163504 0.06687860497316601 -0.3834018705003504 186 185 187
0.9419168382965497 0.05154078628750056 -0.384988855957863 32 38 36
1.0021940347087412 0.035333757620840865 -0.3819362401382525 54 62 59
0.8317497535040927 0.02790479705987302 -0.3850742849908405 179 179 181
0.8327947884026671 0.022159943287089753 -0.385093863735962 173 175 176
0.8326952847510939 0.009564206461247175 -0.38503415175817424 194 193 195
0.8312532288723666 0.0054905807135404786 -0.3845819580220502 174 176 178
0.8349038808877143 -0.02370922087855766 -0.3864950956338627 166 166 166
0.831373852279861 -0.03830957148348962 -0.3860167263968514 88 87 89
0.8852058402353662 -0.07498014598766264 -0.3857390202536916 160 160 162
0.8846850924413979 -0.07432443919053583 -0.3837936341394946 136 142 140
0.9622402618249222 -0.09284392530926476 -0.38237445002476544 36 39 41
0.8297918107033141 0.059737299244962856 -0.3845314046279585 141 141 144
0.8336035737809973 0.010548531615668953 -0.384262046735539 172 175 176
0.830897244282753 -0.009752081358217557 -0.3851782144100055 108 108 107
0.8299272205108031 -0.012283342850266495 -0.3858783960865051 165 167 169
0.8325051209550133 -0.025291912183531863 -0.38577595399523157 170 176 178
0.8313965924703873 -0.025260097580959602 -0.3855360834432514 169 175 175
0.8599084265920016 0.0122412934688096 -0.38548943018473475 167 173 173
0.8330735371710062 0.013039535007533968 -0.3853452687242135 167 164 165
0.8316337593204195 0.013032565136167516 -0.3863793423332016 138 137 143
0.831388620327914 -0.025250956413351726 -0.38551779263676017 160 160 159
0.8950693494306603 0.03619036442573963 -0.3835078258795762 167 178 178
0.9162238090042747 -0.006106277077351721 -0.3846341945100057 159 168 165
0.917802494739365 -0.012719906782098238 -0.38602854802183034 20 24 23
0.917802494739365 -0.012719906782098238 -0.38602854802183034 20 24 23
0.9546272882345082 -0.033138504992121696 -0.38316520207789645 35 38 46
0.9108661161117881 -0.06967221576417906 -0.3859896924456378 21 21 21
0.8755962070372747 -0.06586077565213748 -0.38523680672736316 20 23 24
0.8755962070372747 -0.06586077565213748 -0.38523680672736316 20 23 24
0.8305003213579195 0.13891422966958378 -0.3861846644529897 193 189 190
0.8314627511878155 0.11642726084087053 -0.38575932681009006 191 189 191
1.0785153367667737 0.09119073377047504 -0.3823033397744819 88 91 92
0.831697793328008 0.04080068785487487 -0.3856105442482541 176 176 178
1.0836871806188682 0.0507111493298119 -0.39318949160104827 103 103 104
1.0757724473423298 0.041855882525463545 -0.38358892232282105 120 126 124
0.9099687168099788 0.020082045945238533 -0.38336704780659486 21 24 23
0.9539932917462909 -0.030111127804167293 -0.3817631440731175 176 184 183
0.91596865014168 -0.04296154536502639 -0.38317470921107355 157 160 159
0.9414724183745667 -0.0737189246723568 -0.3816629651359762 26 26 27
0.8955429326615132 -0.08236739614685354 -0.383455984270342 23 23 19
0.8314346110711467 0.03671281954655842 -0.3855727325166667 117 113 114
0.8319285530835134 0.024874874646635865 -0.3854775679618859 116 112 115
0.8319237566644636 0.02490266322733173 -0.385534444527497 116 112 115
0.8330070491055062 -0.013201258387647614 -0.38546322958553114 162 165 164
0.8326894931212894 0.1369559515218791 -0.3853390304941566 187 186 186
0.8306537614568824 0.08008949677245307 -0.38501314142776294 183 189 191
0.83291526945465 0.05164721671536426 -0.3840920350523953 182 182 182
0.8304575664071268 0.13545929943393661 -0.38760724272862 119 119 115
0.83157998767859 0.11091952080587662 -0.38377728772783837 190 185 188
0.8288403855191298 0.07682249511023954 -0.38763959195572156 202 202 204
0.9911739396533293 0.07649039700004541 -0.37940160783053917 65 73 74
0.8309360415628136 0.06083842007823042 -0.38486274839399714 183 182 183
0.831137983548093 0.04655269198316926 -0.38444827843741675 148 147 149
0.8312044112962836 0.02524579222494256 -0.38347612761136046 186 186 188
0.8286699368933406 0.11060888435934338 -0.3849289699329495 190 189 189
0.8314615592167464 0.08763536950518319 -0.38421967660628814 141 137 138
0.8308649350680146 0.08133566231549223 -0.3836480258240596 177 177 173
0.8311197664876151 0.03448220331373236 -0.3840657717442227 186 186 190
0.831350540410704 0.025433054386899454 -0.38471382994679565 176 176 178
0.8318453098717514 0.02483327897244835 -0.3849674218442944 116 112 115
0.8308404624616016 0.013468287264714619 -0.38514020974833274 112 111 114
0.8308404624616016 0.013468287264714619 -0.38514020974833274 112 111 114
0.833935155714196 0.010714779210200477 -0.38516888194661125 173 176 177
0.8312435400297358 0.010411893132906934 -0.38432472837029436 174 176 182
0.8321397845272969 0.003699824106564256 -0.3856247471333744 123 120 119
0.8321862587715384 -0.009882897114011488 -0.38586210716556035 115 115 117
0.830794002135521 -0.012705540398984215 -0.38517499341817935 107 107 107
0.8332655788063609 -0.03444115977972883 -0.38634715168331507 121 117 120
0.8326294457998975 0.022897015590298688 -0.38479317657405293 169 170 170
0.8327929134276737 -0.007762562113803975 -0.38487896752353623 104 98 101
0.8306918023624013 -0.0375743916664421 -0.3848094006765004 161 171 173
0.9662015914454857 -0.0929309774573316 -0.38123251807168407 168 175 172
0.8311601130250252 0.12017023962362672 -0.39247306163165235 199 199 201
0.8795519897501255 0.08998572864760103 -0.3887250146261898 27 27 27
0.8795519897501255 0.08998572864760103 -0.3887250146261898 27 27 27
1.092893035851016 0.0437311648944526 -0.3964051316038168 119 123 118
1.0816560635023054 0.039242822117364136 -0.38900385530817266 120 126 124
0.832365880381725 0.005272577232781864 -0.3857616484262246 132 129 126
0.9933062534436581 -0.0002944069967801812 -0.3869095855372392 55 59 59
1.0852801447907738 -0.0048709095421115125 -0.39450265237768534 132 136 135
1.0059622995770112 -0.03639726957540395 -0.3875357911957868 60 68 69
0.985786338794272 -0.06538448474248443 -0.3858437624768312 41 49 49
1.01282006305465 -0.15421748204732458 -0.38537325060299144 19 20 20
1.0157866760734915 -0.15881514034332342 -0.39298076397919224 32 38 36
0.9894405265843345 -0.16438866665051438 -0.3932391087562825 31 35 30
0.8282772742046675 0.07634586088568142 -0.3857338010917241 186 185 185
0.8309585434621611 0.0665251299146333 -0.3845814281751216 189 189 189
0.9732557547657443 0.05238296783887335 -0.38338630790597794 181 181 181
0.8750498193872881 0.016090283021972674 -0.38407397969335855 22 23 19
0.8750498193872881 0.016090283021972674 -0.38407397969335855 22 23 19
0.8786915085160579 -0.011857586505580768 -0.384708802990689 17 20 19
0.9156914070350527 -0.01117501222978169 -0.38356668620459455 24 30 30
0.9156914070350527 -0.01117501222978169 -0.38356668620459455 24 30 30
0.9069150057964924 -0.03403880817827843 -0.3837530209976186 24 30 28
0.9099635319928089 -0.03752603351167203 -0.3830359895592705 167 177 170
0.9821430973679058 -0.15629198041001294 -0.38219306446221873 18 18 18
0.831572029014972 0.08045135808272677 -0.3845984410196323 129 128 130
0.9766700239144399 0.025235914279964165 -0.3784682608683862 74 82 80
0.8759571860140227 0.11299078107248402 -0.38662619712614227 25 28 28
0.8312233359913004 0.06843541629034888 -0.38586684837550583 171 170 171
0.8304302820310316 0.062129556530641235 -0.3851182264241443 135 135 134
0.8311377879196579 0.04083855389528663 -0.3830327068859179 148 149 150
0.8322476719981192 -0.038881183287614834 -0.3846139211861261 173 176 175
0.8319086395075995 0.10197826494164676 -0.3862736762170881 200 203 206
0.8327431352910661 0.08108711914187261 -0.38453377607044414 200 200 202
0.9532476598532753 -0.030401163741035197 -0.3805943283500282 200 200 202
0.8530057427373411 -0.07469696911301633 -0.38352029320711334 24 24 25
0.8784208765016494 0.08828104189806718 -0.3849247100095847 19 25 23
0.8321027075680932 0.0738324709666183 -0.38487534467718965 137 134 130
0.8306275059341295 0.0709117136932834 -0.38505660872208114 176 175 173
0.9371341693120739 0.05943123969573156 -0.3814133354163259 43 49 49
0.8304178162740566 0.04574327869051553 -0.38379831732056136 157 160 161
0.8289918541390892 0.021179018696764456 -0.3836000112590141 170 174 173
0.8311872710596253 0.009266676428362854 -0.3837605212330356 161 169 169
0.830538322423143 0.008566478408408957 -0.38421857909514756 109 114 116
0.8305547316922152 0.0010766818587778736 -0.38415411390668186 117 123 125
0.8327415521440904 -0.016452604933454188 -0.3841076580537754 160 166 167
0.8306402807890323 -0.018114411452598483 -0.38342539246921525 110 113 112
0.9963254491989249 -0.012665429921506263 -0.37936094985416774 68 77 77
0.9538143219261702 -0.032886258272988834 -0.38185263570800043 45 44 46
0.9400629259704931 0.025055887616230784 -0.3809952357848544 47 55 54
0.8308810319031273 0.13071149127378381 -0.3868534019077801 205 205 209
0.8308810319031273 0.13071149127378381 -0.3868534019077801 205 205 209
0.8295916938574959 0.12277312399209947 -0.38746383168920334 196 202 204
0.9628784066118243 0.03183613437158036 -0.37697615202247897 180 188 185
0.9866380481838748 0.027834238388377185 -0.3757544724059038 62 73 69
0.8836323517797925 0.01921068833871161 -0.3815023223951887 24 27 26
0.883897480762101 -0.006094904364260977 -0.3820170081519686 23 29 27
0.878521768461173 -0.011728911049581512 -0.3835128472789853 23 27 22
0.9851860711524836 -0.06406026282486747 -0.3798924283742993 40 42 52
0.9145194461770545 0.08764663119344232 -0.38115174127286555 26 32 30
0.9458102456094946 0.05623442711732614 -0.3810194824828017 42 51 50
0.9559013688164388 0.029343615359173385 -0.3792779058179404 51 56 58
0.9093847140744378 -0.011572046871960008 -0.3822826143318477 162 170 167
0.9104998479156671 -0.06045154498550442 -0.36500689801832964 23 29 27
0.8308588447138685 0.11103268793642797 -0.3844285519515196 148 145 142
0.8318669720563697 0.06400793366229722 -0.38609450446768534 121 120 116
0.8318669720563697 0.06400793366229722 -0.38609450446768534 121 120 116
0.8326565918395865 0.03207612122393546 -0.3845716290027293 127 134 129
0.8301511128631249 -0.002809426877400362 -0.38342608606630163 181 181 185
0.8330320878234286 -0.013304585422264504 -0.38473161513960435 175 174 178
0.8307255147583634 -0.015466461959595381 -0.38473293587882423 133 132 135
0.8307255147583634 -0.015466461959595381 -0.38473293587882423 133 132 135
0.9309683763191227 -0.05463232111550171 -0.3847455598432845 165 170 168
0.8832619709230297 -0.07362667021237779 -0.3786917939869243 168 168 164
0.8308531755929285 0.13060066856706212 -0.38577485809407075 188 185 188
0.8316519212977601 0.10725616285110413 -0.386902095497634 191 190 192
0.8826100302898618 0.05532710923038846 -0.3791712855164028 23 29 27
0.7616280532236831 0.07087879837047203 -0.39522520457842536 59 58 58
0.8314530259378177 0.06778381492844883 -0.38504284053099636 144 143 143
0.7704106457718315 0.10381013978132615 -0.3929125382887103 21 20 14
0.765342149072199 0.07194806922009225 -0.39473606036243736 25 25 21
0.7665550631368745 0.06884941947307968 -0.3959832624374497 55 58 53
0.7707158380334556 0.07588772763614782 -0.3949297202460804 41 44 43
0.7628549615014734 0.0578715174907484 -0.39424930856165263 62 62 62
0.7628549615014734 0.0578715174907484 -0.39424930856165263 62 62 62
0.7678410589425536 0.05835401629086212 -0.392010737007484 64 64 64
0.7658011054153802 0.04632464806507437 -0.3938578268942565 25 25 25
0.7687304521377162 0.047231970675623895 -0.39224532096426923 48 43 39
0.7635239524650324 0.04296553696577851 -0.3928466745767415 68 67 67
0.7635239524650324 0.04296553696577851 -0.3928466745767415 68 67 67
0.7651019619954913 0.04294702934084315 -0.3937731023820445 30 27 24
0.7635802979015013 0.041399641662172915 -0.39447302656133765 41 38 33
0.8300379323467608 0.05977496549225845 -0.38433991817180624 143 146 149
0.7665519275809196 0.02002371273898881 -0.39203623904491264 26 26 23
0.829242993560488 0.053131729080340834 -0.384424466344043 176 176 177
0.8319825223363919 0.04521703353370432 -0.38532322962283705 133 130 129
0.8309366937241786 0.03744117551935041 -0.3844408835819392 170 175 175
0.8786098759561488 0.05671373375761257 -0.3848925996735985 173 176 175
0.9156564464099288 0.05149877544324763 -0.383675002167804 31 37 37
0.9647329165883844 0.066419448859467 -0.3839057862912426 45 53 52
0.8840285304081393 0.01995597749441999 -0.3838538872697607 23 28 25
0.8331208767663847 -0.0147143756314265 -0.3801798769966406 164 170 170
0.9827472380321441 0.043349553291277404 -0.38183322869318137 56 67 66
0.8783544964962304 -0.006433316033076916 -0.38310003060346404 161 169 166
0.8296575167257448 -0.029670816986418894 -0.3818550358262059 129 131 130
0.772726123360748 0.10252233634867675 -0.3903676817124365 61 62 58
0.7604273784520421 0.08245283870747414 -0.39225951083940097 44 44 43
0.7604273784520421 0.08245283870747414 -0.39225951083940097 44 44 43
0.7613128420931912 0.08139116839417998 -0.3936111663648176 45 46 42
0.7700189111694696 0.07606276453028869 -0.3904829467799395 46 47 43
0.8310133967168608 0.09062999852909649 -0.3854540377982919 125 125 128
0.8330712811389176 0.073053223589253 -0.38488597604910296 183 183 183
0.8780879758157342 0.08811224752696381 -0.38391955242799114 31 34 33
0.9553202221468032 0.09747065227539566 -0.38416459292543653 69 70 73
0.8716218601665903 0.06741525588134584 -0.38440881537984495 176 184 185
0.9994744228804463 0.09481575876567284 -0.38173725383958274 86 92 92
0.8321700301906436 0.024757839893147955 -0.38548309913800893 113 113 114
0.8315188880905002 0.005302988656297997 -0.38497280283418434 173 179 181
0.9938159713765413 0.04192966452631123 -0.38130132369289865 67 75 76
1.0009797181793072 0.02835912397483748 -0.3796580867742549 80 88 89
0.9487384182373241 -0.005826543310322518 -0.38257310032745584 27 33 32
0.9789539372885161 -0.011588069204200253 -0.37922943321048674 51 56 58
0.9098172398586851 -0.068875219435281 -0.3819958840620157 24 27 26
0.9172877992708582 -0.10048065656806164 -0.3810355198128078 28 34 34
0.9911746737529925 -0.15690260949037715 -0.3717521800611257 27 28 24
0.8312219924588738 0.04655377799676501 -0.38464724286539553 137 140 139
0.8532183459912914 0.025384826353880462 -0.3843871151837032 23 29 27
0.9531018897003858 -0.016533185397835652 -0.38108742359311804 85 93 97
0.9139424101101755 0.11200430890901432 -0.37816100883331805 40 43 44
0.7735131678229825 0.027978148535354377 -0.39018563133319856 57 58 54
0.9223392637399521 0.07456261364114956 -0.38595779393680435 38 44 44
0.9238552730538996 0.06686977629031769 -0.3797470947223908 187 191 190
0.8288943726279842 0.036948778694368536 -0.3836015115720933 180 183 183
0.9091319448341154 0.056480794101327815 -0.38171011384379033 33 39 39
0.9091319448341154 0.056480794101327815 -0.38171011384379033 33 39 39
0.8329027825850217 0.020697344635240252 -0.3843008207138969 177 174 172
0.8525870678783048 0.02507250819562805 -0.3827569901253537 27 33 31
0.8313303160191703 0.0028224801464932885 -0.3841774693784183 174 174 177
0.8313303160191703 0.0028224801464932885 -0.3841774693784183 174 174 177
0.9948483060039593 0.04191828704697548 -0.3761748930240605 67 77 77
0.987283169773864 0.03635515677224403 -0.3790156469237741 63 71 72
0.8537157522619993 -0.012612545695863462 -0.3856525145265897 23 26 25
0.941758269799754 -0.011665307369947866 -0.38198254011202637 36 42 44
0.9631290491346353 -0.02577780578349816 -0.38224932738503664 43 45 51
0.8311994869521651 0.10630737667161234 -0.3846822371432055 190 186 187
0.8310564934519398 0.10085867946681201 -0.38481504768492764 191 193 196
0.8289321606591671 0.08201430354096435 -0.3843079379937383 188 188 188
0.862467461254802 0.037571526467367035 -0.3832049629483333 24 28 23
0.8949063356456123 0.0360955983943737 -0.38136825021922754 173 181 178
0.9338941039770734 0.012797442004973231 -0.38021156846573473 178 184 183
0.8339423560805214 -0.028275722182752185 -0.38353208276996625 165 164 163
0.9852775709150444 0.0019710738608873257 -0.3782320904541008 73 78 83
0.8292247720086947 0.09751700118063404 -0.38428732395348336 186 189 192
0.8282190707812924 0.09524944441990191 -0.3831570076661145 189 192 193
0.8330741399326375 0.07305040274291 -0.38487998197430995 186 188 187
0.8594398262106173 0.06334560981821323 -0.38438208265568546 177 183 183
0.8315827042226972 0.047187823077005114 -0.38532898164945045 124 125 127
0.8841304314357108 0.01987677436572541 -0.38362271941970466 23 28 25
0.8646403116016512 -0.08989951779796664 -0.38324830325052417 17 20 19
0.831776055726336 0.09770198554551998 -0.384075903739758 190 189 190
0.8293379927481348 0.09547512781449455 -0.3846060824970924 184 186 187
0.878010118781219 0.08816306604991044 -0.3838309957462611 31 34 33
0.909368988047369 -0.011658410674401501 -0.38078396634378964 168 174 172
0.947349143432952 -0.04307595465611017 -0.3797854945682918 30 33 36
0.8842642964744875 -0.07450555957218416 -0.38089907619042784 160 163 162
0.8842642964744875 -0.07450555957218416 -0.38089907619042784 160 163 162
0.9875660347090957 -0.15447596912227768 -0.3808309272115011 14 18 15
0.8553363952752697 0.05958875357364557 -0.38166612483747187 31 34 33
0.8308691221383397 0.0053978911305715095 -0.3820510352208656 176 182 183
0.9093909209479031 -0.03745803661443151 -0.3802845525967605 166 172 170
0.940771827687664 -0.09977062663875103 -0.37969165612630834 25 28 29
0.8403159741980764 0.17591589530334717 -0.38929071211545424 28 28 24
0.8328019802190334 0.16840195203058222 -0.3896574947714796 30 31 27
0.8569995282634906 0.07658422791283546 -0.38355322505564 33 34 35
0.9766964559486563 0.02577578786141704 -0.3752229082450128 32 40 37
0.914315006716752 0.025174624344677578 -0.37769141263821426 23 29 27
0.914315006716752 0.025174624344677578 -0.37769141263821426 23 29 27
0.9713348207009459 -0.03699907460492341 -0.37635751083366786 181 187 185
0.9713348207009459 -0.03699907460492341 -0.37635751083366786 181 187 185
0.94042317116663 -0.03694739446570897 -0.37874944482591555 27 30 29
0.8781758780727825 -0.03745570720975344 -0.38060941961889366 25 28 26
0.9286642713875477 -0.055046031910303876 -0.3803619577546221 166 169 169
0.9163145639164083 -0.09773936497161398 -0.37554330360720267 22 28 28
0.9407034237268581 -0.042695387293878215 -0.37846792175883687 185 188 189
0.8537351248263847 -0.07621236200598802 -0.3837949248724976 29 32 33
0.9670001870010089 0.10976402186529136 -0.3776900949608693 46 46 49
1.098335057254839 0.10212001233146409 -0.3793990555081302 89 84 82
1.0814960189940535 0.10137497902986682 -0.3794537941987368 91 90 92
1.0814960189940535 0.10137497902986682 -0.3794537941987368 91 90 92
1.0931750013603891 0.09684856351936602 -0.3781253667870063 102 102 102
1.09008884335037 0.09390434045904318 -0.37862920919879905 107 106 106
1.0836985999309212 0.08962669222750667 -0.3771751219761297 169 174 174
1.094688510761224 0.08908289558378824 -0.3761836351079215 163 166 165
1.08813860546453 0.08788685658230616 -0.37769721837966436 169 169 169
1.092489422151708 0.08767055086031081 -0.37699512189204354 91 91 93
1.0794865176412345 0.08743470342933231 -0.37919487880415853 160 165 166
1.088060731788372 0.08488897846929475 -0.377481530811861 166 169 169
0.8838358255211987 0.0820028780564385 -0.3832207374165167 29 32 35
1.094172594611925 0.08051988389304932 -0.3772629866068536 107 106 107
1.094172594611925 0.08051988389304932 -0.3772629866068536 107 106 107
1.0944518248351716 0.08032409853038175 -0.38037521442856115 172 177 177
1.0770190519689222 0.07968459322589871 -0.3787260753529502 98 99 95
1.091281800663749 0.07581178645421668 -0.3759020836232007 165 170 170
1.078377046683185 0.07486596987339478 -0.37758923805903083 157 165 164
1.0847799999368037 0.07249081601164334 -0.37845749132920653 109 109 112
1.0904189872093835 0.07025293413443898 -0.37706825569754526 112 112 116
1.0848549607581168 0.07023643534795773 -0.3767995047129946 170 175 177
1.0882408429700343 0.07045555536713084 -0.3787477937729561 166 169 170
1.0983162240517648 0.06823620611899485 -0.37787222044887414 164 166 164
1.092201134326084 0.06769032519051069 -0.37901576743266496 128 129 131
1.0955281562521348 0.06393551961192774 -0.3773507772859964 111 114 114
1.0806404444584021 0.06297364797927824 -0.379096469130599 149 153 152
1.0920378353715563 0.0626447114989343 -0.3781509232323856 109 109 112
1.0920378353715563 0.0626447114989343 -0.3781509232323856 109 109 112
1.088036715044226 0.062125517605256794 -0.3777500429042915 153 159 159
1.0963875450646317 0.05908925290964444 -0.3773225231719258 109 108 110
1.0963875450646317 0.05908925290964444 -0.3773225231719258 109 108 110
1.0909746011193884 0.05729728017951552 -0.3756643121936779 135 138 139
1.097516070834043 0.05473883978353886 -0.37591213691448466 163 166 160
1.0910290361700916 0.053544055371822455 -0.37803398217859757 163 167 167
0.8832014739547273 0.0559042154579712 -0.3788805699132174 25 31 31
1.0944954522163342 0.05162938297346067 -0.3766753421550777 165 165 167
1.0920571610605603 0.04967071413950827 -0.3763191539470643 96 95 100
0.9710210440182367 0.05107976017067161 -0.3778136599238393 181 188 187
1.0817802591718768 0.0486474719938372 -0.37709617009583113 98 97 99
1.0904343432893753 0.04814546460822046 -0.3758703618433834 159 159 162
1.0814499766111096 0.04451651290534486 -0.3765077498116188 87 87 91
1.0869463587348895 0.04420185656207376 -0.3787518610897309 100 104 107
0.9649160787978885 0.045880216941202985 -0.37774057380955633 32 35 36
0.9649160787978885 0.045880216941202985 -0.37774057380955633 32 35 36
1.0880628290128918 0.041431179041106665 -0.37793057452681655 152 160 159
1.0794225131937922 0.04001748557383028 -0.3767884783599685 151 154 153
1.0916704678334241 0.03963411717807233 -0.37711364187235347 156 162 162
1.0852996638947103 0.03878862932413125 -0.37858622170431816 163 170 168
1.0909880846452904 0.03363888815945607 -0.3756872878085969 163 166 169
1.0930961602001767 0.03348186285135882 -0.3762343152320408 101 102 106
1.0930961602001767 0.03348186285135882 -0.3762343152320408 101 102 106
0.9269089940151615 0.036995472024261386 -0.377224837686421 19 26 24
1.0811252771181514 0.03058723349642396 -0.3746377044685369 99 99 101
1.084045175710317 0.028289341410860577 -0.376217439423481 166 169 167
1.084045175710317 0.028289341410860577 -0.376217439423481 166 169 167
1.0848750593510077 0.02692552769457278 -0.3798129497297012 104 104 106
1.0805561322486792 0.022127575374592267 -0.3812971563124368 104 107 110
1.0773939036730598 0.020046397996876575 -0.3809092708805883 146 152 152
1.0835447264159315 0.018480784129667287 -0.3807717605059577 141 148 146
1.0743580992957282 0.018583001668379236 -0.37784145679516523 147 153 153
1.0937959971689788 0.01384924584971443 -0.37696846645767706 153 153 154
1.079367805508273 0.014346808061555983 -0.37818076535389267 84 87 88
1.079367805508273 0.014346808061555983 -0.37818076535389267 84 87 88
1.0876907590815905 0.012909827859902169 -0.37618877207050294 102 101 104
1.083558591772537 0.00863664039324481 -0.37711103213503 102 101 103
1.0826903188215233 0.007648892827141667 -0.37935255942961166 149 152 153
1.0903167085241203 0.006961594384954177 -0.37928573287436856 92 90 92
1.083311723934497 0.0047616430295132715 -0.37848822650835745 149 154 153
1.0910706015417377 0.0041166461177618045 -0.37695537586275485 161 165 164
1.081258430275548 0.003931441492859735 -0.37725527369585043 146 152 150
1.0898769684666636 -0.0009552428174850108 -0.37775180677165826 107 106 109
0.9877345613416983 0.0011522539841635527 -0.37650800264081896 171 177 177
0.883724668355726 -0.006051538901513343 -0.37916973873508386 35 38 37
0.9402146934254417 -0.011517623080076922 -0.3788598705572879 26 27 31
0.9152809651587204 -0.011731978413963035 -0.3795103482506345 32 35 37
0.8294638181361625 -0.009290643183139937 -0.38213083176047136 193 193 195
0.952961259561694 -0.0300652814478153 -0.3774485913865516 163 171 170
0.9589938295668151 -0.055790111408795987 -0.37835977374870794 24 30 28
0.9354627215161573 -0.06207986691284273 -0.37787404586098516 29 32 31
0.9203882937354275 -0.06368023061738975 -0.37896435313647475 32 31 33
0.9203882937354275 -0.06368023061738975 -0.37896435313647475 32 31 33
1.001784979269134 -0.07437248437374855 -0.3752948016688146 34 37 38
0.8563148659471184 -0.06545568197443785 -0.38089960185403515 32 35 37
0.9406362991868884 -0.09961607656766659 -0.3792166799272396 32 32 33
