ply
format ascii 1.0
element vertex 678
property float x
property float y
property float z
property uchar red
property uchar green
property uchar blue
end_header
0.9456397111147987 -0.03489168253897525 -0.38731900226600496 36 39 40
0.914335801994663 -0.03579926763789165 -0.385621749029691 175 181 181
0.9455749323720245 -0.040619604105387036 -0.38578714735298125 184 190 188
0.9455749323720245 -0.040619604105387036 -0.38578714735298125 184 190 188
0.8387077858446852 -0.03744156340375168 -0.3880456800267541 105 104 111
0.9982033568820637 -0.05736986173923758 -0.39987411110082816 52 54 62
0.9982033568820637 -0.05736986173923758 -0.39987411110082816 52 54 62
0.9982033568820637 -0.05736986173923758 -0.39987411110082816 52 54 62
0.941067649982643 -0.05315635345916591 -0.3885151548431211 180 191 189
0.941067649982643 -0.05315635345916591 -0.3885151548431211 180 191 189
0.9346165608108757 -0.05256822730859108 -0.38681096783628244 177 180 179
0.9335362572043594 -0.05578956507030011 -0.3911296636948967 30 29 29
0.9324062565306463 -0.05632026995105646 -0.38833683447853345 34 35 31
0.9323509892033096 -0.05603292850734319 -0.3883008343745809 41 40 42
0.9318074864928975 -0.058097036485536505 -0.39713763928492046 148 152 147
0.9370073313562686 -0.05961808007920482 -0.39193186353612897 155 158 157
0.9278387948776801 -0.0588257996382054 -0.38547323990619947 43 34 39
0.9288677274509565 -0.05928179426025686 -0.38794453484018027 39 35 38
0.9389891130061161 -0.060139304738853504 -0.3819192159874257 29 32 31
0.8852533105138737 -0.07380694132209756 -0.3902812376932413 22 25 26
0.8852533105138737 -0.07380694132209756 -0.3902812376932413 22 25 26
0.9111052788580101 -0.07765063262766367 -0.3886461704709124 22 28 30
0.9111052788580101 -0.07765063262766367 -0.3886461704709124 22 28 30
0.9058377568669308 -0.080476670355966 -0.38977853345212743 177 180 179
0.8980261388260434 -0.08070832753652235 -0.3899123246246911 176 179 180
0.9108351741754973 -0.08223777716634813 -0.38737032811922323 27 31 26
0.834764120117581 0.11814116016986538 -0.3855599381377982 186 180 182
0.9074822289683562 0.09233704079044791 -0.3859595361005344 48 55 59
0.913643481770924 0.08258888000265917 -0.3883398750337876 31 34 35
0.943107294428228 0.0806810554511173 -0.39057101387137794 31 30 30
0.8357103501485682 0.06967675444559908 -0.3859149985592719 193 196 199
1.0012015247247057 0.06999634250443436 -0.38728695376836186 194 194 196
0.9972929729549307 0.06946751020738733 -0.3877236073229766 74 74 70
0.9972929729549307 0.06946751020738733 -0.3877236073229766 74 74 70
0.941927298554683 0.061381512255077465 -0.3884161118796252 41 44 43
0.9420286707759424 0.06147248302284606 -0.38853559543247007 38 41 40
0.8366495046965406 0.0540156487325273 -0.39032337212828566 101 104 105
0.9471044800904512 0.058460117820389464 -0.39158859266331564 180 183 182
0.9150132878153564 0.05225685339774548 -0.3899572741239704 186 192 192
0.8366245616053459 0.04381972806861782 -0.3871514198363725 185 191 193
0.8379728448435875 0.02893238320796024 -0.38759213067382653 107 107 109
0.9982439375861771 0.01366626687851335 -0.3806387572677814 67 74 78
0.8692948823544934 0.009023264297900777 -0.3885709680509637 43 46 49
0.8645098683377603 0.004230438677342332 -0.388369710928903 183 189 191
0.8790233361681863 -0.04715697895943296 -0.3878025904692231 24 27 26
0.8790233361681863 -0.04715697895943296 -0.3878025904692231 24 27 26
0.8740449840360388 -0.05774427117517195 -0.38611451117490014 169 177 174
0.8740449840360388 -0.05774427117517195 -0.38611451117490014 169 177 174
0.8341613207028079 0.06419532657264232 -0.38786852809250216 192 192 192
1.0882051236211103 0.04339449586408569 -0.39225774859860846 132 131 131
1.0873065310311592 0.03967818342628796 -0.39111389660266876 132 132 132
0.9713025355001036 0.034276588458980885 -0.38983287232805325 181 187 187
1.0799739161569286 0.02587307029971875 -0.3928621798005639 121 123 129
0.9347338524703429 -0.05600540798763807 -0.3878956894762592 175 186 186
1.0140807671923049 -0.15650036131625364 -0.39450516612152864 29 32 31
0.9263009142149634 0.07462221933407517 -0.39139362516845305 26 32 30
0.9263009142149634 0.07462221933407517 -0.39139362516845305 26 32 30
0.8507761309221141 0.06017600412419387 -0.39154925783176253 191 194 195
1.00569668424589 0.06281832372629542 -0.3899412243726623 54 54 54
0.9352188970399598 0.039147246315151846 -0.39302860395484085 28 34 32
0.9448502072479508 0.018119162898350416 -0.3936664719602593 31 34 35
0.941809784061035 -0.05740152475278789 -0.38779681374316466 27 33 31
0.9943092320215853 0.08479593466031543 -0.4019871159810243 65 70 75
0.9716915859329124 0.07425782232991665 -0.4035617103563476 43 51 50
0.9845832931626728 0.05542119153730587 -0.4019716098535252 178 184 184
0.9871093611841872 0.0279426185125166 -0.39406331345955875 63 71 70
0.9804782093774713 0.027610537676225236 -0.39398148295419444 174 177 176
0.9910901454751928 0.022950958482026853 -0.40103814460246445 181 184 185
0.9953730285784385 0.019355532164681544 -0.4015528788740959 66 73 77
0.9979658331270184 0.015578808377483802 -0.40014745041979227 177 183 183
0.9983807484353161 0.007735569410440135 -0.4016078394512957 178 184 186
1.0026473999543575 0.007346177160118338 -0.401637939334152 82 87 92
0.9296588886107168 0.006450641036476791 -0.3932902223406893 167 173 171
0.9296588886107168 0.006450641036476791 -0.3932902223406893 167 173 171
0.9301722371371185 0.0032546706561426453 -0.39253702249256023 45 45 47
0.9424887830675569 -0.00036902463291493896 -0.40350470418819306 40 46 46
0.9490995041261817 -0.0007309861394344389 -0.4021232832924436 46 53 57
0.9945474440485563 -0.0015668285687120448 -0.4026554804206447 71 71 75
0.9602395026714862 -0.003845188886693567 -0.4032965276314388 41 49 48
0.9571704785463386 -0.006072318477370294 -0.4017213476113281 54 48 50
0.964864564577237 -0.016668355344018695 -0.4001204580238036 178 184 184
0.964864564577237 -0.016668355344018695 -0.4001204580238036 178 184 184
0.9705488594877519 -0.022270869477050165 -0.40077515716739903 181 184 185
0.9705488594877519 -0.022270869477050165 -0.40077515716739903 181 184 185
0.968069020428752 -0.023386695269053345 -0.39190158359599614 46 53 57
0.9982730063787499 -0.04917276129159351 -0.40002867710045725 179 182 181
0.9984681857517539 -0.053278751867736916 -0.40044062624035875 177 183 181
0.9955838227270324 -0.057356612811664674 -0.4002234091918545 42 48 46
1.0107294019328092 -0.062096700187574 -0.399603310539102 178 181 180
1.0107294019328092 -0.062096700187574 -0.399603310539102 178 181 180
1.0142393774347425 -0.06522550709992005 -0.40090291145072604 57 59 65
1.0142393774347425 -0.06522550709992005 -0.40090291145072604 57 59 65
0.9953577255892242 -0.06532206669806583 -0.40012995527277057 44 50 50
1.006287678434789 -0.09032721297121882 -0.4009840448487991 28 34 34
0.9390204198394161 -0.09125707289733062 -0.39806815734670853 21 27 25
0.9969734813135185 -0.16319304369767948 -0.40828502255071747 27 27 23
0.9132842478197618 0.049455873948906215 -0.3932854413975593 37 40 41
0.9132842478197618 0.049455873948906215 -0.3932854413975593 37 40 41
0.9242065008869543 0.027352490425694237 -0.3961493767719904 28 36 33
0.9242065008869543 0.027352490425694237 -0.3961493767719904 28 36 33
0.969464346647884 0.008855939524441499 -0.3983649158600279 35 43 42
0.969464346647884 0.008855939524441499 -0.3983649158600279 35 43 42
0.8514069783877172 0.08090550730278655 -0.39094234781152165 187 190 191
0.8632900560279361 0.0733366480890318 -0.39160166377993744 27 33 33
0.8369810329745987 0.05083916253438917 -0.3905724309185123 108 111 110
0.8951208625007864 0.03292407953743334 -0.39189825994273847 67 59 56
0.8951208625007864 0.03292407953743334 -0.39189825994273847 67 59 56
0.8375464234897482 0.03017366286854873 -0.39143766623063797 107 107 109
0.8377678112075931 0.028741461163180174 -0.39137087105543095 175 181 179
0.9908364177722975 0.0017370446714699886 -0.39278897269665575 49 56 60
0.9908364177722975 0.0017370446714699886 -0.39278897269665575 49 56 60
0.9908364177722975 0.0017370446714699886 -0.39278897269665575 49 56 60
0.9375068316062601 0.00031974909471329686 -0.3934113672739198 37 40 41
1.0094931748573739 -0.010972319098135735 -0.39312752106015647 47 53 55
0.968690778660865 -0.02015066288394523 -0.392071991570686 54 54 58
0.968690778660865 -0.02015066288394523 -0.392071991570686 54 54 58
0.97316578383609 -0.020105533088573387 -0.39263571749223775 185 191 191
0.97316578383609 -0.020105533088573387 -0.39263571749223775 185 191 191
0.9580833138719493 -0.03169240909843014 -0.3927871177351917 38 41 42
0.9963069537517035 -0.050926481337931824 -0.39043116625518065 40 45 50
0.9421707161983648 -0.05277060403579414 -0.3915128041027108 167 175 174
0.9332903088871323 -0.05342413322184367 -0.39138531146667876 166 166 170
0.9359450102355956 -0.055815263854190125 -0.3911810166206287 176 182 180
0.933347773063168 -0.05575779841048646 -0.3912877314807846 37 36 43
0.9274691567751903 -0.06177755005715772 -0.39083559946290164 22 25 26
0.9727392836465641 -0.08773260994620197 -0.39189567370408895 38 37 46
0.9734768270458397 -0.09072665739840292 -0.3917594167367177 184 192 193
0.8341256273192182 0.139397925895723 -0.3822338055926086 169 168 168
0.8341256273192182 0.139397925895723 -0.3822338055926086 169 168 168
0.8345365205660821 0.13093809359801634 -0.3832137607417809 199 199 203
0.8345365205660821 0.13093809359801634 -0.3832137607417809 199 199 203
0.8922995097787477 0.10938097316587 -0.38520807222464637 34 37 38
0.9050762781931534 0.10679862244850276 -0.3854667740662827 185 191 191
0.9050762781931534 0.10679862244850276 -0.3854667740662827 185 191 191
0.9003105854416567 0.10112772498468622 -0.38534119042521103 32 35 34
0.9003105854416567 0.10112772498468622 -0.38534119042521103 32 35 34
0.9051277371731598 0.09652382315109541 -0.3859593082358083 180 191 189
0.8949778815798659 0.09579949139652859 -0.3862278076138384 183 189 187
0.9093606114872084 0.09271066972427848 -0.38644486058693195 36 36 36
0.9821054444222238 0.08506590805215997 -0.38770297809858495 204 203 205
0.9821054444222238 0.08506590805215997 -0.38770297809858495 204 203 205
0.9344206283937466 0.08018421525161745 -0.38809663086487434 41 44 45
1.000634333653443 0.07849541111404802 -0.3877709998155008 201 204 205
0.9970454331561204 0.07727422272090102 -0.3872738123193256 88 75 83
0.9372157738446589 0.07424679787581907 -0.38744596972226014 204 204 204
1.0005562370798304 0.0745072218087397 -0.38798576782482613 80 75 85
1.0005562370798304 0.0745072218087397 -0.38798576782482613 80 75 85
0.9290880306583 0.06901939992748687 -0.3879129997102142 202 205 204
0.996724703484663 0.07035866069611466 -0.38793557589768457 89 80 87
0.996724703484663 0.07035866069611466 -0.38793557589768457 89 80 87
0.9622587023554581 0.046930406662810085 -0.3891130775231052 199 202 201
0.9731071075405591 0.03931502304324694 -0.38899553442900753 63 66 67
0.8350572033416943 0.013926359247864145 -0.3894137229470055 174 180 180
0.836599996822879 -0.0019009343770168177 -0.38923709598990347 95 95 97
0.836599996822879 -0.0019009343770168177 -0.38923709598990347 95 95 97
0.8371793428999988 -0.011474145659731415 -0.3894432908438847 153 153 155
0.8377562721113723 -0.021618570301508877 -0.3891923280909279 110 111 107
0.8380442258820417 -0.02848478242468179 -0.388838180007531 171 171 171
1.0009708813759073 0.10791664577055712 -0.39639234496083736 52 60 57
1.0141935586430704 -0.00959079877441129 -0.3974890885141877 67 77 82
0.9787345200606966 -0.01466438896114679 -0.4000253150822074 46 56 59
0.9695916082443439 -0.02119084800045214 -0.39939482561964706 178 181 182
0.8989263346366354 -0.027928528204800143 -0.3968074221604126 158 169 167
0.9905456881805946 -0.041740667517992415 -0.3991412487543428 180 183 184
1.0032876744302024 -0.0528992381376105 -0.40012419040827485 49 57 58
1.0032876744302024 -0.0528992381376105 -0.40012419040827485 49 57 58
0.9410207498639005 -0.05594628218184807 -0.3869481883685848 27 33 31
0.9597333947638506 -0.01539800504862807 -0.3908860600547202 185 191 191
0.9096031778959317 -0.014081231280632092 -0.38832114761370523 21 27 27
0.9034370445802803 -0.016755351477519317 -0.38847992956842264 162 168 166
0.9576595501202417 -0.01997692790879203 -0.38711606810122073 183 189 189
0.9576595501202417 -0.01997692790879203 -0.38711606810122073 183 189 189
0.9686004253645113 -0.021466573666900093 -0.396243438376212 165 171 169
0.9003350284369287 -0.020261452632842916 -0.3879805801834815 39 39 41
0.9003350284369287 -0.020261452632842916 -0.3879805801834815 39 39 41
0.9003350284369287 -0.020261452632842916 -0.3879805801834815 39 39 41
0.9036548207222798 -0.023195505647360178 -0.3869461074424495 158 164 162
0.9036548207222798 -0.023195505647360178 -0.3869461074424495 158 164 162
0.9049866161383651 -0.024980105609803994 -0.38744541899214746 159 167 164
0.9049866161383651 -0.024980105609803994 -0.38744541899214746 159 167 164
0.9374642573393699 0.06577785221986597 -0.3869714149788718 30 36 36
0.9297140434930267 0.06503977535071848 -0.38617041359790855 177 185 182
0.9297140434930267 0.06503977535071848 -0.38617041359790855 177 185 182
0.9922900059817289 0.06643375731622103 -0.3858640369314519 188 191 190
0.8772695882499134 0.06256844352080962 -0.38681190816346683 32 35 36
0.9238238872408432 0.0631827478979517 -0.3860188935078248 31 34 35
0.9238238872408432 0.0631827478979517 -0.3860188935078248 31 34 35
0.9238238872408432 0.0631827478979517 -0.3860188935078248 31 34 35
0.9581747215736105 0.03559553531531362 -0.38754119667619985 45 33 33
0.9581747215736105 0.03559553531531362 -0.38754119667619985 45 33 33
0.9691819623172854 0.03513212966396245 -0.3871248501518681 182 190 189
0.9691819623172854 0.03513212966396245 -0.3871248501518681 182 190 189
0.96526985585766 0.034920885704530884 -0.38708486547735454 39 39 39
0.96526985585766 0.034920885704530884 -0.38708486547735454 39 39 39
0.9615509033221222 0.03487330208878041 -0.3872429968349692 190 198 197
0.910403895789139 0.030802114018621214 -0.3874881868032966 36 39 40
0.9357033348955832 0.012317435824091755 -0.3901930061057456 189 195 195
0.9884404414576154 0.008520448084781718 -0.38636861682613516 188 196 195
0.9884404414576154 0.008520448084781718 -0.38636861682613516 188 196 195
0.9308965961723413 0.007684665522964066 -0.3876693240455967 51 50 54
0.9308965961723413 0.007684665522964066 -0.3876693240455967 51 50 54
0.9387267115933521 0.00341422519507157 -0.3876103913197689 185 193 192
0.9387267115933521 0.00341422519507157 -0.3876103913197689 185 193 192
0.9308183406077334 0.0034603646919536173 -0.3876016392419245 182 190 189
0.9308183406077334 0.0034603646919536173 -0.3876016392419245 182 190 189
0.9251686738472774 0.0016037270881112556 -0.38790858717048005 33 39 39
0.9251686738472774 0.0016037270881112556 -0.38790858717048005 33 39 39
0.914528159458217 -0.0031116996459833453 -0.38909777416019586 34 37 36
0.9686637829047505 -0.016189566998616543 -0.38622185918253815 47 47 49
0.9549169379714703 -0.030562052957701827 -0.386729948497269 39 41 47
0.9080645429434957 -0.028876306625330188 -0.38790990046119955 30 33 32
0.9821408390816355 -0.033294854723921165 -0.3849776295311284 42 48 50
0.9512983780127391 -0.03421575656870419 -0.38591562709569927 186 189 188
0.9512983780127391 -0.03421575656870419 -0.38591562709569927 186 189 188
0.951475913476707 -0.03948643315091698 -0.38616032250147136 31 34 37
0.951475913476707 -0.03948643315091698 -0.38616032250147136 31 34 37
0.9854065623874497 -0.042363702732596056 -0.38511657021623996 40 45 50
0.8368866813550445 -0.03619383339510105 -0.3871780424891469 114 108 114
0.9392499558753167 -0.04626430070524257 -0.386887945816483 183 191 190
0.9392499558753167 -0.04626430070524257 -0.386887945816483 183 191 190
0.934443093447065 -0.04602544507371219 -0.3870430682680446 179 185 183
0.934443093447065 -0.04602544507371219 -0.3870430682680446 179 185 183
0.9311367971431459 -0.04729622028453713 -0.38607945890275375 48 47 47
0.9311367971431459 -0.04729622028453713 -0.38607945890275375 48 47 47
0.9368798734568888 -0.04883432464942725 -0.38706370417430064 186 189 188
0.9860513157579899 -0.05355211948600374 -0.3853302406525077 37 39 45
0.9938693539680475 -0.05719737679956968 -0.38779653691018845 51 46 58
0.9857258611313386 -0.061048663398848846 -0.38518638412204687 40 45 52
0.9279516259864024 -0.0577160709586803 -0.38671718805073135 41 36 44
0.9837652257043578 -0.07022809167360793 -0.38798607038106037 29 34 39
0.9550598573940952 -0.07367762130319512 -0.38583651962606047 32 37 42
0.9550598573940952 -0.07367762130319512 -0.38583651962606047 32 37 42
0.9694903238671905 -0.08036176327350555 -0.38545451460618535 41 43 51
0.9593906454611257 -0.08458273636907757 -0.3859359451052819 183 183 183
0.9589661447824399 -0.09055069550884072 -0.3856915557654309 28 34 36
0.9754102287052617 0.08896240536545119 -0.38597216875213824 193 197 192
0.9754102287052617 0.08896240536545119 -0.38597216875213824 193 197 192
0.8674844129716296 0.07474678110943248 -0.3859337248538977 185 191 193
1.0006729835122636 0.07722545088327967 -0.38655142676823834 191 194 195
1.0032882904839817 0.07310236357188626 -0.38613693716854447 67 70 73
0.9030608012390466 0.03568991213996036 -0.3869365219082259 35 38 41
0.8774158658145074 0.013317586497107176 -0.3874403965249007 23 29 29
0.8765678312823327 0.004707566701929007 -0.3863747220499296 175 183 184
0.8318831846538339 0.0024980837873260758 -0.35081935746771126 108 104 109
0.8947248958239653 -0.027911981921753218 -0.38273569735612056 179 182 181
0.8633503053004062 -0.04773333058916441 -0.3846015455322347 24 27 26
0.8771155475019434 -0.06120600796335892 -0.38376481299304455 24 24 24
0.8943090760710183 0.09306900033736018 -0.3950487261974132 37 37 37
0.8650487275436104 0.0122256696720391 -0.3882035105795538 170 178 179
0.8690194743709768 0.008298591087024083 -0.388803391153645 30 33 32
0.865307166824945 0.005216676759008291 -0.38789307120639044 171 179 180
0.865307166824945 0.005216676759008291 -0.38789307120639044 171 179 180
0.863912946596849 0.0035753494997765043 -0.38717421270815006 173 181 180
0.863912946596849 0.0035753494997765043 -0.38717421270815006 173 181 180
0.8628266601332658 -0.0009405438514574066 -0.38748914698550374 24 28 23
0.983321862674239 -0.00987802251415624 -0.3858489146332889 57 65 66
0.9622113604354989 -0.03185895267311467 -0.38494298193286164 41 47 49
0.9757203513751174 -0.0355042445073377 -0.3843030207278189 177 183 181
0.938253347568232 -0.05626457385466197 -0.37964625947759084 29 35 35
0.9317835823405798 -0.05854941012730094 -0.37975673576315777 174 182 181
0.9230699911492204 -0.060644127435245714 -0.3788911096607795 28 31 32
0.9069103856841512 -0.07922275227769987 -0.3759013058090009 22 25 24
0.921491941806799 -0.09463769636438187 -0.38001688718670806 26 32 30
0.9184393570760935 0.11147933019550076 -0.3811339696774141 35 41 43
0.979299750204768 0.11299103917812839 -0.38079702437315405 57 65 66
0.8564855850740076 0.08778727945357309 -0.37830513928948856 30 36 34
1.0914097525342388 0.10259753735262615 -0.3857068685873957 98 95 92
0.8869841364513105 0.08096635485245586 -0.3811455378430053 34 37 38
0.9785930681276749 0.08256501828799281 -0.3802312074437955 193 199 199
1.082448275655262 0.08203088432755082 -0.38458864028015605 71 71 71
1.0897216377754435 0.060871860371427645 -0.38192913565212805 171 174 175
0.9484660700561549 0.05161753662405829 -0.3808145084739216 192 200 199
0.9785653555462468 0.05203548258654814 -0.38003124199237637 35 43 42
0.8567548153158688 0.04887326677656387 -0.3806051177805752 30 36 38
1.0805141241825629 0.049158619096872073 -0.3833471199932331 137 145 144
1.0799319650797412 0.03793545458677624 -0.3848322254441835 94 93 95
0.8570215172316837 0.025697185500787274 -0.3808312424822118 41 47 49
0.9543579666016607 -0.07423369875280185 -0.37464559768390576 174 177 178
0.9636942244629833 0.09521958359957669 -0.3810159029426832 190 198 195
1.0819986635009793 0.09347593734588686 -0.3848517301090533 98 104 102
1.001270489637268 0.08048809273241148 -0.3827655036669508 52 52 52
1.001270489637268 0.08048809273241148 -0.3827655036669508 52 52 52
0.8605197672774527 0.07041978805188878 -0.37779165153662975 29 37 36
0.9940105380103219 0.0756059051980604 -0.3812364351648094 51 43 40
1.0764815544552742 0.07298019629033572 -0.3846703200361147 138 144 144
1.079480440673173 0.0722036980023176 -0.3864387276233744 84 84 86
0.8875502260259222 0.05655493087054582 -0.3814842761882566 34 40 42
1.0815388112139053 0.04289421387478977 -0.38486027437288123 131 137 137
1.0815388112139053 0.04289421387478977 -0.38486027437288123 131 137 137
0.9836140432655724 0.018794599732422337 -0.3821362145907946 40 50 55
0.9868372726709869 0.0154078556170703 -0.38194017743416614 189 197 196
0.9868372726709869 0.0154078556170703 -0.38194017743416614 189 197 196
0.9253229261171073 0.01454798097582189 -0.3826769369068667 184 192 191
0.8676601268562768 0.009297810614823907 -0.3818404102308904 49 48 52
0.8758360578237406 0.005617858337734817 -0.38272542975098595 189 195 195
0.863043348022786 0.004563651999075872 -0.38221051935690437 186 192 192
0.8716755876922772 0.002202817831606587 -0.38270601217699846 45 44 48
0.8716755876922772 0.002202817831606587 -0.38270601217699846 45 44 48
0.8646575051482291 0.0023416908015450673 -0.3826061415876342 52 39 47
0.8646575051482291 0.0023416908015450673 -0.3826061415876342 52 39 47
0.8620647878168842 9.501366033935483e-05 -0.38263798189310716 38 41 42
0.9289132275491853 0.06917256605019877 -0.38402336781031116 197 205 206
0.9289132275491853 0.06917256605019877 -0.38402336781031116 197 205 206
0.9080922461055909 0.04511378944320419 -0.3835863725296346 38 37 39
0.9031782692516982 -0.026878240403822157 -0.3869673165950379 188 191 194
0.9031782692516982 -0.026878240403822157 -0.3869673165950379 188 191 194
0.9040851807173281 -0.028559304359962564 -0.3866586111816526 192 200 201
0.9040851807173281 -0.028559304359962564 -0.3866586111816526 192 200 201
0.8941176497866822 -0.029791193156922923 -0.3842741444820112 193 198 203
0.8949382737476091 -0.032241612449425895 -0.38729380246783357 181 184 187
0.8949382737476091 -0.032241612449425895 -0.38729380246783357 181 184 187
0.9457749777291075 -0.03734977957051891 -0.38929306041116174 41 44 43
0.8926302734013266 -0.035037182924602776 -0.387834058086645 38 38 42
0.8824265243343303 -0.038532577216227756 -0.38714277811887987 29 32 31
0.8890038321029192 -0.044508074222200614 -0.38712016445604436 29 32 31
0.8829962328841914 -0.04457860337210083 -0.38813831749802485 183 186 187
0.86279424247955 -0.05017074488855877 -0.38914974262515767 30 29 29
0.8733690777525851 -0.06053419834875274 -0.3895101729165335 180 183 186
0.8729415024546274 -0.06030624355795656 -0.38776464284587076 180 183 186
0.9499916631212524 -0.06802648023448389 -0.3824383772010978 41 47 49
0.9198274087131382 -0.06930787242072503 -0.3856675441777123 177 180 179
0.9079137032731174 -0.0835267417150844 -0.38194087972754187 30 30 30
1.002308661053664 -0.011671508174413186 -0.38048369676089333 67 75 76
0.9003308783687544 -0.03243846351016742 -0.38806922042883674 181 187 189
0.9337938150398323 -0.04959338872868066 -0.38662515762077776 181 189 190
0.9337938150398323 -0.04959338872868066 -0.38662515762077776 181 189 190
0.9980990968874626 -0.0561144031317001 -0.381568116115544 192 200 201
0.9197576173577875 -0.07490750226591411 -0.3842172757587821 27 30 31
0.8777332965686696 -0.049635890329322994 -0.38745496013525693 29 29 29
0.8777332965686696 -0.049635890329322994 -0.38745496013525693 29 29 29
0.8684416421944426 -0.06315454883987842 -0.3882335396839653 39 38 45
0.9616599456710327 -0.0780947520063297 -0.3856371990065243 42 47 54
0.89596435831333 -0.08257028201199021 -0.3872667025570263 185 192 196
0.9005760742423701 -0.0863042082462573 -0.38683000731693684 34 33 35
0.9054498703469365 -0.09006955984452208 -0.3860298085985528 186 189 190
0.9928908697256797 -0.16408857988945283 -0.3943693957153969 20 19 19
0.9614410733516789 0.04193631499344245 -0.3800103555882914 56 48 45
0.9580025850665651 0.03542607503275607 -0.3798434952455398 46 53 57
0.9588750535934898 0.03212718052263541 -0.3929875005862973 33 39 39
0.9830750722240981 0.0038106447117733605 -0.37763348833443655 178 186 183
0.9869055382403434 0.0035601042388986085 -0.3774463800387466 73 76 79
0.9415946619394687 -0.006567317637954867 -0.3794482342604927 187 195 192
0.9384516875129597 -0.007932996565232574 -0.37312543691011285 187 195 192
0.9547977647298573 -0.009405934754222122 -0.3934059478394675 164 170 168
0.9149845788769543 -0.013788728775233424 -0.37322430872842294 34 40 42
0.9290934915465222 -0.02464797741990585 -0.37898785756782377 30 36 34
0.9288492436992464 -0.053742752474940154 -0.37667566783154033 184 190 190
0.9602673495907773 0.028007333025680294 -0.3710639747151283 186 192 192
0.9289872281626792 0.006870590363004725 -0.37499406670912666 193 196 195
0.8675269548097787 -0.0019335107843999485 -0.371721401257504 52 50 57
0.9285376853248806 -0.0009309692315633606 -0.3735426479879127 55 54 54
0.9247673538317296 -0.001553324501334338 -0.3737114741605951 182 193 189
0.9953946513923668 -0.0017563147095020052 -0.37641727301640154 65 76 76
0.9353155696863908 -0.004429531569602178 -0.3738165763169859 48 48 50
0.9143736760125514 -0.008228999893561698 -0.3729303205393561 189 197 198
0.904003395852459 -0.018654256129070363 -0.37285495616170966 32 38 40
0.9054632241069724 -0.028133223281146306 -0.3922946727935823 24 23 25
0.9054632241069724 -0.028133223281146306 -0.3922946727935823 24 23 25
0.8527024085378452 -0.03963592483747984 -0.36326419598563187 35 41 43
1.0801737830824591 0.12001447500784554 -0.38757080786408366 140 143 144
0.9919452665963127 0.10164839306566124 -0.3834042575361942 53 61 62
0.9919452665963127 0.10164839306566124 -0.3834042575361942 53 61 62
1.0732901765038962 0.08769996439619804 -0.38572382380050574 164 172 171
1.0765896861054374 0.08635768280560764 -0.38327018551308456 164 170 172
1.0780310081342455 0.08585932475688476 -0.3898976384759682 170 178 175
1.0780310081342455 0.08585932475688476 -0.3898976384759682 170 178 175
0.958869967004564 0.04342343743183166 -0.38876259018011633 197 203 205
1.0857046933381624 0.039382146788497684 -0.3886781424025033 108 114 116
1.0007315430827937 -0.036218780781554945 -0.37767416833532264 64 74 77
0.9930722157536511 -0.054542981043075485 -0.3879282143692842 57 62 67
0.9930722157536511 -0.054542981043075485 -0.3879282143692842 57 62 67
0.876102605445547 -0.05532923872506738 -0.38750837465167576 186 189 192
0.8639021369292911 -0.05551222257812326 -0.3873915954023713 189 189 191
0.8568998633650916 -0.05786798828902232 -0.3656358841697356 34 33 40
1.0144558637168626 0.12572149857373016 -0.3660658460952572 200 199 199
0.9753303959973241 0.023015702740715203 -0.37517925721625284 55 66 64
0.9775854819789256 0.018342390168362182 -0.3791122071549619 184 187 188
0.9775854819789256 0.018342390168362182 -0.3791122071549619 184 187 188
0.978939556769669 0.014354014586876044 -0.37548339531617525 65 70 75
0.9201299910426493 -0.0030398572846274396 -0.375856969647416 34 37 38
0.9201299910426493 -0.0030398572846274396 -0.375856969647416 34 37 38
0.9698579466114438 -0.00910520002935663 -0.37290933117745606 69 72 73
0.9149845788744783 -0.013788728775988805 -0.3732243087227785 34 40 42
0.8934361647704209 0.04698478622895838 -0.38869756790229604 21 27 25
0.8675269548097787 -0.0019335107843999485 -0.371721401257504 52 50 57
0.9602673495907773 0.028007333025680294 -0.3710639747151283 186 192 192
0.9191477269201543 0.02441611071741614 -0.38625426121782636 35 41 41
0.888544493774941 -0.013128018755906213 -0.3880647222144721 196 196 200
0.888544493774941 -0.013128018755906213 -0.3880647222144721 196 196 200
0.8958771954438076 -0.02065365634923394 -0.38786304768613594 45 34 38
0.958323284536522 -0.023395099385296516 -0.38945026233530905 196 204 205
0.958323284536522 -0.023395099385296516 -0.38945026233530905 196 204 205
0.9645911308100503 -0.023300203389793953 -0.39174480526484934 191 199 200
0.9645911308100503 -0.023300203389793953 -0.39174480526484934 191 199 200
0.9042528481694546 -0.028400960815524862 -0.3879483324413607 187 194 198
0.9042528481694546 -0.028400960815524862 -0.3879483324413607 187 194 198
0.957760890511904 -0.03148053116185059 -0.3719615868185453 178 189 187
0.957760890511904 -0.03148053116185059 -0.3719615868185453 178 189 187
0.9478554382798507 -0.037492145467010775 -0.3930962610155959 40 46 46
0.9478554382798507 -0.037492145467010775 -0.3930962610155959 40 46 46
0.8820968040732542 -0.03885138085322414 -0.38527309284476474 32 35 36
0.8820968040732542 -0.03885138085322414 -0.38527309284476474 32 35 36
0.8887423225267436 -0.03875847546403274 -0.3881332572884072 189 195 197
0.8887423225267436 -0.03875847546403274 -0.3881332572884072 189 195 197
0.9538172392316536 -0.042968285697594574 -0.3922960513112658 40 46 48
0.9538172392316536 -0.042968285697594574 -0.3922960513112658 40 46 48
0.9472442317539559 -0.04307047354222166 -0.3915490263680974 192 198 200
0.8894254636164194 -0.04455325369727626 -0.38874274995822794 34 37 40
0.9404463802789085 -0.04973798376221011 -0.39032988212535 183 194 192
0.9804955062888442 -0.05292797064883869 -0.36552152553263995 57 68 68
0.9804955062888442 -0.05292797064883869 -0.36552152553263995 57 68 68
0.9398468762382393 -0.05783588491743585 -0.3905453106330181 45 44 48
0.9320534329647673 -0.058275162877994696 -0.38993996721533697 57 51 57
0.8671060783834795 -0.06031227744752212 -0.3854554572058542 185 188 191
0.870172181400579 -0.06540820575279732 -0.38684011239747074 29 29 29
0.8827245787900464 -0.07006663713309817 -0.3861937037105836 184 190 192
0.9214487966777545 -0.07526348833666763 -0.3887398825775512 32 35 38
0.8580265694028011 -0.07681684092428995 -0.38882267093306644 28 31 34
0.9718433112873092 -0.08472489114486823 -0.39112404088120273 61 57 60
0.9718433112873092 -0.08472489114486823 -0.39112404088120273 61 57 60
0.9663910629365586 -0.08871136289450485 -0.38904218588949757 193 199 201
0.9713921614470693 -0.09570296677882671 -0.3891934761395779 49 51 57
0.9741981480532357 -0.09652063900481496 -0.3886028089064424 59 59 61
0.926429973374623 0.0055421619438000645 -0.3686463272619402 193 196 195
0.926429973374623 0.0055421619438000645 -0.3686463272619402 193 196 195
0.9338556933387646 0.00492765332847485 -0.3866915742025008 133 151 147
0.9338556933387646 0.00492765332847485 -0.3866915742025008 133 151 147
0.9114992010433772 -0.009732946853320476 -0.3659428716832486 188 196 195
0.9054441656729851 -0.015171123952070417 -0.36451855772235076 191 197 199
0.997133814242133 -0.026438121734181287 -0.3739443002723474 61 73 75
0.9658476922288496 0.08146743853097439 -0.3712410145414356 203 203 203
0.9126650297566625 0.05079589572401323 -0.37210378880198225 202 202 202
0.882881611225961 0.020167684917443304 -0.37098162898467213 197 203 205
1.0013916300950243 -0.012016663900390268 -0.3790858732869971 67 75 76
1.0638754965534294 -0.03481987272157122 -0.37589025929598924 152 160 159
0.9670760503248679 -0.038167690750673874 -0.370905089760627 178 186 183
1.0683756834387006 -0.04057621607674562 -0.37831302241658676 107 110 111
1.0625195297122885 -0.04366556135799607 -0.3743544877264448 161 167 169
1.0651313765322845 -0.0543976670708447 -0.37678749331747735 155 161 163
1.064378226895421 -0.056210320453300176 -0.3760607919392464 148 154 154
0.939095755894734 0.07343561066802475 -0.39068036063698397 180 188 185
0.9353293233794768 0.039211147346270174 -0.3936463589612851 22 28 26
0.9332209865252976 0.0383976856549834 -0.38885081954097106 23 30 24
0.9238343949957742 0.016694207260679838 -0.3871239442112496 15 23 20
0.9263343452096591 0.013306341520354007 -0.38610060253937817 134 157 153
0.9289593973924091 0.010692019179440052 -0.3911989474082914 39 35 38
0.9299694532119066 0.008800137388453916 -0.38676279865006485 132 155 149
0.9299694532119066 0.008800137388453916 -0.38676279865006485 132 155 149
0.927039483843338 0.005822958144579619 -0.3877209149100582 132 152 147
0.9592464583086553 -0.014552414478421996 -0.3918067619603486 130 144 148
0.9224780198745971 -0.03542083348982195 -0.39091405370527216 15 21 19
0.9224780198745971 -0.03542083348982195 -0.39091405370527216 15 21 19
0.9482578062514538 -0.04065520916536376 -0.39236692067882867 146 157 157
0.9370602522039516 -0.04707347697341696 -0.3924894598307422 135 148 145
0.9342647133618506 -0.04865674409119194 -0.3923792129367297 48 54 54
0.9342647133618506 -0.04865674409119194 -0.3923792129367297 48 54 54
0.9391034107724227 -0.05008265220070929 -0.39221807396271036 186 192 192
0.9391034107724227 -0.05008265220070929 -0.39221807396271036 186 192 192
0.9976780663115778 -0.05077066763330377 -0.39247034090353367 43 51 50
0.9484127755329634 -0.0665696281326155 -0.3919744043988146 153 161 160
0.9484127755329634 -0.0665696281326155 -0.3919744043988146 153 161 160
0.9635635478813411 -0.0930804632831143 -0.3937966923446149 30 33 34
0.902564524513418 0.008866246553919778 -0.391598339567745 18 21 20
0.8951895404302642 -0.014514190767434383 -0.391838466626987 20 23 22
0.8966652775430097 -0.0200902314218112 -0.39138666942744593 157 165 162
0.9045015479218719 -0.0234543608686853 -0.39108160171624995 158 164 162
0.9045015479218719 -0.0234543608686853 -0.39108160171624995 158 164 162
0.9041607707172793 -0.02734480674914083 -0.3913656247752131 26 26 28
0.9041607707172793 -0.02734480674914083 -0.3913656247752131 26 26 28
0.8790269762102066 -0.04592172051361045 -0.3912389334184032 20 23 22
0.8790269762102066 -0.04592172051361045 -0.3912389334184032 20 23 22
0.8779588015835775 -0.05152573026240591 -0.39147704369107733 160 161 157
0.8722295667498663 -0.05343467924410223 -0.3916291932392748 160 160 160
0.8722295667498663 -0.05343467924410223 -0.3916291932392748 160 160 160
0.9323714350303692 -0.05466454554526407 -0.3916268178324782 24 27 28
0.9323714350303692 -0.05466454554526407 -0.3916268178324782 24 27 28
0.9323714350303692 -0.05466454554526407 -0.3916268178324782 24 27 28
0.9282953860942593 -0.05508188325825495 -0.39185645299322636 151 151 151
0.9354281795412288 -0.05820089855996803 -0.39159926695617714 154 160 160
0.9416592819712006 -0.059896704410646304 -0.391297655155453 22 25 24
0.9088178185175285 -0.07823877846902781 -0.3926234902987708 32 31 31
0.9061944233707363 0.04079026866099724 -0.38512274428065274 13 19 17
0.9105501851838423 0.02856212617141752 -0.38628412060174844 17 20 19
0.8781292068453174 -0.0004934030842745338 -0.3887934334698664 13 19 19
0.905089106460088 -0.01777074062552219 -0.39135894508773766 176 187 187
0.9020395524794282 -0.021362429167312336 -0.3913442424887388 33 29 30
0.9020395524794282 -0.021362429167312336 -0.3913442424887388 33 29 30
0.8953426575765101 -0.0324374494639504 -0.3919245585276876 16 22 22
0.8653323573267393 -0.04742941210424773 -0.3908362549223114 21 27 27
0.8670652531601506 -0.05278577423237923 -0.3911619069713918 146 152 152
0.8672243800374815 -0.05279135304496397 -0.3919345520867181 146 152 152
0.8791284716067163 -0.052582074107730414 -0.3917052395241151 161 161 161
0.8645462123516577 -0.05670591192796901 -0.39267088904185404 22 22 22
0.8760726070803826 -0.05764161831178374 -0.3919648643155119 138 149 147
0.8919048649145737 -0.07283218487024723 -0.39154222403616923 154 155 151
0.8615849565284597 -0.07470476921175204 -0.3920375185618797 16 20 15
0.9036542402726382 -0.08358696773101618 -0.3920450041846364 16 22 20
0.9294971155065681 0.014434696999555597 -0.39303518101803553 168 176 175
0.9272393797044033 0.010490627464267417 -0.39404535107863137 24 28 23
0.9329486851330873 0.002509028726560304 -0.3914100001766846 178 186 183
0.9057229496911332 -0.0244379345046667 -0.391096241595589 158 164 162
0.9057229496911332 -0.0244379345046667 -0.391096241595589 158 164 162
0.9679496939210973 -0.023441303215646837 -0.39170592735289433 38 41 42
0.90272628173336 -0.02999403256474036 -0.3911765797654358 150 158 157
0.989746413116977 -0.05517026075063595 -0.3915281259945802 42 45 46
0.9335351577976951 -0.05581817625477594 -0.391178690833225 32 28 31
0.9691908925072024 -0.08620247070146206 -0.3928281032602375 185 191 193
0.9530267432287411 0.05245714912423965 -0.39080128018896254 171 174 173
0.9568620179576085 0.04882243576381911 -0.3911293756156917 34 37 40
0.834238325668867 0.09846437360090014 -0.3899763374415355 186 189 190
0.8383655808072417 0.045280102242237476 -0.3904710581874277 119 115 116
0.8369375351031549 0.06714107230959673 -0.3906872366080886 186 189 190
0.8355553845931474 0.1307823652121164 -0.3871688538210493 189 189 191
0.8359614369138034 0.11986061780353106 -0.38683591107982046 190 190 192
0.8359614369138034 0.11986061780353106 -0.38683591107982046 190 190 192
0.959627990486158 0.10319146125108514 -0.3893718470391732 186 189 188
0.959627990486158 0.10319146125108514 -0.3893718470391732 186 189 188
0.9613922483005306 0.10076076710247021 -0.3888283250252612 55 54 54
0.9613922483005306 0.10076076710247021 -0.3888283250252612 55 54 54
0.9582158461939816 0.09973275200782905 -0.38915165591284323 183 189 187
0.9579664493326354 0.09440554731317768 -0.3895819891431542 39 45 45
0.9462952831569643 0.0891000669568859 -0.3902947104444944 34 41 35
0.9434264017166127 0.08036469300233196 -0.39163337701183165 28 31 32
1.0022833316725264 0.07389539447518101 -0.3903972653818724 70 77 81
1.002286992204242 0.07389220692324376 -0.3904003245293481 70 77 81
0.8366992301138587 0.05630351072624929 -0.39002908182804497 102 102 102
0.8386728874667169 0.055148885980393816 -0.3900753284857403 94 94 94
1.0029354106342205 0.0704975402591988 -0.39085453021750777 183 189 187
0.9987235877795133 0.0698093624774547 -0.3908932115761104 71 78 82
0.9987235877795133 0.0698093624774547 -0.3908932115761104 71 78 82
0.9987235877795133 0.0698093624774547 -0.3908932115761104 71 78 82
0.9918217143362572 0.06690802399745781 -0.3913055832784522 72 78 80
0.9918217143362572 0.06690802399745781 -0.3913055832784522 72 78 80
0.8375727485403256 0.04958843686977539 -0.3904449471162772 115 115 119
0.8375464966247456 0.049574201098651016 -0.3904598222455644 101 100 100
0.9894155661291401 0.06380884189634688 -0.3915212593644915 54 65 63
0.8383655808072417 0.045280102242237476 -0.3904710581874277 119 115 116
0.837823490653455 0.03929702923592104 -0.3904173233602176 178 181 182
0.837823490653455 0.03929702923592104 -0.3904173233602176 178 181 182
1.0010440883769356 0.04648406765854817 -0.39235251515776887 63 71 70
1.0010440883769356 0.04648406765854817 -0.39235251515776887 63 71 70
0.904981092574584 0.03643089100828371 -0.392098454360611 32 35 34
0.904981092574584 0.03643089100828371 -0.392098454360611 32 35 34
0.974796435497813 0.03849781757317284 -0.3916430431811064 41 52 52
0.8726588914502862 0.014945877999185692 -0.3927178506447782 23 26 25
0.8794570203014569 0.014155423325374825 -0.3931858057564397 21 24 23
0.8788749951556857 0.005439210406586823 -0.3927470366854834 165 171 171
0.896438123667799 -0.015501954186236263 -0.3920554413084239 20 23 22
0.8386693958462609 -0.01669639793018744 -0.39151529176056005 159 159 161
0.8386693958462609 -0.01669639793018744 -0.39151529176056005 159 159 161
0.8978768845686722 -0.02108048994750561 -0.39128634977836446 159 167 164
0.9020262779690186 -0.02135476576467486 -0.3912732942980677 37 36 38
0.8392415378038988 -0.02469578423625933 -0.3920652521602227 164 167 166
0.8392415378038988 -0.02469578423625933 -0.3920652521602227 164 167 166
0.9067235598010089 -0.026015029175109512 -0.3910779053998774 127 145 143
0.9067235598010089 -0.026015029175109512 -0.3910779053998774 127 145 143
0.8375342331933386 -0.02966824322110137 -0.39067521342499095 134 130 135
0.9041187907735434 -0.05421326784693557 -0.39174338522283336 15 19 14
0.8678469328732736 -0.056900488437638994 -0.39300011356468206 24 23 25
0.978066901348991 -0.09478125492054716 -0.3946094835010566 37 37 39
0.9896155951851378 -0.09737594197826036 -0.39462282554849115 30 36 36
0.8356881358774042 0.11128007889372811 -0.38711479286873945 196 195 197
0.8338119674369344 0.10927236119226261 -0.38657449967279983 193 193 193
0.9801284395568367 0.11357270059897255 -0.38480015424453906 36 38 44
0.9801284395568367 0.11357270059897255 -0.38480015424453906 36 38 44
0.9568946194677004 0.10892962355515669 -0.38688421733848244 33 39 41
0.8363721970495811 0.0903324103833302 -0.3877069910693944 188 188 188
0.9304574997886816 0.10200230791946961 -0.3844795493959696 26 32 30
0.9654046767428487 0.10467656108667621 -0.38868932738640805 54 54 58
0.9617936705746113 0.10194785773725891 -0.3866697360799189 170 178 177
0.9617936705746113 0.10194785773725891 -0.3866697360799189 170 178 177
0.836195239122815 0.08359309838694824 -0.38733826549832606 193 193 195
0.9676151703971807 0.09628883729519505 -0.3888778321904671 166 170 165
0.9462952831574978 0.08910006695729857 -0.3902947104455779 34 41 35
0.8371344926180941 0.07252338250183933 -0.3888659384641212 183 183 185
0.8370732352560689 0.07192051328522389 -0.3881604450542363 182 182 184
0.9764574251108162 0.0891959559878949 -0.3887391232431995 165 171 169
0.9764574251108162 0.0891959559878949 -0.3887391232431995 165 171 169
0.8725193512650623 0.07449334898244697 -0.38979424212289693 38 38 38
0.9524171281377826 0.08401005194927817 -0.39086769889759415 38 41 44
0.9524171281377826 0.08401005194927817 -0.39086769889759415 38 41 44
0.8376645454087068 0.067224595648252 -0.3894196641476683 122 118 119
0.8696227408795878 0.07138126358573103 -0.39069376352419893 33 30 25
0.8696227408795878 0.07138126358573103 -0.39069376352419893 33 30 25
0.943374540957373 0.08030001792203609 -0.39146298142564645 34 40 38
0.9837651725730525 0.08443069403901683 -0.3901561215657385 167 170 169
0.8371402750343525 0.06398765459261059 -0.3892267136094954 187 186 186
0.8371402750343525 0.06398765459261059 -0.3892267136094954 187 186 186
0.9873373348675025 0.08146776627919142 -0.3910263067944527 58 64 66
0.8372423712190848 0.06257850375876665 -0.389279854640363 186 185 187
0.9916652302292858 0.07766635342770209 -0.3907353015515008 60 68 67
0.8385276118709748 0.057409186984373015 -0.3898917986388157 101 95 97
0.9980023527793296 0.0737592280041737 -0.3898910196423677 170 173 172
0.9980023527793296 0.0737592280041737 -0.3898910196423677 170 173 172
0.8366797362057167 0.05630605204560244 -0.3900392658666607 114 110 111
0.9908468066074033 0.06990667490910364 -0.39064635001482795 166 169 168
1.0015101260973591 0.0664290595952095 -0.39036700535415364 185 191 189
0.8374377049502677 0.05051112219311066 -0.38970552145621523 185 185 187
0.8374377049502677 0.05051112219311066 -0.38970552145621523 185 185 187
0.916285192127181 0.057485086303447154 -0.3923232527654455 23 30 24
0.8602995854223271 0.049143369030603616 -0.39183760941506696 25 28 27
0.8959298701373156 0.046865002723014436 -0.39325392959234007 26 26 26
1.0080243648561371 0.01717942725124555 -0.3953869391791541 53 63 66
0.8658630679284941 0.004485022234918293 -0.3913835117321115 161 169 168
0.8677707455105018 0.0022546080740963623 -0.39358036198447227 41 27 23
0.8965257308323018 -0.015501232997603427 -0.3922830914364772 21 24 23
0.8392163704120069 -0.03528948749395473 -0.3903680133119588 157 160 159
0.8402416461837626 -0.037392152369686814 -0.39242319538988335 84 78 82
0.8402160182572309 -0.037403020175784 -0.392445910162975 84 78 82
0.8913468476881423 -0.04153051572499405 -0.3902115804188626 18 21 20
0.8777681905784603 -0.055507650426959675 -0.38832594932042624 27 26 28
0.8777681905784603 -0.055507650426959675 -0.38832594932042624 27 26 28
0.8679162524598062 -0.061489065655819714 -0.3945178746102098 159 159 161
0.8669989701916841 -0.06064047175344897 -0.3899197070290177 158 159 155
0.8917514875374039 -0.06723200737340046 -0.3914118665488543 21 24 23
0.8362325579709678 0.15552767576086182 -0.41458535430985255 112 108 109
0.8951843640055326 0.046143122682769475 -0.39082235892615824 12 20 19
0.8744479991516345 0.0022183216768624976 -0.3929824034278418 33 32 34
0.837103005793289 -0.024671946893111155 -0.3929882789444919 154 165 165
0.8405141773631891 -0.03357603583287978 -0.3934410860605346 109 112 113
0.838668015729477 -0.03753710740554519 -0.3933674904520397 85 82 77
0.838668015729477 -0.03753710740554519 -0.3933674904520397 85 82 77
1.0046962949643472 -0.047605747471141394 -0.3940207756386423 37 48 48
0.9971685798657677 -0.058717980071023176 -0.3929354552006419 44 43 50
0.9997265335514415 -0.06006545120507625 -0.39151326601892694 181 187 185
1.000501408092347 -0.06001451321054705 -0.39285451139175975 169 175 175
1.007580314954558 -0.062480016357269 -0.3923010451913002 50 53 54
0.9898679911559072 -0.06285540703690494 -0.39267475457132694 34 40 42
0.9552641128955014 -0.06693407435788314 -0.39374484268315474 21 27 27
0.9763056542692865 -0.07525012545728954 -0.39255573693652884 24 35 35
0.9714798642516809 -0.07935226096968881 -0.39309984374537427 174 177 176
0.972540250870056 -0.08203535204658254 -0.3917515741735227 37 35 44
0.9698537377143941 -0.09024603436706476 -0.39284859253258 39 38 45
0.8382570908358505 0.019351178246330033 -0.3832054515893066 147 152 159
0.8394100265099295 0.014251434969931028 -0.3838845672601356 106 109 108
0.8379001529135885 0.009716030432162313 -0.38312834339090335 161 167 167
0.8733841221614945 0.001842968108721057 -0.38813152692631536 31 31 25
0.9218468758829097 -0.009733589325080155 -0.39136050051395976 29 32 35
0.961908454441612 -0.018498983062958857 -0.3903946746613382 171 177 177
0.9699717751319873 -0.02522346556759375 -0.3926799102078456 54 54 54
0.9699717751319873 -0.02522346556759375 -0.3926799102078456 54 54 54
0.9857159001403979 -0.040208188828039435 -0.39153119996312125 173 176 175
0.9857159001403979 -0.040208188828039435 -0.39153119996312125 173 176 175
0.9889300917675656 -0.04446010974124174 -0.3864848791319385 57 57 59
0.9922380288565471 -0.047270910696154134 -0.3911712129363909 170 176 174
0.9988625313861178 -0.056169514975322576 -0.3882259117130376 174 180 178
0.9278319143044205 -0.06157292452180363 -0.39134362332851597 18 24 22
0.9164420525696872 -0.06651313526546956 -0.39066951334501016 20 23 22
0.9531958613490801 -0.07116336172035444 -0.3892729102215344 167 170 171
0.9658145295860456 -0.07837843034620925 -0.3967102841561259 165 168 167
0.9651695470323786 -0.08273293236605389 -0.39120149161648393 37 37 39
0.9651695470323786 -0.08273293236605389 -0.39120149161648393 37 37 39
0.9704272255809078 -0.08649539456294927 -0.3882859553414827 38 37 39
0.8358092161204276 0.10119179981702842 -0.3883696830261694 188 184 187
0.8365136342496264 0.10099277639710326 -0.389078383445773 186 186 190
0.8363564784294305 0.0986203408550505 -0.38842563579723854 203 199 202
0.8363282753437804 0.09649169817883513 -0.38885840064084637 139 133 135
0.8362603575343226 0.09412447524147752 -0.38952215799214446 187 186 190
0.8360578669412093 0.08881319095657207 -0.39016107893138197 186 186 186
0.8360578669412093 0.08881319095657207 -0.39016107893138197 186 186 186
0.8353962456692647 0.08001422124829395 -0.39130595906563725 189 189 191
0.8404382042158604 0.03537234641342327 -0.39879300251681443 178 181 182
0.8363371859957791 0.09193236702760596 -0.3888074374691303 116 116 116
0.837021292355103 0.07516078982367816 -0.38995694809066966 187 190 193
0.8369348985582669 0.07277279569206713 -0.38995756064832576 188 194 196
0.8374807227535095 0.06783845325684787 -0.3906592305998658 105 104 111
0.8374807227535095 0.06783845325684787 -0.3906592305998658 105 104 111
0.8374360588052453 0.06375313303802105 -0.3909316995665024 162 162 166
0.8365217356055268 0.05701906287728665 -0.3916146580491441 101 104 103
0.8384305330450514 0.0558975275407045 -0.39169111082377656 93 93 93
0.8373604693358618 0.04925904136215186 -0.3922829040628611 181 181 181
0.8348324890875749 0.14015200239890102 -0.38697546222671814 126 122 125
0.8352653459345732 0.13913739610507542 -0.38598210697942914 183 179 184
1.085560950351812 0.13019418080212203 -0.3930302759974008 106 106 100
1.0800548761867836 0.12068058700483848 -0.3889091016657105 91 91 91
1.0800164966516854 0.11852957962191427 -0.3872974652152674 111 118 112
0.9069822578654174 0.09590899193461976 -0.3893777916396218 182 190 189
0.9632211113201065 0.09998163368762604 -0.3897721793749915 48 51 52
