ply
format ascii 1.0
element vertex 567
property float x
property float y
property float z
property uchar red
property uchar green
property uchar blue
end_header
1.0914174751926018 0.05093692862671046 -0.3857299693109734 97 97 98
1.0788834476316034 0.04552834192873331 -0.38639369505255333 161 172 172
1.0952030675444104 0.028179235660307722 -0.38612932055338517 132 142 141
1.0781485312723484 -0.0021828293981598535 -0.3861136886545252 115 115 119
0.8314234458007251 0.13100589593355746 -0.3941014367350901 204 203 203
0.945231655560008 -0.07615185745062789 -0.3894259553117967 27 30 33
1.1081169789926912 0.03581350533744753 -0.39282056247857006 124 131 128
1.0058344641654 -0.005592892087662413 -0.36999824521793806 196 202 201
1.073386634394797 0.0769159428674981 -0.38594556088235965 190 194 189
1.0851303366024556 0.06016378003207478 -0.3981568704251282 188 195 189
1.0914672922292004 0.0525607750849644 -0.3877910676327806 142 148 148
0.8892509508744137 0.03133838011743093 -0.382774654392789 46 40 32
1.111368308597891 0.02197170584048147 -0.4042643897821514 105 106 106
1.0934329158660971 -0.001635800418945133 -0.3993078984348951 163 170 168
0.9791602021312663 0.024676666158993645 -0.38137082046141196 55 66 64
0.9764445618603961 -0.15395413681989015 -0.38145345089781135 19 19 19
1.0041090713431506 -0.15980165542131447 -0.38804306458025317 21 24 18
0.8313843583635806 0.07769269868817906 -0.3836054756355572 161 157 158
0.8295852363871711 0.13620312177788707 -0.3895403743057617 200 205 207
0.8320691398154719 0.0628348838289858 -0.38608818119717153 177 169 171
0.8315976629755616 0.04364025096594624 -0.3855639541951342 196 198 200
0.9054126355243377 0.03427530016764779 -0.3809393564093318 29 30 26
0.8320423661529754 0.08447761424399065 -0.3881687155955097 147 146 153
1.0996444690649902 0.06271291272778384 -0.39324227359638286 138 141 140
1.0976233006519838 0.027319774332997607 -0.3903358716557728 104 109 113
1.0893328934819504 0.01094752725970703 -0.3884303965263622 144 152 151
1.0893328934819504 0.01094752725970703 -0.3884303965263622 144 152 151
1.0866150845684128 -0.03201934303430324 -0.3930713165776014 125 131 129
0.9970321030429631 -0.1589155435549838 -0.3852095303448932 35 38 39
0.9956804957755933 -0.16020028081653545 -0.38144803608042027 32 32 32
0.9949700277506336 0.07223144429772806 -0.3887987752926661 65 70 71
1.0939251995800936 0.035940700945569906 -0.39676137640026693 106 109 110
1.1172999242622756 0.03612496830746256 -0.3980826872357603 106 108 108
1.0917143563266851 -0.011631016153387231 -0.39684062792613334 149 155 155
1.0941456581923734 0.05098945119534511 -0.3973040261857902 129 137 136
1.0982271015974094 0.018961190444091856 -0.3934732190596204 139 145 145
1.0982271015974094 0.018961190444091856 -0.3934732190596204 139 145 145
0.9754865726135961 0.08321164667107014 -0.3863965268610672 42 47 52
0.8652537648984241 0.06821998032884487 -0.38804786977361166 185 192 193
0.8348554737352163 0.013493156277169542 -0.3870426918389912 180 180 186
0.8323299481560492 0.0648233752935817 -0.37959672989570326 190 190 186
0.8301330528193278 -0.020201791927499678 -0.3803888492123395 132 135 136
1.078903327172637 0.030202144913918524 -0.38558986721415106 145 147 147
0.9213561926995487 -0.0014240176154972886 -0.3836798874333255 29 35 35
1.0019531366789927 -0.15201524032898195 -0.37515055039610073 31 32 28
1.0791274717595847 0.10248225006772818 -0.3812611056525704 151 154 153
0.8753985015448195 0.07842492434538202 -0.384197325411646 33 32 32
0.8753985015448195 0.07842492434538202 -0.384197325411646 33 32 32
0.8337780347638516 0.015164838436609393 -0.38671633231029184 131 131 135
0.9703463870427868 -0.06702004251120931 -0.3774230900434845 32 38 38
1.0892150646694987 0.055227753744434095 -0.3976389100760342 153 159 159
0.9264110343698461 -0.05506332808747639 -0.3810186339661398 167 169 171
0.8346493397404335 0.06789675720709776 -0.38930205023043785 185 186 187
0.834654983943253 0.06399308595311377 -0.3891208927167943 181 183 182
0.9563729908051196 0.04369676975279927 -0.3827443008687511 179 185 185
0.9598256205522875 0.0375175405308879 -0.3832059754369379 53 61 62
0.8329333957032168 0.03789427043750805 -0.3857975215570336 117 117 117
0.8318530789990177 -0.03761176623881582 -0.38655386482819315 169 176 179
0.8777738020681543 0.11275875308478708 -0.3859949081452703 28 32 32
0.9423980122210007 0.08897611243452629 -0.38425884768371976 46 54 55
0.9423980122210007 0.08897611243452629 -0.38425884768371976 46 54 55
0.9112379452509219 0.019748666565378575 -0.385047263665027 25 28 26
0.9166788065085604 -0.03722245123355969 -0.38323285497952114 22 28 26
0.9112427656809867 0.082602970426751 -0.38592171816439735 30 36 36
0.8302283060349198 0.06959843407543145 -0.3866181504935723 187 190 191
0.9767419820866884 0.08750476628862461 -0.3776626152209779 33 41 38
0.8310642500314 0.0809476959102103 -0.3838790121853961 139 140 144
0.9257516429840429 -0.0014277647394958298 -0.3793323405975458 29 28 35
0.9719024996265866 -0.005086261655954733 -0.3805913241244968 42 50 51
0.9667875381089844 -0.01585182770432146 -0.37975801299393097 37 44 45
0.9893305688000773 -0.046228839085317726 -0.37975548704229556 36 42 44
1.0965778632811607 0.09354216382046251 -0.40165234920584914 133 141 141
0.9104398567140439 -0.03789090774622373 -0.3855241888079759 179 182 182
1.1172001284925304 0.09856383949614592 -0.4126713624586262 152 160 159
1.1230986001495007 0.08920047308896616 -0.4103433390386354 136 144 141
1.1182544810121595 0.0809184887456078 -0.40500216360274904 138 144 144
1.093607107595122 0.07887975697611135 -0.40701032138297955 191 195 190
1.0923014845355343 0.05052828761254463 -0.40129155408721623 161 170 169
1.1078835328481431 0.046581276678397 -0.40351146562588325 100 106 105
1.1172956549582025 0.042015515445444386 -0.40741588794970396 135 141 140
1.102714935664196 0.0209145053851643 -0.4083160614467811 106 110 108
0.8989448342030271 0.006479297180451458 -0.3862952901453973 20 26 24
1.1157826680345846 0.06825788356023996 -0.4024402004993165 123 131 130
1.0935681245285274 0.06694513842830505 -0.40089197453403175 160 166 164
0.8306995873000121 -0.012115208503421864 -0.38524657899509573 187 193 195
0.8339851752771258 0.03809127578669094 -0.3889708060519808 130 129 131
0.8356053123048414 0.010357828890344383 -0.3882112391090935 172 180 181
0.9459073031889921 0.019042916704937497 -0.3781325516875064 37 46 46
0.8323561497967649 0.00393089835298116 -0.3823255533077135 130 133 134
0.9552603571758086 -0.03292376978386558 -0.3854056984645115 28 27 34
0.9025996269326648 -0.08351737495433902 -0.395344335409032 164 167 165
0.8738005276740565 0.014913583573827568 -0.376893268106437 32 33 34
0.8738005276740565 0.014913583573827568 -0.376893268106437 32 33 34
0.8323919482820671 -0.01456736757107152 -0.3782961820655227 175 175 177
0.9014112096990522 -0.08215970893618203 -0.39243989418711306 178 178 178
0.9102450738362765 -0.042580523041909735 -0.38167482383492324 32 31 30
1.1019831858954687 0.082436433621063 -0.391814328225624 112 115 114
1.0813911642129905 0.02704396230160038 -0.3803017244125937 137 143 144
0.9969178971640245 -0.16118611143432274 -0.38822158211483404 23 24 24
1.1081167870197148 0.11502690323516276 -0.39370458721290064 132 140 139
1.0812677183093469 0.09602960450739777 -0.3936012069311123 191 195 190
1.1016195664283372 0.07681602844680178 -0.3911124915956351 112 117 118
1.1106428782400415 0.06066145578679347 -0.39193722810957227 127 131 126
0.8885018872374101 0.04514177446761463 -0.3794607805423112 29 32 35
0.8335435579373832 -0.02303146100872396 -0.3874217500697229 153 152 154
0.8309502120557338 0.08027816354360047 -0.38135002185540284 141 143 149
0.8322440888332452 0.03875300367200733 -0.38233419845364275 182 184 187
0.8301502598399331 0.02419274835747024 -0.3833430956238907 178 184 186
0.9145951193823807 0.049913210903669375 -0.3778540524293188 29 35 37
0.9821588535573765 -0.15220803849105438 -0.38503137918928076 30 31 31
0.861844426365697 0.00576242222857899 -0.3879617896635575 192 195 198
0.885028468652149 -0.011858418942033155 -0.38347563412829017 187 190 191
0.9498192334233216 0.08275971148760149 -0.3859147580037829 44 51 54
1.1053989827045145 -0.022588658333169788 -0.4027062478859025 100 103 102
1.1053989827045145 -0.022588658333169788 -0.4027062478859025 100 103 102
1.1145407751445813 0.08365240726073708 -0.4024399233805044 138 147 143
0.9838445120942886 0.020222373666513537 -0.3888201462685185 195 203 202
0.8585852665663543 -0.0008210775514528245 -0.3850328874264441 35 38 41
1.1001975002311695 -0.0109595158492878 -0.399846088846057 153 161 160
1.112104434381569 -0.012918452919024102 -0.40005996702503865 132 138 138
1.0021562217150835 -0.1566661435640057 -0.3988836727919549 26 26 26
0.8842160297393905 -0.01169496897236141 -0.3808068677244669 187 190 191
0.9808816009760103 -0.06436490896851786 -0.3778246379626438 45 50 50
0.9512160484229985 0.057478390096414415 -0.38759527132276594 42 49 50
0.8534113979774496 0.02573409033264112 -0.3788600247462726 37 40 41
0.9703701608637311 0.032889939468180605 -0.38847721476486957 190 200 203
0.8853961108215221 -0.012190151822166307 -0.38435009161372197 192 194 200
0.858054345474162 0.07055367368550308 -0.3716683593370657 50 34 34
0.9604270516861831 0.029467655705887216 -0.37091346552766885 202 202 204
0.9471935550120327 0.027460242069048076 -0.37174942542113804 49 55 57
0.9531685358238002 -0.022766760943750124 -0.3799580924342502 166 173 170
0.9809763355512011 -0.04595869635044542 -0.378135106480261 42 45 51
0.8782485859784298 -0.03777951700142282 -0.381910353425041 32 35 36
0.8846530330317188 -0.043920478019588455 -0.38209238378516824 33 36 39
0.8826075832979634 0.017571667581384814 -0.37599461348710717 35 37 43
0.9633667992211525 -0.09629406806504674 -0.37049053987344027 61 64 67
0.8553284508686073 0.0912750243736772 -0.38723048917684505 32 35 34
0.9641803347123792 0.09783679365322526 -0.37694192540790883 32 36 37
0.8795220260739813 0.057102237116480964 -0.3860201423300484 184 187 188
0.9458400745572683 -0.007321613149642626 -0.37875465174861195 34 42 41
0.9975260158715082 -0.02449609216837577 -0.3876159239240638 40 48 49
0.8880775322010319 0.0311071103156108 -0.38167704723177454 41 33 26
0.8300251952656715 0.03664464521419748 -0.3846391503972499 166 173 174
0.9568897044375789 0.04417475072738945 -0.38603561458496727 184 188 189
0.9568897044375789 0.04417475072738945 -0.38603561458496727 184 188 189
1.0012842066753678 0.0900876624936284 -0.380730235032917 75 86 84
0.8320598419450613 0.06337377832457565 -0.38535660671113614 116 113 111
0.8330765072539319 0.04833158808532063 -0.38600863319718914 173 175 174
1.0000435278488324 0.06083109512710957 -0.3818963880766014 70 78 81
0.832150121458256 0.02791688891937978 -0.3853128613844445 175 178 179
0.9864933755724039 -0.047051790958886 -0.3834118504492794 45 50 49
0.9605160409181034 -0.08811337081647061 -0.3816918044109914 187 190 191
0.831647446548665 0.058036582845266596 -0.38402414674896673 184 184 186
0.8328123433353325 0.014706068447364632 -0.3823764444176064 114 117 116
0.8294962166022614 0.11939499437306506 -0.38775273003342503 189 188 188
0.8294056949924996 0.08812265418538862 -0.3852304744978789 186 189 189
0.8307789841759818 0.08368380362149866 -0.3840706956263082 186 187 190
0.8311349774963347 0.060293078060475076 -0.3839079065188587 183 182 183
0.8311349774963347 0.060293078060475076 -0.3839079065188587 183 182 183
0.8304576277376655 0.038080565094507995 -0.3834909236225188 124 121 123
0.9638508503879012 0.04563708470574321 -0.38005960476259654 40 48 47
0.9821310786889073 0.014079892269063459 -0.38140448639219726 48 61 60
0.9254572358824146 -0.06107400130273796 -0.37986959013774274 149 155 149
0.8330569741443747 0.031095431626494443 -0.3862531604462343 127 127 127
0.87884723680585 -0.01221148846420578 -0.3881107987393608 12 18 16
1.001151772340509 -0.0461900208882034 -0.38260097044863944 51 50 57
0.9774094636601404 -0.15568482122129707 -0.37741300074293344 22 28 26
0.981017557311913 -0.15914240292644788 -0.3810793240755504 24 28 23
0.8323349633890482 0.11906257810920737 -0.39226361216959377 191 187 187
0.831003650820502 0.07975141519835285 -0.38541312812362455 182 182 182
0.9088349583444126 0.019627435515986714 -0.38104999439374954 15 18 17
0.9711475232955363 -0.00757851045082408 -0.3770675297878995 55 58 57
0.9711475232955363 -0.00757851045082408 -0.3770675297878995 55 58 57
0.8327871818085004 -0.024441947094029744 -0.3797040452556664 110 116 118
0.8292556026279208 -0.02500225711527202 -0.37808295362041483 155 166 166
0.8780319530733508 0.08700819868269401 -0.3836392733721054 30 31 27
0.9125814634861936 -0.03650945197140543 -0.3758499277933563 27 31 26
0.8306027148350006 0.10950043877490043 -0.38188149342883304 179 176 172
0.8329833596512378 0.07097692972431757 -0.38624490581693266 135 130 130
0.8309002554451604 0.05338747876597759 -0.3846848438767571 120 122 121
0.8822670804243236 0.024089952545311273 -0.3787849323168775 167 175 172
0.9382169047149306 0.024320801118996354 -0.3775125750350591 47 55 54
0.8309842067162357 0.005067066392524854 -0.3804651558304088 163 170 173
0.9743256327874016 -0.14368495056089636 -0.3710683980009635 20 23 22
0.8333699258355711 0.07359469093267948 -0.38927427877470977 177 173 174
0.8316991226098552 0.04790212641130595 -0.3884287075660254 112 110 112
0.8315599603809586 0.03301399480192856 -0.38504816131510977 189 189 189
0.8317638246412078 0.02022764610085729 -0.3876625036421717 178 179 183
0.9090456480164678 -0.005021394618618523 -0.38491341055515477 20 26 22
0.8794798408412952 -0.011908654963126316 -0.3877761250822479 21 24 21
0.8794798408412952 -0.011908654963126316 -0.3877761250822479 21 24 21
0.8545638012555514 -0.013528015865676654 -0.3897832482961943 21 25 22
0.8331690192395874 -0.02333587296786455 -0.3866241619637474 107 106 108
0.8331690192395874 -0.02333587296786455 -0.3866241619637474 107 106 108
0.8303991944764327 -0.029343147671293396 -0.38424486260024987 143 142 143
0.9493299425730976 -0.04340780841121837 -0.3865261718375551 25 31 33
0.9388247987393676 -0.06047322895067167 -0.3882751457973162 19 25 22
0.9108867166459187 -0.06947251534392677 -0.38689610449301015 18 22 17
0.8307072219339005 0.010057109011437105 -0.38511345201228203 142 141 143
0.833067832029314 -0.013893729268929417 -0.38489820499086314 111 110 110
0.8309161017607659 -0.013947145439080471 -0.38567715554564136 121 122 126
0.8848225687920841 0.08353201119732089 -0.38942022304682955 34 34 36
0.9124775946287026 -0.03954761514288322 -0.39325562186670204 184 187 186
0.831398185702111 0.09742371212322105 -0.38749040451260897 128 125 120
0.8327813865341701 0.0905657538182036 -0.38555410378796473 189 189 191
0.8306629523743781 0.08842653823003742 -0.38590163281263323 181 184 185
0.852357689798428 0.08713665492588951 -0.38137785518503986 25 29 28
0.8323178287680701 0.08433475002488479 -0.38621359821587314 181 177 178
0.8296228641884114 0.08103672545358426 -0.3871734150340013 185 188 189
0.8325648495705523 0.06650988876898226 -0.3836734325993054 186 185 187
0.8306058295372538 0.053426959094393565 -0.38534996214757655 121 124 125
0.939860787721047 0.05054706720301419 -0.38174520207510265 32 38 36
0.83064868182281 0.024365857693251537 -0.38294378550408964 115 116 117
0.8328471092591332 0.021811121327902964 -0.3836364398770494 173 175 176
0.8321097696523485 0.005849950040462591 -0.383448114590501 128 127 131
0.8348326233963022 -0.02352578797724149 -0.3847570276816064 166 166 166
0.8837084926455959 -0.04264649698535349 -0.38178044278295437 17 20 19
0.8313887814400126 -0.03805679370066755 -0.3848517294987916 88 87 89
1.0732399005996838 0.07060949882193131 -0.38513611139153825 123 123 123
0.8302250660747622 0.05950726935597142 -0.3854950350247968 141 141 144
0.8336482403937694 0.010291660801009427 -0.3827292825753468 172 175 176
0.8297953723714796 -0.003139451382390628 -0.3837730629080161 122 121 124
0.8309078073773962 -0.009738938692180168 -0.3828956256603374 108 108 107
0.8300075165019072 -0.012369817652005935 -0.38499772929346215 165 167 169
0.8325058443392187 -0.025149854909179547 -0.38436561004665 170 176 178
0.83148578772715 -0.02521542414964308 -0.38466781858638344 160 160 159
0.8597731445906487 0.011932898803110896 -0.3845118612930617 167 173 173
0.833184693527946 0.012735385607760885 -0.3845501476765687 167 164 165
0.8314899127128906 -0.02525999461365726 -0.3847675610406837 160 160 159
0.8941687424356661 0.03553163729724808 -0.38116243429809854 172 178 178
0.9162467514590447 -0.006519902089820372 -0.38593497347567474 159 168 165
0.9554336257551772 -0.03385875939640347 -0.38663499211228963 35 38 46
0.9122961125728928 -0.07129656494618311 -0.3918636571735393 21 21 21
0.9082148610552692 -0.03582707975839905 -0.39021394518832625 32 31 31
0.8763680835917462 0.11230957955400207 -0.38726978874473905 26 29 28
0.9923075256551055 0.04869886066001975 -0.3808949594629459 59 70 69
0.9097997007179218 0.019868116344322544 -0.38353613777394713 21 24 23
0.9539394987068648 -0.03014378605179635 -0.38255839163454963 176 184 183
0.8313939514533116 -0.028878005013297573 -0.3856393732664195 166 166 167
0.9725364804395862 -0.04250630008581268 -0.38249369683185525 33 36 39
0.9418576285769236 -0.07381720731137499 -0.3832273385385268 26 26 27
0.8958338918789893 -0.08240292012622194 -0.3848566877735557 23 23 19
0.8290503548926611 0.07645703829896916 -0.387589815387204 191 190 190
0.8315640352423705 0.03639562573346257 -0.3850211682967434 117 113 114
0.8320676592123575 0.024589280675359326 -0.3849945281462268 116 112 115
0.8306802876155605 0.09943357613232155 -0.3825970825136928 199 194 194
0.831597425522446 0.06258831216754802 -0.3838482862481758 171 170 174
0.8292752357067928 0.12022573568505333 -0.3819669344622602 196 202 204
0.8312313045785614 0.06373806360127543 -0.38459971100607854 186 185 185
0.8432219841026065 0.0580052859604548 -0.37578436986418323 186 187 187
0.8314810218398679 0.04647737460150634 -0.38595633069678587 148 147 149
0.9740798205211285 0.050435838237779945 -0.3771784041721382 54 62 61
0.8325893164580545 0.022373811702678482 -0.38209550824427874 169 170 170
0.8317855043448413 0.002136607387234927 -0.38139723202792125 108 110 118
0.8317855043448413 0.002136607387234927 -0.38139723202792125 108 110 118
0.8304745695540764 -0.03671013174568599 -0.3806861187270317 162 165 168
0.8319572629675147 0.10071544536339139 -0.39023138448174566 202 198 201
0.8783336567570524 0.087198341742449 -0.38446991212260995 27 27 27
0.8841229676783073 0.08326591603455179 -0.3869309402770562 29 32 33
0.8313801499013175 0.03797776489564849 -0.38704789420713 195 195 197
1.082061839550951 0.040206115670380065 -0.3872497727713402 119 123 118
1.072214026323357 0.03622576075727924 -0.38101554185578596 120 126 124
0.9407908756193339 0.025194419092047574 -0.38256304964843985 26 33 28
1.072848718204232 0.024134769607146795 -0.3846687380522628 114 117 116
0.832618923604478 0.005367687288139814 -0.38620566175015314 132 129 126
0.989570711300553 -0.0011928835490308193 -0.38242189105661895 55 59 59
0.9786201340597253 -0.005929983361956346 -0.38186017590491855 169 175 173
1.0765160809696541 -0.006227320754655766 -0.3869193630876087 132 136 135
0.990696202334646 -0.02020568440812374 -0.38051192085217794 52 63 61
1.0727464687604524 -0.026138261317133968 -0.38441694484817146 127 130 131
1.0019056209415764 -0.03652679680902682 -0.38287391548023636 60 68 69
0.83099573258027 -0.03488809350537044 -0.3861001820083519 174 180 179
0.8309612858610743 -0.03491152607831728 -0.3849801645527862 174 180 179
0.9825388441348691 -0.06490318898788727 -0.3816601004201528 41 49 49
1.0062903356468123 -0.15871877695281175 -0.3835088852606369 28 34 32
0.9967063608593236 -0.16215389031445307 -0.3871826347454927 13 20 14
0.9790901664607355 -0.15806731053371786 -0.383817092548941 29 30 30
0.902920896471345 0.10749295920249766 -0.3876706712227062 188 188 188
0.8330299821009484 0.09073502451292496 -0.38614323070817164 198 197 199
0.8313306828280019 0.06609727609630853 -0.38439375168783513 184 184 183
0.9081996669169006 0.055158899700333476 -0.3805766366089679 23 27 26
0.8770608895292701 0.0489529672626391 -0.38070279625939824 25 25 27
0.8770608895292701 0.0489529672626391 -0.38070279625939824 25 25 27
0.9688453490413554 0.04978123755950091 -0.37755959225484037 181 181 181
0.9128409454620536 -0.011701846345557034 -0.37737111559626785 24 30 30
0.9128409454620536 -0.011701846345557034 -0.37737111559626785 24 30 30
0.8307909779598689 -0.025726378286209012 -0.38150421822789027 112 114 111
0.9067209608134839 -0.03736253092716132 -0.3751711654522757 167 177 170
0.8320125790152 0.08037271378121516 -0.3856712387246892 135 130 131
0.8311981733173163 0.1271730623736162 -0.38321310566230543 176 173 176
0.8291528075838358 0.0708640745853671 -0.38145492381751345 178 180 177
0.8312508323154402 0.06684376854447605 -0.38293690174810924 171 170 171
0.8304694425721112 0.0606931424127797 -0.38225051595717807 135 135 134
0.8851326204210944 -0.06777358725883867 -0.38244112861552204 21 24 23
0.832469406366048 0.04237842785987991 -0.385349722579536 145 144 149
0.8316598033879571 0.034222131381772034 -0.38280423628729787 133 127 129
0.8317395845084775 0.14148321111322612 -0.392338527801197 203 203 207
0.8321868647666895 0.13233197161749533 -0.3919905402411958 205 205 209
0.8326396149161808 0.10230647757903809 -0.38847729249362545 200 203 206
0.833217330493744 0.08096851395649565 -0.3853875189709774 200 200 202
0.8298491311022985 0.0709919032341264 -0.38185396281349565 176 176 176
0.9867347015044517 -0.00293405259084635 -0.3765621638804262 68 74 74
0.8323892239959823 0.07264804064875723 -0.3833945840818079 137 134 130
0.8309155222630336 0.06973198141513308 -0.38345614886963225 176 175 173
0.9351039304803447 0.05794261332818855 -0.37821855676335037 31 32 32
0.8305205250410812 0.04476569784411407 -0.38128891522482966 157 160 161
0.828979897503783 0.020571886452779707 -0.3803778648857094 170 174 173
0.8304468118778837 0.008202657847206552 -0.38072573024672146 109 114 116
0.8304301446568608 0.0008680337284184285 -0.3805102663521012 117 123 125
0.9438788968419374 -0.006436475521545604 -0.377054967124512 42 49 49
0.9922627847344982 -0.012916097247083624 -0.37400702278232467 68 77 77
0.9510202397781988 -0.03256660925114161 -0.3771033553757194 45 44 46
0.9398153755312174 0.05036361654943372 -0.38174491688365575 54 60 60
0.9378474470696936 0.024361502767897142 -0.3772801985895411 36 40 36
0.8830380953773855 -0.006399723951672576 -0.3800872284570455 23 29 27
0.8771681834419046 -0.012536370755849156 -0.3831371686722041 22 25 24
0.9439183865844639 -0.005330408746494348 -0.37590695990301276 39 45 43
0.889795111704345 -0.022704381668113158 -0.3821458782869707 185 186 186
0.9660005292258731 -0.005990919300889351 -0.37422469360846666 56 59 62
0.9713951182455561 -0.036358186098639736 -0.37175523887543366 48 48 50
0.8306454585242977 0.12810773642342974 -0.38138249102227684 205 205 209
0.8308610466795039 0.11944990673094057 -0.3813990009914757 202 201 205
0.8306212245582437 0.07031920576415246 -0.37993524972455933 203 203 205
1.0713431181121322 0.08788349720029201 -0.3825909638160744 125 131 131
1.0723538617900141 0.0713550138102482 -0.3866180093010598 111 111 115
1.078086348106893 0.07202907306339612 -0.3839766092422178 121 127 125
1.0766656148632805 0.06775044430152943 -0.3853507371977224 90 96 98
0.9864561429305668 0.0390512741315233 -0.37933100617275056 78 87 88
1.07892024407332 0.05406347651544231 -0.3835978073382222 120 123 122
1.077486109514103 0.04389496162094298 -0.38275903278828033 117 122 122
0.9878403202823552 0.027327401523896202 -0.38078465909753834 71 82 81
1.0751731830654983 0.03782376706462666 -0.38355756948406117 130 132 134
1.075938225477585 0.03014988909142642 -0.38280951187669593 107 107 107
1.0741483235317457 0.02852614512822146 -0.38276080551116026 128 129 131
1.0693196355712948 0.022680938745819192 -0.3836947914886289 124 120 121
1.0800858784326361 0.023883603118664123 -0.3851261828288929 104 104 106
1.0730422436971665 0.019022688763662917 -0.3835084673414278 129 129 131
1.0828557502720653 0.018005419725121753 -0.3863965959375556 115 118 119
1.0793833034214602 0.01532915572541649 -0.3811654063801486 93 92 94
1.0835023943959585 0.011889002054882329 -0.38477605165842993 98 98 98
1.0758164709515465 0.00515319008209682 -0.38677598885028674 121 124 126
1.0808543614498665 0.002556055704085331 -0.38434871417201105 112 112 114
1.0803248925908393 -1.2275666917203298e-05 -0.3835269852066762 109 109 110
0.9869441418906578 -0.06103569256002761 -0.37914427199349177 60 48 61
0.8780388932465484 0.02480311396083648 -0.3836355703388521 25 31 29
0.8830658969546941 -0.006363925456109406 -0.3799423845080203 23 29 27
0.8748487255540879 -0.06549042670361205 -0.38323018804398096 25 25 21
0.9139292353688754 0.0866055082433881 -0.3796083393459395 26 32 30
0.9435404818129821 0.05486840163591611 -0.3771361069550366 42 51 50
0.9526775072514264 0.028288107084354794 -0.3742683419597938 51 56 58
0.9038954849239228 0.03553677772010722 -0.3807932943052735 35 38 36
0.9168349795035401 -0.062166457514712156 -0.37465371478592635 23 29 27
0.8317848675061427 0.08246493049142715 -0.38450098977759944 181 181 180
0.8318842852963675 0.06250767072560752 -0.383186528911683 121 120 116
0.8318842852963675 0.06250767072560752 -0.383186528911683 121 120 116
0.8293550929197699 0.05148723527957813 -0.3833593932546747 177 179 178
0.8589280892804949 0.01170546708063846 -0.38039237163270906 162 170 169
0.83004855119234 -0.0028988780534010884 -0.38023933653550274 155 162 165
0.8526261272434389 -0.012603779089140068 -0.38109050183522714 28 28 30
0.8304704644861401 -0.015354527935972657 -0.3807837614599628 133 132 135
0.8304704644861401 -0.015354527935972657 -0.3807837614599628 133 132 135
0.9427347403778406 -0.04284915707629161 -0.3726928888405008 29 35 33
0.9427347403778406 -0.04284915707629161 -0.3726928888405008 29 35 33
0.8820255075642225 -0.07267301208466863 -0.374941496482874 168 168 164
0.8296931171150963 0.07149427918661583 -0.3823963177905535 191 191 193
0.8803104038218093 0.052645516520362076 -0.3726039848644353 23 29 27
0.7619380190203551 0.10193641937074074 -0.39442318362491025 21 19 18
0.7700480303047263 0.09842638956134073 -0.3989594578500167 39 40 36
0.7616421795404958 0.08923064556784381 -0.39514710499141753 46 47 43
0.7630503860607231 0.07094045135637336 -0.3974798141079937 52 59 53
0.7674096734774122 0.10826378776626092 -0.3912438314213671 18 17 17
0.7682814430392492 0.07113861416388333 -0.38807293578720126 55 55 55
0.7670329033479072 0.06938627863916753 -0.38958662619778045 25 25 21
0.7642245781567147 0.05800126465989425 -0.39627520217610296 62 62 62
0.7642245781567147 0.05800126465989425 -0.39627520217610296 62 62 62
0.769136986085839 0.05844320777809078 -0.39418865234978817 69 77 74
0.7671548671495168 0.04643319957873787 -0.39558020679371525 25 25 25
0.7700602733795695 0.047310851609710325 -0.3938457504492831 48 43 39
0.7648825799861224 0.04304885596760392 -0.394393111804474 68 67 67
0.7648825799861224 0.04304885596760392 -0.394393111804474 68 67 67
0.766457620098512 0.04305245330526486 -0.39540917780794593 30 27 24
0.7649463507614415 0.04152136877506025 -0.39615666296716834 41 38 33
0.7646790201772834 0.03632905221720399 -0.39557414934799745 33 30 27
0.7682109351348979 0.037900667155881196 -0.3946233054307933 24 23 23
0.7698115983919135 0.02954900236946215 -0.39386499981200107 29 24 22
0.8310869953162131 0.059792589390321754 -0.38563031119049396 143 142 142
0.8302572985297102 0.053174874651873455 -0.3856589116237609 176 176 177
0.833926921732566 0.05096971404706908 -0.3865325155970586 172 174 172
0.8330040174035803 0.045312770684975814 -0.3866152763261238 133 130 129
0.8327504992202998 0.04088277019300441 -0.38625510238763894 165 165 165
0.8319863874937291 0.037557761557455174 -0.3858292963662115 183 183 187
0.8796137554297486 0.05684065480322697 -0.3861784256305062 173 176 175
0.9164950819694382 0.051595923456328956 -0.38455005185909846 31 37 37
0.8855227343075954 0.020251182097231025 -0.38632680373762035 23 28 25
0.982862317233139 0.04329121230320279 -0.3814289246441823 56 67 66
0.982718393866686 0.0412074838737355 -0.38218852826456745 60 67 68
0.9743523261855035 -0.006084464312938826 -0.38223162980918707 63 71 70
0.7726860501655897 0.12552902162183632 -0.39244244528411487 51 51 47
0.7646971825946967 0.12377137898841309 -0.40396753450251827 31 35 30
0.7684627889712154 0.12023775081036253 -0.4024960673578268 57 58 54
0.7743505531919724 0.10421376730553267 -0.3972818352389568 61 62 58
0.7613166511621706 0.09272840520614402 -0.3955694106107542 35 39 32
0.7619018688476358 0.08362632218803605 -0.39853588950139945 44 44 43
0.7619018688476358 0.08362632218803605 -0.39853588950139945 44 44 43
0.7667879746447822 0.08354799715954044 -0.39431554851998735 53 54 50
0.7628040432812814 0.08257722510626597 -0.3999606745280475 45 46 42
0.7658234040015239 0.0833995311129476 -0.40071421021414666 26 22 23
0.8303504371998289 0.09932974245108894 -0.3887607229518256 187 188 187
0.831782821671651 0.09945458842031543 -0.39223603347720093 185 188 189
0.7715881005032182 0.07707451798884767 -0.3964197189318629 46 47 43
0.7761950917094876 0.07761210096831359 -0.3984204671655679 53 52 52
0.7678818216518164 0.07432778014349901 -0.39851471918133524 55 59 54
0.8332224377310272 0.09184952518986024 -0.3911578268904351 125 125 128
0.775483301750285 0.06777193474655727 -0.3964426972252336 20 20 16
0.768531481780007 0.06232920301358994 -0.39976414276530775 58 57 55
0.7691478937791654 0.05889099972160522 -0.3967405066576184 61 61 59
0.7697872087131008 0.054413027391663385 -0.3991737633701195 64 65 61
0.8352360442190034 0.07401502697568262 -0.3903698616883358 183 183 183
0.8739447236772706 0.06817675239730987 -0.38914850325157146 176 184 185
0.967204960675954 0.06687640830781524 -0.38689993467427175 51 59 57
0.8340482535831585 0.025111435596297797 -0.38998519156922906 113 113 114
0.8333768645125295 0.005545865216377957 -0.3894856499749898 176 182 183
0.99902979626479 0.039679730884312474 -0.38252157622069577 77 85 84
0.9444127485659527 0.02590541123805202 -0.3868785458219912 45 55 55
0.988224284615995 0.00556068499846812 -0.38353850388510785 187 190 191
0.833055622031313 -0.03261961974662283 -0.3915137526036862 169 173 175
0.9817540493528554 -0.011400241172494429 -0.3833979889516705 51 56 58
0.8811867180765908 -0.037687573720898225 -0.3893832470266811 23 29 27
0.9654375595443762 -0.025603365012148802 -0.38638511088363126 43 45 51
0.9211926010453607 -0.10163731620268802 -0.38842551991383056 23 29 27
0.9405265233749591 -0.09859132821282274 -0.3804786282812905 31 37 39
0.8319194045932021 0.11436853358574854 -0.3911925160268527 156 155 158
0.7677767112162656 0.063395153989764 -0.39590091558975565 50 51 47
0.9259189856619758 0.06738749519307648 -0.38312457911961284 187 191 190
0.8303724425793654 0.03718275295417074 -0.3861848110676733 180 183 183
0.9109816436808451 0.056904928023420405 -0.3848809758010979 33 39 39
0.8329800061572878 0.020675935839665108 -0.3861984765132856 152 150 149
0.8342508932783749 0.02092991130390386 -0.38646161828316944 177 174 172
0.8953721827723674 0.03607437474413589 -0.3818224818273833 173 181 178
0.9918061437366913 0.041146406931471056 -0.38189750516905474 78 89 89
0.9967266019419871 0.042269623813901 -0.3788880061891912 67 77 77
0.987262685937148 0.0381893096668262 -0.3814039011209826 75 83 82
0.9891525080633501 0.03671713396389949 -0.3817918873539619 63 71 72
0.9740214457761975 -0.006105598017079664 -0.3816714764579813 54 62 63
0.8330328220551195 0.10689612911381699 -0.38817539256700007 190 186 187
0.8310398308842715 0.08295532598452547 -0.3891215861686995 188 188 188
0.8556524238138061 -0.03746760994412906 -0.38951735079553995 21 27 25
0.9999524949635423 0.049343893184137434 -0.3763447300503754 66 70 71
0.9338694609235914 0.012873711359970874 -0.380492700316877 178 184 183
0.9838487715827542 0.002104764942790614 -0.37718472951634807 73 78 83
0.8304567243655222 0.09658494354756086 -0.3890197278325245 189 192 193
0.8352336522772409 0.07399135649350638 -0.3902803009818077 186 188 187
0.8858649763330906 0.020185923567228016 -0.3869566308853304 23 28 25
0.832830235076258 0.09748323735035945 -0.38461532091636763 190 189 190
0.8304018543942553 0.09526413376779051 -0.385142274918227 184 186 187
0.8787777171166846 0.08795190468878508 -0.3841968562673239 31 34 33
0.971609856912094 0.05132797677830116 -0.37955052886116875 192 200 199
0.9096106416651569 -0.011289452569041646 -0.38139369656438615 168 174 172
0.8356200789604054 -0.03403991713052375 -0.3857333150838783 161 167 165
0.9463057725575689 -0.04199777141501775 -0.37886182831163795 30 33 36
0.9353930466078345 -0.05826892477910157 -0.3790622602790762 27 32 34
0.8846659343120816 -0.07354522351564373 -0.3821422165414627 160 163 162
0.9831900005434142 -0.14921952672539282 -0.3769289880865789 14 18 15
0.8556891781305863 0.05934374088297043 -0.3804289498988797 31 34 33
0.8313539850217576 0.005642118853530718 -0.38093419868628453 176 182 183
0.9096142585692935 -0.03697129720607239 -0.38115359598710974 166 172 170
0.8429082523040515 0.1678766736005715 -0.37849574239816025 19 19 13
0.883928875475436 -0.005837023003499225 -0.37815781225888084 19 25 23
0.9517218838886796 -0.01577050023007462 -0.37891626476944834 80 88 90
0.938622747307062 -0.03570453544906761 -0.37525069690537005 27 30 29
0.9137356742208917 -0.03575980469624257 -0.3741866029306145 28 31 30
0.8781637372522818 -0.036466617450794006 -0.3784820843326959 25 28 26
0.9271655223627039 -0.05334350101439497 -0.37707373078488504 166 169 169
0.9151245871216067 -0.0950342517872863 -0.3728464638730919 22 28 28
0.9411358681303775 -0.042315490087537565 -0.38044039157024606 185 188 189
1.1003935960887568 0.10285989163578295 -0.3829582971175119 99 93 96
1.0833255760510618 0.10207323133065344 -0.3828288978980712 91 90 92
1.0953493749374552 0.0976177572535649 -0.381965517978347 108 107 107
1.0923711626271904 0.09473271790626327 -0.3827098454588528 107 106 106
1.0823881913523392 0.09355272865915472 -0.3797143958035546 158 161 162
1.0858490689585385 0.09036962043007073 -0.38115821622249213 169 174 174
1.0971492197423702 0.08989445266063269 -0.38051779636172056 163 166 165
1.0904277045714716 0.08867259831221744 -0.38187455966154804 169 169 169
1.095004976581736 0.08852202053202736 -0.38146058096819685 91 91 93
1.0814869402728338 0.0881514899985525 -0.3830299116689742 160 165 166
1.0904795056870993 0.0857081242604148 -0.38188842127170625 166 169 169
1.0773560399035051 0.0827185567577079 -0.37751299734636373 149 155 155
0.8834968972293371 0.08045179665429923 -0.3778215193629646 29 32 35
1.0969044073497398 0.08140719812939987 -0.38212124000297554 107 106 107
1.0969044073497398 0.08140719812939987 -0.38212124000297554 107 106 107
1.0971161709945776 0.08123837022776867 -0.38516572724931525 172 177 177
1.0791535167346837 0.08041870182602316 -0.38288530679126986 98 99 95
1.090494691614683 0.07651058221850808 -0.3793168931093381 107 107 111
1.0939945605363413 0.07664360829424108 -0.3808102631522417 165 170 170
1.0806866033150122 0.0756150406961044 -0.38205012004800104 157 165 164
1.087350718790071 0.07331736614405159 -0.38329519001863616 109 109 112
1.0932303687030944 0.07110354780376969 -0.3822152055747799 112 112 116
1.0874974199925571 0.0710411662540483 -0.38174831855782687 170 175 177
1.090978636909698 0.07132070352063263 -0.3838278436876777 166 169 170
1.1014408152991524 0.06916215466829109 -0.38341538434079003 164 166 164
1.095140558035463 0.06859422488961782 -0.3843875117964565 128 129 131
1.0939230063577858 0.06445534226021742 -0.37969613956984044 158 163 162
1.0987018745210242 0.064840333360732 -0.38304241597477345 111 114 114
1.0832690278058523 0.06377930713715926 -0.38419737783964963 149 153 152
1.0951105696782613 0.06353388585316817 -0.38376779623958196 109 109 112
1.0951105696782613 0.06353388585316817 -0.38376779623958196 109 109 112
1.0909341272188753 0.06296265014947981 -0.3831663371495245 153 159 159
1.099721479383056 0.05999509093440113 -0.38329209130333614 109 108 110
1.099721479383056 0.05999509093440113 -0.38329209130333614 109 108 110
1.0941366814743538 0.058124933810208695 -0.3814570705151636 135 138 139
1.0885400574250494 0.05649596201937784 -0.38309581469731585 111 112 112
1.1009975448000062 0.055615354613011536 -0.382111347802164 163 166 160
1.094270319068905 0.05440428125401656 -0.38402581364718136 163 167 167
0.8830561661252747 0.05500745934504215 -0.37496667313695065 25 31 31
1.0979405044511978 0.05248989921081981 -0.3829147472440465 165 165 167
1.0954536837845492 0.05050109642230798 -0.38254239892367436 96 95 100
1.0901679717826873 0.05051824672469721 -0.3830956596031062 157 163 161
1.0848263350344005 0.04942252166625743 -0.38296277743329105 98 97 99
1.0937755305125507 0.04894471851877855 -0.38205372361230483 159 159 162
0.9395821491621146 0.050261784382119847 -0.3781290374307778 29 32 31
0.9395821491621146 0.050261784382119847 -0.3781290374307778 29 32 31
1.0833074192351306 0.04772016177466319 -0.38379632678788506 147 153 153
1.0003154192578776 0.04836182709573937 -0.378565338664231 38 49 49
1.0769849779834835 0.04652767589331754 -0.38511168172713994 148 156 155
1.0845798060788598 0.045267151190700426 -0.3825491107011699 87 87 91
1.0902677484087187 0.045021610611032575 -0.3850454051432387 100 104 107
1.0851281933040977 0.04375816593073729 -0.3806783616549909 156 162 162
1.0915319597460855 0.04223976902627757 -0.3844421886813462 152 160 159
1.0952933391657094 0.04043401034753458 -0.38381143292761827 156 162 162
1.0887048359274403 0.03957687581943476 -0.3850916117636488 163 170 168
1.094753938369252 0.03438033800595292 -0.3826520776519748 163 166 169
1.0969675117009703 0.034245789825508646 -0.38332582585178493 101 102 106
1.0969675117009703 0.034245789825508646 -0.38332582585178493 101 102 106
1.0846078722722092 0.031248638790276607 -0.3813559948100253 99 99 101
1.087701111535446 0.02897948101457742 -0.3832029911874914 166 169 167
1.087701111535446 0.02897948101457742 -0.3832029911874914 166 169 167
1.0875330022492806 0.022064920121505054 -0.3827804923900332 148 154 154
1.0810092691109963 0.02073928905135776 -0.38812457017838486 146 152 152
1.077912775350407 0.019202846561281805 -0.38497645073329445 147 153 153
1.0982538085730185 0.014473298424126561 -0.38514369148752825 153 153 154
1.0832231330539928 0.014955166003033345 -0.385749574452432 84 87 88
1.0832231330539928 0.014955166003033345 -0.385749574452432 84 87 88
1.0919333003988871 0.013495119390599603 -0.38416195721209295 102 101 104
1.093486585456671 0.009733593079199222 -0.3834497546169634 162 165 165
1.0877562062345905 0.009186072008257749 -0.38516494236077464 102 101 103
1.0868841956553865 0.00822596295572387 -0.3874715841363588 149 152 153
1.0948255635542916 0.0075448568019737495 -0.38773221863963075 92 90 92
1.0957226860598999 0.004629962306181149 -0.38557857862839207 161 165 164
1.0854891569234748 0.004429116354282132 -0.3854644586524488 146 152 150
1.0854891569234748 0.004429116354282132 -0.3854644586524488 146 152 150
1.0864129795695288 0.0035306612517588686 -0.38338911544321536 89 85 88
1.0897233019416928 0.002344788823156205 -0.3856588861793888 160 162 161
1.0871881318064907 0.001605738361223661 -0.384371493631424 93 89 92
1.0871881318064907 0.001605738361223661 -0.384371493631424 93 89 92
1.094625340056042 -0.0004927436407749386 -0.3866179646672535 107 106 109
0.9890928142028926 0.0014604985127831193 -0.3808634861719992 171 177 177
0.971867509966912 -0.0050530437843231725 -0.3804295814821129 30 36 34
0.9158348572339226 -0.011417796434757401 -0.3816301188020188 25 28 29
0.8300033013718519 -0.008943986053134949 -0.3819463397738948 193 193 195
0.9542876792769508 -0.02983576610938548 -0.3823986423778685 163 171 170
0.9609812173375807 -0.0558371737138862 -0.38542974591153717 18 25 21
0.9371154625345167 -0.062131115720199 -0.3845351350186846 29 32 31
0.9218218589704663 -0.06367409239682022 -0.38523831492898775 32 31 33
0.9218218589704663 -0.06367409239682022 -0.38523831492898775 32 31 33
0.9188084979144457 -0.10103945932949672 -0.3904960880413225 29 32 31
1.006945212149457 -0.16335337532767527 -0.39579322301302644 19 19 19
0.9999608377545562 -0.16741246239740692 -0.3962725368818901 15 19 14
