ply
format ascii 1.0
element vertex 533
property float x
property float y
property float z
property uchar red
property uchar green
property uchar blue
end_header
0.8305572806948829 0.13071474833766702 -0.3928543671035786 204 203 203
0.9375636622278322 -0.07320630049537047 -0.3720842686498196 27 30 33
0.9063732497877102 0.11021552006495206 -0.383331445334999 42 41 43
1.08902380221763 0.13974537746698207 -0.3799837049654786 149 154 152
1.0661108787165545 0.07559438141217004 -0.3777462295755564 190 194 189
1.0832275931617679 0.051734425854431644 -0.3788398551939888 142 148 148
0.8882821492888472 0.030765906027048553 -0.37966146135815043 46 40 32
0.979680410240548 0.025801107490124802 -0.3827535089897079 55 66 64
0.9780764593876408 -0.15353283042683638 -0.38327766139503583 19 19 19
1.0010727073759564 -0.15759186411374057 -0.38306387032263484 26 25 25
0.8318535187838191 0.07954277776477703 -0.3881530794577743 161 157 158
0.8296358766501486 0.13701612020517356 -0.3903047626018889 200 205 207
1.0034048359477585 -0.15905673635807094 -0.38636962261948243 21 24 18
0.8320594046412051 0.0632170336399402 -0.38637857514167356 177 169 171
0.8315326040776538 0.043759517747536836 -0.3852744846964694 196 198 200
0.9059110537572828 0.0351030973511254 -0.38229558233713007 29 30 26
0.831373197475889 0.08399603657614683 -0.38608874848603825 157 153 156
0.8380874941458083 -0.033271532736147656 -0.40867105087301203 110 109 109
0.8312773384321233 0.017490088944931707 -0.3843714114305599 188 188 188
0.8677108456104559 0.07113337968981617 -0.3950623361018405 185 192 193
0.8336489217324324 0.011972546106607843 -0.3815380495528476 180 180 186
0.832685942887165 0.014038478858913498 -0.381032401487882 131 131 135
1.0804243115596661 0.0631110825211545 -0.3865122569405018 118 118 120
0.9729962886413402 -0.06930235192754873 -0.378912727075877 32 38 38
1.080643108808006 0.11327457388129329 -0.38220250641540227 98 97 100
0.9253444808384884 -0.05563409372782481 -0.375617911984963 191 194 195
0.8327004219124142 0.06663151284189345 -0.38290184839792346 189 189 191
0.8327202157828424 0.06279034520908347 -0.3827882864626459 178 180 181
0.9562937807757476 0.04341303374097891 -0.38146946594434444 179 185 185
0.9598485930286913 0.037205907290818845 -0.38203839821137975 53 61 62
0.8319596177478935 0.03734389902143144 -0.3828700197634038 117 117 117
0.8299783135418054 -0.03784023386762263 -0.37956867856421067 169 176 179
0.8754246493845701 0.11126510789407365 -0.37991974788179267 28 32 32
0.9416873923571247 0.08867016860200856 -0.38212179861254775 38 44 44
0.9416873923571247 0.08867016860200856 -0.38212179861254775 38 44 44
0.9104329504768264 0.019061990766517798 -0.38239274567266734 25 28 26
0.8125438943075375 0.17384931653507005 -0.3892991768130709 21 21 17
0.8166163010287637 0.1744400779034358 -0.39077193075851524 22 22 18
0.9091600606387485 0.08166946677180283 -0.3807265435082703 30 36 36
0.8284042599211051 0.06852905341875144 -0.3813278327053668 187 190 191
0.8510146070732552 0.17365653452360405 -0.38755430536092045 26 27 23
0.9776821449403958 0.08773066731850172 -0.3775496574268753 33 41 38
0.8300462498990108 0.08067940292485148 -0.38266449442596817 139 140 144
0.926058602119566 -0.0023166614146538597 -0.37832982680763805 29 28 35
0.9726197956020436 -0.006015945626134665 -0.3791426153407728 30 36 34
0.9673461067106476 -0.01686526683869639 -0.3779966383488205 37 44 45
0.9895042988266192 -0.04721807534375714 -0.37679770957772496 36 42 44
1.108014771699114 0.03160316169655899 -0.3846692272250566 110 110 110
0.8785116317089242 0.018888493255708367 -0.38195450589604774 190 196 198
0.8783146643853094 0.01872661135630413 -0.38073366453199764 171 179 178
0.8595002640387357 0.01145266020754732 -0.3805673037205446 192 194 200
0.8966279482131113 0.006226206430176219 -0.3786317010402501 26 32 30
0.9091110180137911 -0.006304226255104474 -0.3793001547266094 30 33 32
0.9483884171349493 -0.044191165055011694 -0.3790026703503627 32 37 42
0.9163604151372683 -0.06989618685892701 -0.38010790592631927 168 172 170
0.9163604151372683 -0.06989618685892701 -0.38010790592631927 168 172 170
1.0081592359297837 -0.15608144254296594 -0.37943171633308054 35 38 37
0.9869601283565201 -0.1511862959069621 -0.3792988265805234 35 34 34
1.0004411123530401 -0.15700908297618124 -0.375486433440057 32 33 35
1.1022882120411635 0.09430328797917681 -0.3815070175021124 101 106 102
1.0801603741255568 0.08888494812736346 -0.3825657814001872 133 141 141
1.0867423344810738 0.012681621292961453 -0.37976321183311695 97 101 96
0.909163236218134 -0.03827418575669489 -0.3778466591212448 179 182 182
0.9597604572651903 -0.056562708440382144 -0.3778907149309453 27 33 31
0.9944780641926535 -0.1589156926613715 -0.37536507400189006 35 35 35
0.8965612882296361 0.0063019402771732945 -0.3784965750157212 20 26 24
0.9887004798768307 -0.14892392425548248 -0.3712534624569151 33 33 33
0.8252015543142988 0.09616069495937563 -0.3512857079583236 199 200 204
0.8295819291955591 -0.012790285523562345 -0.3819785233559063 177 180 181
0.8316675868834557 0.0371921787943734 -0.3817382974838272 117 117 117
0.8885737937108529 0.030791223133141407 -0.3806316558407773 83 65 63
0.8337623266879939 0.009851004529028989 -0.38250354305144246 172 180 181
0.9464044642708733 0.019012662321883794 -0.37694148002322103 44 52 53
0.8323000934233822 -0.029496183319722508 -0.38109671392671535 179 179 181
1.097747937482007 0.131095609919756 -0.38110274882817874 158 159 155
0.831716645514974 0.0669039290091194 -0.3834064238339807 136 133 135
0.831379664201252 0.00332126856315753 -0.38213740992642875 144 140 145
1.0824463797965758 -0.023434088003296657 -0.37993247324222706 75 72 77
1.0763899693346624 -0.037434847784905724 -0.3761678134477428 74 77 79
0.9535814884276703 -0.033651429314278204 -0.3775010448735551 43 41 48
0.898918646676417 -0.08183680179834305 -0.3781469210365189 164 167 165
0.874505258927954 0.014914774945021072 -0.3808156776245126 32 33 34
0.874505258927954 0.014914774945021072 -0.3808156776245126 32 33 34
0.8321947332225766 -0.015281451307626029 -0.38108550095293 190 190 192
0.8989782909029165 -0.08189412189322509 -0.3782618521261987 178 178 178
0.9883627286256608 -0.16682736322851788 -0.3854462366051927 20 17 14
0.9121423917628596 -0.04424721030432521 -0.3849532495113208 27 27 27
1.092218042596235 0.08069491235893533 -0.38056060225148264 112 115 114
0.9983520407507418 -0.1625271451217431 -0.38737590980782177 23 24 24
1.0733207978792625 0.09419097020409625 -0.3851112940726228 191 195 190
1.091283077141615 0.07515082837264947 -0.38040336869531927 112 117 118
1.0987576932277268 0.05933049580740208 -0.3798501958555127 127 131 126
0.8886327576423957 0.04474329898765562 -0.37957374713628345 36 36 38
0.8321473867782996 -0.023518243555837634 -0.38171935060313866 153 152 154
0.8115288169556606 0.16665721145112866 -0.38008320729777584 34 35 29
0.8297443785086516 0.07917543719182496 -0.37681288475847796 141 143 149
0.8310787303076798 0.03791260490694487 -0.3776088592877688 194 193 199
0.8290016176514011 0.02341933377449217 -0.3784250829173013 185 188 191
0.9152987450409357 0.049671094450785915 -0.3792446872667603 29 35 37
0.9856403128859806 -0.15600857817113498 -0.38884524869301734 30 31 31
0.859467006497103 0.0046827482712484434 -0.37934324126382096 192 195 198
0.884101706863335 -0.012630174300328367 -0.379771798984306 187 190 191
0.9815557650392622 -0.06553696351794386 -0.37574954744163974 32 35 36
0.9678829478209304 0.03262171922315597 -0.3822751844417035 202 202 204
0.9539304976340538 0.030306582170493142 -0.3825972341752952 49 55 57
1.0842836412683237 0.03999421360213345 -0.3811798846794967 151 154 153
0.9534438749029255 -0.0237422760258891 -0.3779307346995835 166 173 170
0.9806272039346923 -0.04688016466618024 -0.3741594751821978 42 45 51
0.8877175947099648 0.020231561809629414 -0.38845212915231053 35 37 43
0.9690468158031735 -0.09555341237717584 -0.37675794305679533 61 64 67
0.855061742903966 0.09057505179264497 -0.38741221620897026 32 35 34
0.9656171487479234 0.09971124068649824 -0.3808725005942347 32 36 37
0.8807482940200503 0.05825855711941988 -0.39023453143638803 184 187 188
0.9525767724994303 -0.004878899906439131 -0.3908536497898245 34 42 41
0.993128422798912 -0.02447027976439398 -0.38140415115426507 40 48 49
0.8307016243506591 0.03820501514081362 -0.39112290326518645 166 173 174
0.9569014184765764 0.04376277089156152 -0.38572265585048754 184 188 189
0.9569014184765764 0.04376277089156152 -0.38572265585048754 184 188 189
0.9993489073681278 0.08910182278315126 -0.3782636335205529 75 86 84
0.8316524637486197 0.0628768309504504 -0.38347974211657726 115 115 120
0.8327876239086027 0.04775436282380151 -0.3834004300259879 173 175 174
0.9983730051813456 0.0601789829344853 -0.3795510892018308 70 78 81
0.8319433641839166 0.02757387119495233 -0.383241465626612 175 178 179
0.9847924149178653 -0.046768368764180945 -0.37985564943768046 45 50 49
0.9588551373212482 -0.08722650088065431 -0.377453958311321 178 181 180
0.8315419593864023 0.05805450488053345 -0.38349537708109077 184 184 186
0.8329037744220403 0.014816510003912863 -0.38330732421515085 118 113 115
0.8292740424229573 0.11893258347835217 -0.3862540751761378 189 188 188
0.8292846813062311 0.08809233871688504 -0.38452347332944997 186 189 189
0.8305722031511704 0.08374953003786145 -0.38364742444914435 189 190 190
0.8310836320955352 0.06039726705918804 -0.3836455011674991 183 182 183
0.8310836320955352 0.06039726705918804 -0.3836455011674991 183 182 183
0.8304481233579953 0.03818953176921637 -0.3834842324735037 124 121 123
0.9644059036743303 0.045859734127468056 -0.38048237327463424 30 41 41
0.9823816096522073 0.014116614034389201 -0.3811925302593287 48 61 60
0.9250418641041996 -0.06095531284030998 -0.3779493675168754 149 155 149
0.8329199203522933 0.030922631373064006 -0.3850325698217955 127 127 127
0.878283748669264 -0.012373879674073518 -0.38580389404116505 12 18 16
0.9999585597776549 -0.04602187561603348 -0.38084409947309666 51 50 57
0.9753519619157073 -0.1541888010818285 -0.3739452028856016 22 28 26
0.9789307717708026 -0.15761858792254482 -0.377602803939911 24 28 23
0.8314308814416707 0.11596960279944807 -0.3858600560774518 191 187 187
0.8307647145370687 0.07946671074934179 -0.38392569152685035 175 175 171
0.9097261085320503 0.01996296586402239 -0.38261215178570723 15 18 17
0.9728796893106818 -0.007382244334735363 -0.37924265465211215 55 58 57
0.9728796893106818 -0.007382244334735363 -0.37924265465211215 55 58 57
0.833272598602535 -0.02458319836702215 -0.38348765695727155 110 116 118
0.8297025304489835 -0.025156067522575192 -0.3820332139013352 155 166 166
0.8772940572536638 0.08624814006974892 -0.3813216035080999 30 31 27
0.9134167352686531 -0.03664118464982566 -0.3772577224401749 27 31 26
0.8307888656883683 0.11184009974169994 -0.3853057036964916 179 176 172
0.8329482084000154 0.07141570797306851 -0.3866523654750343 135 130 130
0.8303138746767316 0.053114221684041604 -0.38329612931388013 117 119 120
0.8828015465908231 0.024438767455712815 -0.38007805993744403 167 175 172
0.9392934187218781 0.02478824778351862 -0.37922294502860404 47 55 54
0.8311807083952425 0.005215875834482997 -0.3821754646129113 163 170 173
0.9748333967988634 -0.14390828153306656 -0.3709510604283404 20 23 22
0.8327349647631409 0.07200858735065904 -0.3827880535008665 177 173 174
0.8312450245812004 0.0471260701092666 -0.3833355677216844 112 110 112
0.8314542935223349 0.0327329233556429 -0.38357150475933827 182 181 183
0.8314323024704251 0.01997770145708444 -0.38374885122350055 178 179 183
0.8323221042362471 0.008544263443096117 -0.38297872345501566 91 90 88
0.8308278277732515 0.003588851943771351 -0.38295313657405994 115 114 114
0.9079767979327706 -0.005006461037420998 -0.38136133617442725 20 26 22
0.8787577576091707 -0.011851815829391156 -0.38434051246243756 21 24 21
0.8787577576091707 -0.011851815829391156 -0.38434051246243756 21 24 21
0.8541002193101198 -0.01347155762181684 -0.3864378747090902 21 25 22
0.8329529565562115 -0.02323707848671236 -0.3838181015075707 107 106 108
0.8329529565562115 -0.02323707848671236 -0.3838181015075707 107 106 108
0.8303711929738951 -0.029617332764518216 -0.38355696220927615 140 141 145
0.947844245085456 -0.04302926852402283 -0.38257926644424767 25 31 33
0.9373969681877125 -0.059903300827597955 -0.38409852369348 19 25 22
0.9099111392352058 -0.06891988799308897 -0.3831242764078309 18 22 17
0.8306447321454943 0.009792025704065673 -0.38377832861051775 142 141 143
0.8330057326828764 -0.01407817078930113 -0.3835113009868089 111 110 110
0.8308618402215638 -0.014133388861576984 -0.38425942313105255 121 122 126
0.8831050749869885 0.08184918799686716 -0.38370403975067635 34 34 36
0.831051956734637 0.09643898623684768 -0.38422087237718894 128 125 120
0.8324763721694346 0.08987648053574522 -0.3829164259630941 189 189 191
0.8303778053260723 0.08774117000780784 -0.38320191949150306 181 184 185
0.8520460072855929 0.08685735742432277 -0.37986029012578126 25 29 28
0.8320537876821154 0.08378246248547971 -0.38382964752862836 181 177 178
0.8294019625287328 0.08054108186330608 -0.38491812533305764 185 188 189
0.8324254560845624 0.06640046667863081 -0.38251138596928697 186 185 187
0.8305312166583761 0.053415424186890055 -0.38455075655521814 121 124 125
0.9413034235902265 0.051060088075469336 -0.3837523792307614 32 38 36
0.8318742768258846 0.027621759813367817 -0.38421172119963237 174 174 178
0.8307247089670585 0.02447980702042815 -0.38355088270809495 115 116 117
0.8329391724215474 0.021907145414630375 -0.38422109885264 173 175 176
0.8322562176087683 0.005850294658952403 -0.3844247375580914 128 127 131
0.8313566371773555 0.005364161774941485 -0.3831869772593968 164 166 169
0.8309014938111718 -0.012665074123591122 -0.38377561145126055 108 104 108
0.8350466108197532 -0.02377950605120896 -0.3857186279570978 166 166 166
0.8843014063331346 -0.043016072667546444 -0.3823060322155064 17 20 19
0.8314822460165805 -0.03819335373946778 -0.3846347565915815 109 109 105
1.0750625355807846 0.07128521283430068 -0.38526692478384933 123 123 123
0.830184506030479 0.059479486860229115 -0.3849336919229114 152 152 153
0.8337708107843239 0.010354212349820209 -0.38330755279388684 172 175 176
0.8310576743274871 -0.009823762921042005 -0.383935797999639 123 126 127
0.8326185140509477 -0.025267660846918026 -0.3844846936695511 170 176 178
0.8314947087668273 -0.025158553282606518 -0.3838542473347106 160 160 159
0.8597457946444522 0.012070900587064424 -0.3839630554004761 167 173 173
0.8331671797450119 0.012859449591098936 -0.3839877088246367 167 164 165
0.8314747381069659 -0.02511048401579961 -0.3837528527006466 160 160 159
0.8945468080786647 0.035769022696065154 -0.38187096270772763 167 178 178
0.9158035286328808 -0.006264880203782924 -0.38377201241436293 159 168 165
0.9537957533167177 -0.03307390120162125 -0.3819067111697618 35 38 46
0.9720468922525599 -0.042408653481741866 -0.38087323908750076 29 35 36
0.9103560408820889 -0.06940830517538157 -0.38476797366709725 21 21 21
0.9181120524723536 -0.07626664382578086 -0.38749582709329317 20 23 26
0.8762170225831489 0.1121333552465225 -0.3863523515270044 26 29 28
0.9921761689402137 0.048662224241441294 -0.3798717321933239 59 70 69
0.9099670122589805 0.019882900990843083 -0.38318282808429294 21 24 23
0.9536564681239458 -0.030157345255002556 -0.3811096490570284 176 184 183
0.8313993729998425 -0.02898551931890573 -0.38488245678787414 166 166 167
0.9720132055558417 -0.04245666788881704 -0.38067747418058756 33 36 39
0.9410053569099642 -0.07350391999121364 -0.38054859317187795 26 26 27
0.895170116462232 -0.08197563333106593 -0.38186294072610294 23 23 19
0.8289304480664592 0.07624099591420458 -0.38668646637996607 191 190 190
0.831532351807597 0.03634338945855041 -0.38432616776671386 117 114 111
0.8320037733780788 0.024564750780913584 -0.38409417870301427 116 112 115
0.8319884187815018 0.024575922984526457 -0.38413076046274675 116 112 115
0.8330623777855374 -0.01323559272321731 -0.3833043502113639 162 165 164
0.8314956492763331 0.0626640768351337 -0.38344887466931393 171 170 174
0.8293657775635683 0.051526804494039326 -0.38291283311228996 181 184 182
0.8293935702256062 0.12121758832144515 -0.38480732168958104 196 202 204
0.8309669546013878 0.06335251322618084 -0.38254820146770563 186 185 185
0.8429580460145232 0.057767323721031674 -0.3740395177835563 186 187 187
0.831216724024757 0.04615180946714134 -0.3836415673796661 148 147 149
0.9757517445155732 0.0509316396446596 -0.3790164406901337 54 62 61
0.8312293926429759 0.03413023411203215 -0.38299930028653195 171 174 173
0.8319603302175361 0.024564452498237344 -0.3840343198773978 116 112 115
0.8308222309024152 0.013192092949598267 -0.38279136430854127 127 126 130
0.8308222309024152 0.013192092949598267 -0.38279136430854127 127 126 130
0.8338755871267286 0.010475234815226676 -0.3828517672700711 183 183 187
0.8312679009396303 0.010156931614268939 -0.3823174457266048 174 176 182
0.8320236406109724 0.0035248257518913236 -0.3825426404845739 128 124 127
0.8319319788151073 -0.009828529718142166 -0.38148425450245316 115 115 117
0.8619981638029527 -0.024399587760940592 -0.3804391199468951 18 21 20
0.8327064367565393 0.022610854080164514 -0.38346306334855956 169 170 170
0.8319468873636903 0.0021477029981344514 -0.3828249437726948 108 110 118
0.8319468873636903 0.0021477029981344514 -0.3828249437726948 108 110 118
0.8306373933741241 -0.03738316505409599 -0.3821654854753856 169 176 177
0.8319548502704978 0.10073613348668374 -0.38984229793920144 202 198 201
0.8782921693654172 0.08721754390017489 -0.38399166365965937 27 27 27
0.8840689744507806 0.08326869312000731 -0.38639741809806544 29 32 33
0.831224342250387 0.03742359724934679 -0.3849337080201836 195 195 197
1.082201611365006 0.04041140278647522 -0.386698126916713 119 123 118
1.0720920953350859 0.03633687176728732 -0.3802462510274177 120 126 124
0.9401328648446597 0.02493819402636351 -0.3809087748597653 26 33 28
1.0724470172463758 0.02418762396272173 -0.3836709175568663 114 117 116
0.8323956088553846 0.004907206798245509 -0.38345003374359443 132 129 126
0.98853533552235 -0.001335814473204642 -0.3805240833939801 55 59 59
0.9775364313739102 -0.006079242943795496 -0.3798195889222036 169 175 173
1.0755329495163108 -0.00621454689904537 -0.38538790593095773 132 136 135
0.989402774491252 -0.02028225656879387 -0.37829041572828037 52 63 61
1.0713516982535574 -0.026093473580515034 -0.3825137092432498 127 130 131
1.0004333950626618 -0.03648582738795006 -0.3804947322950857 60 68 69
0.8307428359472401 -0.034985690730511346 -0.38276393955598204 174 180 179
0.8307111366177783 -0.03501997207575295 -0.38241386011392525 156 162 164
0.9808803523266395 -0.06462196499352194 -0.37885222868383894 41 49 49
1.0041586915120864 -0.1573615103536871 -0.38040850743134735 28 34 32
0.9947138387710012 -0.16077078223703334 -0.3840981125427435 13 20 14
0.9771846225984591 -0.15667825404021632 -0.3806421265339537 29 30 30
0.9011440812851944 0.10481693904474522 -0.3819454078386619 188 188 188
0.8324854620268942 0.08880513295878578 -0.3816952030078309 198 197 199
0.8310815350873934 0.06598981465081226 -0.38366266564989493 197 196 203
0.908385834863905 0.05521227775057318 -0.3801989697245121 24 28 23
0.8772394852515797 0.049045919051777395 -0.38066414312865365 25 25 27
0.8772394852515797 0.049045919051777395 -0.38066414312865365 25 25 27
0.9696459334493116 0.05015050013093696 -0.37787810065620936 181 181 181
0.9088580589066941 -0.037472869561544116 -0.3798792601840993 167 177 170
0.8318587997004901 0.08006574328377945 -0.3847354064515031 135 130 131
0.8318161395928201 0.1315380863234145 -0.3893786856890313 176 173 176
0.8295823756280746 0.0728517917427912 -0.38579659547027406 178 180 177
0.8317081935118642 0.06869498617862217 -0.3871875151246365 171 170 171
0.8308891896633194 0.06231935451025781 -0.38623567145180704 135 135 134
0.8848076622683587 -0.06780851595909657 -0.3808766833441047 21 24 23
0.8323269587709663 0.04211778682085171 -0.38406919359037545 145 144 149
0.8306619130831242 0.13873717157599932 -0.3864638438737023 203 203 207
0.831177341597185 0.13017470692169028 -0.3869292174101364 205 205 209
0.8319918726816377 0.10120466670711589 -0.3852041779925197 200 203 206
0.8327975807991874 0.08040796473801533 -0.38336406262425216 200 200 202
0.9885568853742248 -0.002717237959919527 -0.3784214054676283 68 74 74
0.8527241152085334 -0.07417997742939973 -0.3812743748781848 24 24 25
0.8322086455589199 0.0734087410189163 -0.3841275443253484 137 134 130
0.8307451255629668 0.07050061124074437 -0.38430069216123824 176 175 173
0.9366732636992692 0.05918057330047947 -0.38037280219495456 43 49 49
0.8305580165180695 0.045439120156386764 -0.3828945442162879 157 160 161
0.8291502704334274 0.020962783832931226 -0.38246929521320205 170 174 173
0.83068499449512 0.008392994313893596 -0.38290560621933023 109 114 116
0.8306998560924497 0.0009361966049905201 -0.3827430347731288 117 123 125
0.9457004869580037 -0.006178051985199631 -0.37964115821128935 42 49 49
0.995055172155519 -0.012554038209987425 -0.3772645783917081 68 77 77
0.9527234598559061 -0.03268940260275578 -0.37941643236863276 45 44 46
0.9390217234818735 0.05031623631004429 -0.38003370807857645 36 39 38
0.9379997475452252 0.02453683607656407 -0.3774015794950199 36 40 36
0.8821523305703545 -0.006244662503717772 -0.37721916898468866 24 30 28
0.8308104549245718 0.12929118109134694 -0.3845630892709438 205 205 209
1.064525734705042 0.08644118503133418 -0.37585220855146445 125 131 131
1.065087580077706 0.0701527550950991 -0.379499676391176 111 111 115
1.0695739699608777 0.043162412619364425 -0.37535882422322764 117 122 122
0.9660371489925467 0.03245533254253483 -0.38417734385070634 180 188 185
0.99023493698083 0.02841906593867745 -0.38335142200147176 62 73 69
0.8776976048423456 0.024845065208385014 -0.3826245327922974 25 31 29
0.9448081064598458 -0.005968810716729085 -0.3791315676173408 36 44 43
0.8828587225582467 -0.00617264220852902 -0.3793980393385178 23 29 27
0.9820225452003466 -0.0631359693376859 -0.3772982142310598 40 42 52
0.8737897612411516 -0.06423333118931054 -0.37887997956092784 25 25 21
0.9134232229805443 0.08664541188784862 -0.3790536091546562 26 32 30
0.9439435882628261 0.05535909958881714 -0.37796389135813985 42 51 50
0.9535151991200975 0.02873878457431184 -0.37550874702703285 51 56 58
0.9686360193814594 -0.10343922861622754 -0.3780637839787285 176 180 180
0.831743356142195 0.0834775215500792 -0.3862160002874603 181 181 180
0.8318420367563482 0.0631170591070263 -0.38449656215212213 121 120 116
0.8318420367563482 0.0631170591070263 -0.38449656215212213 121 120 116
0.8293726802941205 0.05207713573244203 -0.3849900289012662 177 179 178
0.8588591755863973 0.01176409889552335 -0.38038893401775703 162 170 169
0.8302612477101158 -0.002824500578351903 -0.38202929620295784 181 181 185
0.8527348791332068 -0.012588873486443889 -0.3816042880045804 28 28 30
0.8307804897840384 -0.015378439350989023 -0.38295573197370675 133 132 135
0.8307804897840384 -0.015378439350989023 -0.38295573197370675 133 132 135
0.9412547383188433 -0.04241847158502488 -0.3702434458013004 29 35 33
0.9412547383188433 -0.04241847158502488 -0.3702434458013004 29 35 33
0.8298801979842562 0.07267464601812632 -0.3852903227793603 191 191 193
0.8783593950217601 0.051207218278946844 -0.36668257549409566 23 29 27
0.7605536923357774 0.1045307635943047 -0.3980927722535813 21 19 18
0.7688270893129238 0.10089384088960943 -0.4027122377585263 39 40 36
0.7602565027509244 0.09158170795246914 -0.3989813315352014 46 47 43
0.7618824450671103 0.07086732626820376 -0.39601304774502516 52 59 53
0.7657276346021394 0.11414334075338334 -0.4010644074510661 18 17 17
0.7667717163601162 0.07517491328993368 -0.3976862084935547 55 55 55
0.7654503972048677 0.073319232198721 -0.39923920138792407 25 25 21
0.766692256758232 0.07011436483974076 -0.40035313048824483 55 58 53
0.7709865313505079 0.0690621203318943 -0.40001562093176085 49 51 48
0.7631421301701522 0.0576107735743893 -0.3944319422492079 62 62 62
0.7631421301701522 0.0576107735743893 -0.3944319422492079 62 62 62
0.7679924844083998 0.05821816559443693 -0.39248807781149064 61 61 59
0.7661052076297549 0.04594926840140967 -0.39352944901813536 25 25 25
0.769017590692203 0.046850851887635686 -0.39186944138808893 48 43 39
0.7638782890511993 0.04252235681708765 -0.3921674562238224 68 67 67
0.7638782890511993 0.04252235681708765 -0.3921674562238224 68 67 67
0.7654459676285341 0.04251760204968974 -0.39315611692921726 30 27 24
0.7638813352235807 0.04101481806631522 -0.39409835388536063 41 38 33
0.7636223984603269 0.03579421246175515 -0.3934598045833511 33 30 27
0.767175693761258 0.037364209094213854 -0.39244502919051394 24 23 23
0.7688113389403263 0.02895054876318349 -0.39143921553738353 29 24 22
0.8300893642660969 0.059223037586986264 -0.3830178071318363 143 142 142
0.8292483563934601 0.05254941393777481 -0.38283893670909847 176 176 177
0.8328694783330506 0.05030355143000284 -0.3835339568371831 172 174 172
0.831913495339344 0.04461084163136272 -0.38339710411119426 133 130 129
0.8316411984235357 0.0401448143824383 -0.3827847397469174 165 165 165
0.830908567854543 0.03686373010812789 -0.38250286001830464 183 183 187
0.8784175813586076 0.056214589092924504 -0.3834226929664893 173 176 175
0.9149874871840189 0.05098936092679725 -0.3818462076390985 31 37 37
0.8840037414220548 0.01952779703373586 -0.38246924217847994 23 28 25
0.7713132918651935 0.12317543970449651 -0.38456232605184576 51 51 47
0.7633453877731884 0.12129910112103173 -0.39560797958224553 31 35 30
0.7670768982995008 0.11786451948078258 -0.39428157297375255 57 58 54
0.772922699631333 0.10212285882921585 -0.38925833457182024 61 62 58
0.7600824452521113 0.0907130522857684 -0.3871806749580936 35 39 32
0.7606385292515004 0.08175152832369958 -0.3901445782789305 44 44 43
0.7606385292515004 0.08175152832369958 -0.3901445782789305 44 44 43
0.7654841414313487 0.08169776712938205 -0.3860570142414442 53 54 50
0.7615180388019843 0.0807136115333841 -0.3915535370634584 45 46 42
0.7644890709529496 0.08152853405492501 -0.3923422920881703 26 22 23
0.8285525911236648 0.0978757829969121 -0.38292243581761554 187 188 187
0.829643621444734 0.0975323734033947 -0.38494463898498305 185 188 189
0.7702041432802093 0.07533524952613593 -0.38824296051631574 46 47 43
0.7747353443062956 0.07587321840084506 -0.39030007008525225 53 52 52
0.7665341413951923 0.07259721786620504 -0.39018542201713186 55 59 54
0.8313031632099 0.09032059531059514 -0.3847631300220372 125 125 128
0.7740467762632792 0.06616721260324941 -0.38829403350967934 20 20 16
0.7671667743662254 0.060766147177233866 -0.39139876781669697 58 57 55
0.7677955545855888 0.05738435878899995 -0.3884101162035357 61 61 59
0.7684094151079509 0.05296402889949272 -0.39081024710854384 64 65 61
0.8331182895154504 0.0724590695141707 -0.3832120557993689 183 183 183
0.8718357283319821 0.06700559030351687 -0.3834992483173969 176 184 185
0.9652296106124102 0.06602390868849652 -0.38315138835793927 51 59 57
0.8320241954249247 0.02417925708873054 -0.3829428047150698 113 113 114
0.8313233681767022 0.004827816857361438 -0.38220720787546786 176 182 183
0.9964927709382382 0.038855416023766465 -0.37813765879673594 77 85 84
0.941953479637901 0.025104946314064232 -0.38191724398411864 45 55 55
0.9854394016719864 0.004907433433027939 -0.3787729676326309 187 190 191
0.8309070652935829 -0.03285741023175697 -0.38371811259058636 169 173 175
0.9787542712727942 -0.011925550814302254 -0.37818724497533857 51 56 58
0.8785423296845712 -0.037888832655020695 -0.38224142911777326 23 29 27
0.9622416224600943 -0.025987501985013328 -0.38054101931797996 43 45 51
0.917482854689965 -0.10076438267745089 -0.38051147719030753 28 34 34
0.9413080063952936 -0.10061625340900501 -0.3800899700509975 29 35 35
0.829689624056842 0.11205352918095866 -0.3834901928831608 156 155 158
0.7661863694102938 0.062292833540416336 -0.39019993715826734 50 51 47
0.9137001390875117 0.11129889941205315 -0.37603654836885897 40 43 44
0.9234515845162724 0.06620487503512167 -0.37743585519883305 187 191 190
0.8288715119639362 0.03632578659757081 -0.3813851240579733 180 183 183
0.9088238948116737 0.05585997810292095 -0.3794789354550338 33 39 39
0.8316553713246264 0.019894094433260148 -0.38204383473094206 152 150 149
0.8329229587923619 0.02014733848406894 -0.38230109296794607 177 174 172
0.8952593550383778 0.035639032915773555 -0.3804902979331773 190 197 198
0.9893244363373113 0.04027403245918125 -0.3770143903365955 78 89 89
0.9942232776241822 0.04140493624842837 -0.3740350945309944 67 77 77
0.9848767643685313 0.037341416962287315 -0.3765709790391235 75 83 82
0.9868166712385885 0.03588756440307821 -0.3770409415356633 63 71 72
0.9727438850548198 -0.006776424252613707 -0.3779766764912429 54 62 63
0.8313529107640351 0.10577543776576015 -0.38324261703675094 190 192 194
0.828898029514722 0.08130629915873014 -0.38210750918954567 188 188 188
0.8541490857543141 -0.038403028160707016 -0.3842376189489567 21 27 25
1.0008126195623188 0.04925172635351282 -0.3750607494973164 66 70 71
0.9335923109573154 0.012251616861483164 -0.37782140138715986 178 184 183
0.984738828796421 0.001481986374286662 -0.37574525382796975 73 78 83
0.8281690694240497 0.09451511556214581 -0.38095134650618845 189 192 193
0.8330556151057417 0.07240618919926299 -0.38290132639916485 186 188 187
0.8844072018911541 0.019410204153821182 -0.3829038970737899 23 28 25
0.8318094200219169 0.0970830931325625 -0.3822684477675648 190 189 190
0.8293718119880111 0.09485354217885283 -0.38278851481737214 184 186 187
0.8780941588753806 0.08765631305458661 -0.38239863415584363 31 34 33
0.9730783701820073 0.05120054053546655 -0.3803195309350211 192 200 199
0.9098806707408925 -0.01225800439328587 -0.38075493047083475 183 189 189
0.8345697371224826 -0.035028174212972635 -0.38248356560212426 161 167 165
0.9479568808047313 -0.04371298790680285 -0.379922374623834 30 33 36
0.9367761186961132 -0.060270450006777936 -0.3798575370779822 27 32 34
0.8844981703701632 -0.07513472467920489 -0.3805196850839086 181 181 181
0.9889598645639561 -0.15609361799278756 -0.38254434975359275 14 18 15
0.8559127884631867 0.05935311352437785 -0.38172792524147353 31 34 33
0.8312040063274145 0.004899172052785832 -0.38155872719351586 176 182 183
0.9099295328253797 -0.038102284999589994 -0.38043541934361375 166 172 170
0.814328544572227 0.17862944168973918 -0.39077246305605623 28 25 20
0.845286064792251 0.17830887617063862 -0.388661948126916 27 27 21
0.8404051038651631 0.1759154144217083 -0.3886167411784479 28 28 24
0.8426802933355998 0.1725939690145319 -0.3869758953144573 19 19 13
0.8840596474701012 -0.0067263710740627074 -0.37884415886437994 26 32 30
0.9535650013832864 -0.017003565081880466 -0.3805244932607001 80 88 90
0.9400543494019028 -0.03730646220529544 -0.3763243569268803 27 30 29
0.9145291965404271 -0.037324683557069 -0.37506809913246036 28 31 30
0.8782735440372983 -0.03805923662218707 -0.3794184021544291 25 28 26
0.9282557453000735 -0.055295596844675624 -0.3777183938019873 166 169 169
0.9643818310372415 -0.08101614021862259 -0.37508626772381654 164 168 163
0.915784269137679 -0.09762468106732212 -0.3724083436219676 22 28 28
0.941301117244936 -0.04344728684931568 -0.378404414213665 185 188 189
1.1042250746064852 0.10354957405666095 -0.384218777670675 99 93 96
1.0870006087516242 0.10281333329476408 -0.3843303553165706 91 90 92
1.0990096776342344 0.09820659826291714 -0.38307759908035305 108 107 107
1.0959004401014134 0.09523613678591918 -0.3837079442388148 107 106 106
1.0857907747061788 0.09409664504249979 -0.3807683377305244 158 161 162
1.0892418810532098 0.09081897858945025 -0.3820887703008947 169 174 174
1.1006254788691128 0.09030577593563238 -0.3812630950492146 163 166 165
1.0938032517701048 0.08905175926386709 -0.3826557591619489 169 169 169
1.098375710708462 0.08887514173902379 -0.3821191185065978 91 91 93
1.0847817879808344 0.0885329606308796 -0.38393518865362647 160 165 166
1.0937243368945455 0.08599657699605791 -0.38247075353260107 166 169 169
1.08043113863449 0.0830395659185515 -0.378135387666637 149 155 155
0.8844622172947849 0.08190480896414334 -0.38342300421948033 29 32 35
1.1000527602188552 0.08156429784604978 -0.3823877287149342 107 106 107
1.1000527602188552 0.08156429784604978 -0.3823877287149342 107 106 107
1.1002296845192527 0.08133976344190721 -0.3854019130531837 172 177 177
1.0821767072475852 0.08060552785827821 -0.3834068275979202 98 99 95
1.0934333730822938 0.07660364689707978 -0.37939694696126525 107 107 111
1.0970142111848995 0.0767273517839816 -0.38092391899865485 165 170 170
1.0835359378583873 0.0756799953339756 -0.3822484044418618 157 165 164
1.0901717160274216 0.07329394966361219 -0.3832860771981992 109 109 112
1.0960415585684575 0.07103641503270523 -0.38203414835974897 112 112 116
1.09023226823479 0.07098195866212731 -0.3815924602072378 170 175 177
1.0937516156029223 0.07123353973620246 -0.3836584341686787 166 169 170
1.1042284368342885 0.06901339779090662 -0.3830164491129764 164 166 164
1.0978480220055866 0.06842906364858956 -0.3840198935246978 128 129 131
1.0964930743108459 0.06426852347572354 -0.37911530242704516 158 163 162
1.1012798958961696 0.06459826796859894 -0.38239381647122506 111 114 114
1.0857685105489276 0.06354859649342126 -0.3837640384384852 149 153 152
1.0976204596892722 0.0632626600425625 -0.3830962414047545 109 109 112
1.0976204596892722 0.0632626600425625 -0.3830962414047545 109 109 112
1.0934766349797242 0.06271752803470766 -0.3826134503395277 153 159 159
1.1021163078869134 0.05964435268221254 -0.38234722319881287 109 108 110
1.1021163078869134 0.05964435268221254 -0.38234722319881287 109 108 110
1.096481780918982 0.057784119414478925 -0.3805321074999092 135 138 139
1.0907457595993022 0.05610047546307165 -0.38209187392060184 111 112 112
1.103262121429966 0.0551976894715413 -0.3809321456427129 163 166 160
1.0964802970136587 0.05395783752160558 -0.3828988102659687 163 167 167
0.8837598923711967 0.05559644303271596 -0.3790036028547224 25 31 31
1.1000695360067276 0.05200826339074139 -0.38159464320609643 165 165 167
1.0975150548210424 0.04999659475008132 -0.38116148323844157 96 95 100
1.0921579161799133 0.050005883630558606 -0.3817222180142823 157 163 161
1.086801345266297 0.048913250267771186 -0.38165749190326936 98 97 99
1.0958330786844068 0.04843513501005466 -0.3806812644749555 159 159 162
0.94101245493948 0.05038586808951421 -0.3802778952527682 29 32 31
0.94101245493948 0.05038586808951421 -0.3802778952527682 29 32 31
1.0852417475336278 0.04717897833769172 -0.3824508090135242 147 153 153
1.0020609826466336 0.048155617724938975 -0.37889991516536087 38 49 49
1.0787887027982046 0.045947013785620786 -0.3837003126815829 148 156 155
1.0864242011265712 0.0446952514807537 -0.3810342287795117 87 87 91
1.092122307679409 0.04440347292063371 -0.38344445713290964 100 104 107
1.0869219021313108 0.043183694329569644 -0.37906834646330134 156 162 162
1.0932403532963375 0.041571983355214004 -0.38260215366686223 152 160 159
1.0970013597442734 0.039750022405648545 -0.38188860355653775 156 162 162
1.090348311256226 0.038872475807925785 -0.38318935676937205 163 170 168
1.0962332654545537 0.03362261163429182 -0.38038683613410346 163 166 169
1.098407179714406 0.03346806270101201 -0.38097576396584854 101 102 106
1.098407179714406 0.03346806270101201 -0.38097576396584854 101 102 106
1.0859517892440693 0.030480086989845664 -0.37904356475565587 99 99 101
1.0889406655913192 0.028150359389997832 -0.3806848011095538 166 169 167
1.0889406655913192 0.028150359389997832 -0.3806848011095538 166 169 167
1.0884663570866395 0.021154724827521704 -0.3797988389930906 148 154 154
1.0819026070105762 0.019761505254571366 -0.3851573064086122 146 152 152
1.0787631185288347 0.01825271046907255 -0.38198344736376555 147 153 153
1.098891408502052 0.013450703478093084 -0.38157068595987825 153 153 154
1.083909877319965 0.013948890655587734 -0.38242402017763155 84 87 88
1.083909877319965 0.013948890655587734 -0.38242402017763155 84 87 88
1.0925416478066752 0.01248358957135975 -0.3806181012804951 102 101 104
1.093917282528136 0.008698034643009733 -0.3796264467071423 162 165 165
1.0881933736682068 0.008134221528634997 -0.38140185793329767 102 101 103
1.0872540782795979 0.007139449441330026 -0.383612568131443 149 152 153
1.0951706483376689 0.006444025880580827 -0.3837496709472961 92 90 92
1.095929973965116 0.003535083622665861 -0.38139071979940986 161 165 164
1.085759036586595 0.003346879460529608 -0.38145823041472016 146 152 150
1.085759036586595 0.003346879460529608 -0.38145823041472016 146 152 150
1.0866139157107009 0.0024646885658903754 -0.37928251109819267 89 85 88
1.089843747865555 0.0012423869979075498 -0.38139427841448986 160 162 161
1.0872988018604064 0.000517457056895433 -0.38011650471468067 93 89 92
1.0872988018604064 0.000517457056895433 -0.38011650471468067 93 89 92
1.0946237905864584 -0.001622415719642805 -0.38211935723876134 107 106 109
0.9895465990305592 0.0005207794589119756 -0.3784771658854895 171 177 177
0.9721344780628906 -0.0060229775599308045 -0.3779176765812828 30 36 34
0.9158816029059128 -0.012402326316689399 -0.3798122378494507 32 35 37
0.8296660292242891 -0.009864520067349133 -0.3806800381076601 193 193 195
0.9539295638512281 -0.030896836091091714 -0.37839706526209616 163 171 170
0.9598631179013057 -0.05674497494124301 -0.3791791649826842 24 30 28
0.9359940097518366 -0.06295630096219182 -0.3781229953346335 29 32 31
0.9207556919393666 -0.06448197234377194 -0.378848674571393 32 31 33
0.9207556919393666 -0.06448197234377194 -0.378848674571393 32 31 33
1.0032249177462604 -0.07561420357715615 -0.37685600780093886 34 37 38
0.9804911479917667 -0.1005341730002041 -0.3789071508793817 34 40 40
0.91687697002004 -0.10083956720440554 -0.38012242852379113 29 32 31
1.0010857889056306 -0.16026661047182506 -0.37929987209758914 19 19 19
0.9941286356921446 -0.16405998106897146 -0.379421088962488 15 19 14
