ply
format ascii 1.0
element vertex 435
property float x
property float y
property float z
property uchar red
property uchar green
property uchar blue
end_header
1.0902627520576278 0.04764921631399464 -0.3985905448346613 161 172 172
1.1095602432112392 0.02944416179279099 -0.4008734651281009 132 142 141
0.9550936404565344 -0.08393251648779784 -0.4081959350406885 27 30 33
1.0948114016534891 0.10861091290544106 -0.38353863203007543 142 148 143
1.0990300916526736 0.09247521926073513 -0.3930637590688287 148 148 148
1.1016979496750792 0.06707456865341793 -0.3900584843881182 117 125 122
1.097129998549894 0.06586215264320283 -0.3918039497330335 97 103 105
1.1115720959823534 0.035023678776773086 -0.394520897838353 124 131 128
1.091240454802333 0.14090591077705408 -0.3820863221448642 149 154 152
1.0744994011952687 0.0775110280763525 -0.38658148542211523 190 194 189
1.096352658465013 0.053184244466033447 -0.3925569596691055 142 148 148
0.9032617943993195 0.08104153166347648 -0.34996028610034224 35 38 37
1.0974997870477943 0.06311585966830148 -0.39046375408383466 138 141 140
1.093678780291632 0.02739836290146765 -0.38530622643026785 104 109 113
1.0848273867068279 0.01103470516340362 -0.3825506174659273 144 152 151
0.979714547818579 -0.15146643226786938 -0.355272284944671 32 32 32
1.000003737041892 0.07561895641345664 -0.3963196403905668 65 70 71
1.098197549544031 0.03671621369564654 -0.40094124104178896 106 109 110
1.1217942562631191 0.036727197699469 -0.4022931765037793 106 108 108
1.0928560700026633 -0.012040937915451303 -0.39724441293625323 149 155 155
1.1001931839430246 0.05242831281025063 -0.40361020869998054 129 137 136
1.099831614808419 0.01916698104939695 -0.3942490265271612 139 145 145
1.099831614808419 0.01916698104939695 -0.3942490265271612 139 145 145
0.8591576902196112 0.06847204950919941 -0.37309458935186485 185 192 193
0.8296951189624309 0.015001184915405174 -0.37747631825216754 180 180 186
0.8281053079373861 0.13918785496468944 -0.36802580723805695 198 198 200
0.8258330601342956 0.06409061618616112 -0.3568190921024799 190 190 186
0.8240355410279657 -0.018002271318875 -0.36083140765405314 132 135 136
0.9193269518300445 -0.00044774311268064044 -0.3779102065784758 29 35 35
0.9515407696800352 0.04745839963807509 -0.38350142603066817 43 43 44
0.9825880137120709 0.09048132368285476 -0.38674125324818764 52 63 61
1.0886116591086277 0.11703273431333375 -0.3940515022154461 109 109 108
1.0891107747899835 0.10505204032075703 -0.39796765291545405 155 161 161
1.0061958413002654 -0.1612351121094428 -0.37374795198448585 13 17 12
0.9574529269356656 0.044061991874405536 -0.3844978206524603 179 185 185
0.828136171964273 -0.03706319904522507 -0.3709805960049768 169 176 179
0.9167299789637748 -0.03821202907190279 -0.38262534491597133 22 28 26
0.9780485952633406 0.08855168917767836 -0.37999553961295784 33 41 38
0.8308891423966581 0.08363199147321818 -0.3948119598490928 139 140 144
0.9240701391171668 -0.0015805369129617474 -0.3747421581337903 29 28 35
0.9708010287859892 -0.005271721018598994 -0.37770164482115237 42 50 51
0.965593916621994 -0.016086471109498773 -0.37642033802325764 38 41 42
0.9913925379257604 -0.14877817873198057 -0.37073108755578443 21 24 23
1.1084299292708946 0.031466628667038886 -0.3877255011075292 110 110 110
0.877405989011602 0.01917162209107337 -0.37892733894803254 180 183 184
0.8787590466450323 0.019120956686861434 -0.3838283169149079 192 194 200
0.8957550158042068 0.006448183911372319 -0.37758081088696016 26 32 30
0.9485387265849958 -0.04467881988035294 -0.3808147078598962 32 37 42
0.915977524065115 -0.07044936031469164 -0.3810146775386457 168 172 170
0.915977524065115 -0.07044936031469164 -0.3810146775386457 168 172 170
1.0052028775215678 -0.15503305951526186 -0.37733857906540885 35 38 37
0.9842236497694185 -0.1502277714702781 -0.37706514153861115 35 34 34
1.1045816122064753 0.09490475757235368 -0.38629515752385196 101 106 102
1.0825348281805063 0.01272816769669012 -0.3774908847629157 97 101 96
0.9075200346155304 -0.03796203192962422 -0.3756764105391695 179 182 182
1.1052416836841488 0.09414900820403872 -0.40139859545336287 152 160 159
1.1124701563804482 0.08547446616015077 -0.40030851363663383 136 144 141
1.1101390277203445 0.078140605306914 -0.3969935846732414 138 144 144
1.0864355276196507 0.048740239786724336 -0.39379203407724334 161 170 169
1.101406562649645 0.04461215922314635 -0.39545814742719293 100 106 105
1.1097440166005905 0.03976490588162984 -0.39800771030224835 135 141 140
1.0953885796475045 0.01894941189185779 -0.39740786825914337 106 110 108
1.1056078423424738 0.005273938814737207 -0.3970062641688511 84 87 88
0.8957732136450577 0.006519742997884116 -0.3776654018462228 20 26 24
0.9987912110146556 -0.1589019607466056 -0.38993216993634283 33 33 33
1.1145854845275713 0.06670350195593833 -0.4013129080718189 123 131 130
1.090627844350403 0.06534823611384712 -0.3975656450300457 160 166 164
0.8316066611924452 0.07348280036163397 -0.3829102003770148 123 120 117
0.8338010806942487 0.009985016978847338 -0.38263164079198686 172 180 181
0.8329339908701002 0.06825155430905334 -0.3878830942795327 145 143 148
1.074288129558135 0.15188991450869108 -0.37952433323530343 119 121 120
1.0932609234520323 0.1297655207078661 -0.3782734898139122 158 159 155
0.8341644233213478 0.07870042174007169 -0.39372191681727864 190 190 192
1.0737377396423038 0.06399320356900691 -0.374715727180613 113 113 116
0.8320252427419493 0.0038416667201413113 -0.3905295352436068 130 133 134
1.0649393230982322 -0.02075236159011443 -0.3623857493148063 75 72 77
1.0576746058809277 -0.03360059898472975 -0.3569244621912801 74 77 79
0.9512309299321324 -0.032939099593871264 -0.3742446431805776 37 36 42
1.0876880705583007 0.034882064645945204 -0.37612987835201184 161 167 168
1.0880301156274077 0.016015661986754266 -0.3770428305385201 85 88 89
0.8829616841583648 0.018927501209833407 -0.37683298957991945 34 37 38
0.8618241683091509 0.0034463844700829533 -0.3771706145514171 192 195 196
0.8618241683091509 0.0034463844700829533 -0.3771706145514171 192 195 196
0.8618241683091509 0.0034463844700829533 -0.3771706145514171 192 195 196
0.897275749540179 -0.08100670293062501 -0.3746781839697973 178 178 178
1.0904998867937112 0.06759622649833645 -0.3884650748939831 99 101 99
1.0873422877191055 0.052760057911619015 -0.3846090034497643 103 103 102
1.092634345996856 0.04650099654849448 -0.3846751322039043 133 142 142
1.0941808594333826 0.03493817293617712 -0.386520618832795 104 105 108
0.913705644462471 -0.04507543214374051 -0.39038765030937456 27 27 27
1.0972008839242569 0.08194913970608635 -0.3866306195044603 112 115 114
1.0035296223253976 0.02865245925105999 -0.3832243469681616 59 72 71
1.0812976513635355 0.027112116053079713 -0.379690784810443 137 143 144
0.9940416026362993 -0.15994141185087818 -0.38204755129842405 23 24 24
1.109884883790523 0.11594691030953562 -0.39551834698664545 132 140 139
1.0820934796525286 0.0966199784622229 -0.3942773185839956 191 195 190
1.1030703726307673 0.07733036684568874 -0.39233704662388663 112 117 118
1.112450328004737 0.061049182875483964 -0.3934671437394171 127 131 126
0.8874952031830629 0.04537215273614149 -0.3768778357594833 29 32 35
0.8780790074152675 0.08772251523260766 -0.3817196933057473 27 28 24
0.8306466225137684 0.08158219158588313 -0.3853143459909152 139 140 144
0.8318704556297415 0.03916842162971878 -0.38530526946796745 182 184 187
1.0804861226953242 0.014527889858912431 -0.3815436845887443 87 92 93
1.0719212087777896 -0.004296094833876917 -0.37374278310114967 128 131 132
0.9140666420724775 0.050221212930405275 -0.3769185250180212 29 35 37
0.8285552592195825 -0.022478079682467535 -0.3793852122370467 193 193 197
0.9805213619919484 -0.151957807857774 -0.38067206704451045 31 31 33
1.0110675957284778 0.0825755913958995 -0.38258056661788536 198 205 205
0.9667837023140539 0.017481058262576347 -0.3587048008686321 195 203 202
0.8440454281467056 -0.00312020061011179 -0.32593310700543887 35 38 41
1.1001009728178788 -0.01128727180104181 -0.3992490182433581 153 161 160
1.1149426867898202 -0.013252859704262281 -0.4027425837841768 132 138 138
0.8838224028869778 -0.0119612801585648 -0.3806563052589115 166 174 173
1.0811803082111686 0.04032360525147259 -0.38060715622867636 132 138 138
0.9531304209580158 -0.02295934004386706 -0.37975468317526395 182 188 188
0.9803454210402178 -0.04640929841172419 -0.3762612542085319 42 45 51
0.9952925942014257 -0.15018742351667988 -0.37929085302841586 21 24 23
0.9886187976660014 -0.1570411672782619 -0.38120877109734436 32 32 32
1.0086561395637896 -0.02385730259395208 -0.3982079252805119 40 48 49
0.8356941992833921 0.05543754862088569 -0.40985906817773954 171 171 173
0.8594088504355585 -0.015962182786748862 -0.3284497207158597 12 18 16
0.8291200094607716 -0.02497482333727728 -0.362464801893294 110 116 118
0.825484068567855 -0.025557922487246625 -0.3586564227357307 155 166 166
0.878522876029084 0.08814664106889451 -0.3839353523667436 30 31 27
0.9143966607500703 -0.036818578218551744 -0.38027158775012615 15 21 19
0.9856273285373782 -0.1397124406218287 -0.36824390694765 40 28 37
0.8353441647503931 0.12148007259523323 -0.4319520037763525 186 186 187
0.8306170347000101 0.010241691003286351 -0.3936279188420068 142 141 143
0.8318268917080579 0.10421524671634279 -0.3959263173233644 128 125 120
0.8331554569242732 0.09640838607640882 -0.39333244280413043 189 189 191
0.8308510888302695 0.09395416353775136 -0.393357570335217 181 184 185
0.853942441772659 0.09253845417566575 -0.38864136729429727 25 29 28
0.8326135677515758 0.08956561174317852 -0.39372614282484136 181 177 178
0.8326420976195522 0.06997616589374617 -0.39043343847348105 186 185 187
0.8305597666745195 0.05607840567471672 -0.3921804986487294 121 124 125
0.9479164626144311 0.053788272445800867 -0.38914021919894654 32 38 36
0.83209909359567 0.005906418751180662 -0.39206213816731644 128 127 131
0.8351392237608208 -0.024750771304710865 -0.395669719698383 166 166 166
0.8313312616053954 -0.039562883805524314 -0.39393865578437115 85 81 82
0.833768258033071 0.010497008865820641 -0.39153550873059983 172 175 176
0.8295903970445899 -0.0034155226976078008 -0.39261677634832765 116 115 116
0.832507596738989 -0.026289074419253357 -0.39325656067632486 161 165 166
0.8537861291432457 0.011822887545125811 -0.361097764997894 167 173 173
0.8288578848487409 0.012456180874933482 -0.35911654562374207 167 164 165
0.8265528414926028 -0.021645404907384008 -0.35553665175512056 160 160 159
0.8332146788094229 0.16068386953383956 -0.4137883597639643 193 189 190
0.9118907047827007 0.020273845407422848 -0.3864156524000616 21 24 23
0.9537108422106138 -0.031023579692383615 -0.3806995822042675 176 184 183
0.9715613638244794 -0.04328932360082177 -0.3794619399057817 33 36 39
0.9407791393841634 -0.07456294097366568 -0.382088729112989 26 26 27
0.8952702757989979 -0.0834381518223581 -0.3863624442179608 23 23 19
0.826297142565922 0.018326721343474368 -0.34418251332408434 116 112 115
0.8300524728323292 0.019930376464660438 -0.3678583125692345 172 175 178
0.828972121294991 0.0002444904670100712 -0.36546473227643445 114 109 111
0.828972121294991 0.0002444904670100712 -0.36546473227643445 114 109 111
0.9068831300281538 -0.0059637755185359045 -0.3779486070544162 21 27 25
0.8323411541711808 0.08705315763100091 -0.3991465863451405 135 130 131
0.9775176425211994 -0.07417687706070974 -0.3790708550347524 29 37 38
0.9846618556892621 -0.144747150029659 -0.3688215666338351 22 28 26
1.0832134245186318 0.019428290329938525 -0.3863086072073867 108 108 110
0.8281042734624825 0.03263006530198259 -0.36118567786459155 129 123 125
1.066800971911755 0.04985348896392212 -0.373170313819599 124 127 128
1.067540086232955 0.03233212537585098 -0.3711836578900815 109 109 111
0.8375212200830315 0.12459708631704514 -0.42973859025363403 183 183 179
0.9962909949639608 -0.0034450464831666193 -0.3877389060475894 68 74 74
0.8325477848027306 0.07452204468321158 -0.3857127185008613 169 168 168
0.8257160076392148 0.01657843274551216 -0.3597187256245582 170 174 173
0.8266729246692215 0.004646216805631141 -0.35792641880254805 109 114 116
0.8264023388113688 -0.00234056126695374 -0.3563388243616284 117 123 125
0.9475890576960968 -0.0068947165562934735 -0.38232842910668285 42 49 49
1.0111541074359436 -0.012499066730079934 -0.3969494708118217 71 82 80
0.958666412446432 -0.03386915248610163 -0.3883003451816788 45 44 46
0.9338832028219614 0.04870421342003467 -0.367802796749277 54 60 60
0.9422678344257246 0.025219987116705443 -0.384110710530695 53 61 61
0.8597915042720758 0.0024812536933374145 -0.39476112937500357 188 188 190
0.9030310595769431 -0.017904909197426596 -0.3840606918442481 28 31 30
0.8910785024539188 -0.024175604759857066 -0.3893115953189256 185 186 186
0.9114740031130524 -0.04019202284262527 -0.3939836074308764 176 175 176
0.8765299119776836 -0.049896801565455375 -0.39684090939734246 26 23 25
0.9743132281724772 -0.037749157700288985 -0.37850598049445194 48 48 50
1.087524141545397 0.1072484433046305 -0.37900694367098564 78 81 80
1.0828968626507884 0.09500359796983188 -0.3813101277905596 118 124 122
1.0723453916497645 0.08825417924221717 -0.37802301591029747 125 131 131
1.090224513208406 0.08566616963413372 -0.3785472842502678 74 74 76
1.0802568487023274 0.0804934884961387 -0.37743362365119815 114 120 120
1.0907367558807646 0.07770993078444571 -0.3768106715251944 100 106 104
1.0720415546319202 0.07139313201593478 -0.38184235711803366 111 111 115
1.075411899953213 0.05306827486992307 -0.37650080428713495 120 123 122
1.0709383071575311 0.036774382064127475 -0.37644948777619414 130 132 134
1.0710260862303491 0.029025452426371046 -0.37540765194188297 107 107 107
1.068884505778398 0.027361130559622887 -0.37504285567620577 128 129 131
1.0735373634591587 0.022748631273851887 -0.37651143600713144 104 104 106
1.075296096388618 0.020965306201428283 -0.3765213340971885 114 117 118
1.0677573662901885 0.018002677242058354 -0.37619898782754385 129 129 131
1.0756699283746471 0.016976178446038902 -0.377572634079244 115 118 119
1.0757959003270792 0.01085522083030445 -0.3757987861230446 98 98 98
1.0684872197808966 0.004353520794960519 -0.3782427739084853 121 124 126
1.0729863594577795 0.0016749049162432241 -0.37554192657998176 112 112 114
1.0721974972293935 -0.0008882589711311223 -0.3746289562929942 109 109 110
0.9800349074119449 -0.06065853402979984 -0.37036738327655505 60 48 61
0.9692519393198795 0.032825198165428525 -0.3873749908227147 185 196 192
0.9497126971740449 -0.006330256637083257 -0.3888315627149877 36 44 43
0.8869720494806727 -0.006140365066131866 -0.3944188061154002 23 29 27
0.9047868442615803 0.1084871076062885 -0.37883192993328874 40 39 40
0.9158568156743767 0.08818012113370946 -0.3818515134036548 26 32 30
0.948175684615858 0.056756595166599685 -0.38360699878313753 42 51 50
0.958179834285176 0.029391991712266398 -0.38178746660910196 51 56 58
0.9702981147768682 -0.10541061988961252 -0.38133969946951723 176 180 180
1.067950707959026 -0.04830395509486931 -0.3775525083093632 84 85 87
1.0725090820573822 -0.050744741672182785 -0.3780034127431171 64 64 66
0.8284793287695246 0.05617471151650634 -0.363044149267561 121 120 116
0.8284793287695246 0.05617471151650634 -0.363044149267561 121 120 116
0.826078620832407 0.04573267300338804 -0.3630715807101704 177 179 178
0.8534009245366827 0.008046680451827624 -0.35947488981171977 162 170 169
0.8263503875463118 -0.005755175322089702 -0.3574399012206481 181 181 185
0.8472646049432419 -0.014626548091360943 -0.3591434634792745 28 28 30
0.826779637430435 -0.017226910567423842 -0.358344142624518 133 132 135
0.826779637430435 -0.017226910567423842 -0.358344142624518 133 132 135
0.93351823097492 -0.04288997419100741 -0.3580880858971372 30 36 36
0.93351823097492 -0.04288997419100741 -0.3580880858971372 30 36 36
0.8743974469687826 -0.06997743792634607 -0.3558382418748685 168 168 164
0.828707840202724 0.12270140241464218 -0.37060349806600074 188 185 188
0.8958746417472249 -0.03714808335543606 -0.35230178511599325 165 171 171
0.7618362838605639 0.09464195591531263 -0.37363144804830917 21 19 18
0.7608749508862802 0.0923109265433219 -0.3723643137140601 31 30 30
0.7693900918837477 0.09161442587066293 -0.37876635414677085 39 40 36
0.7614654961443129 0.08305170893769544 -0.37547755828813173 46 47 43
0.7624484273723969 0.06954978986182467 -0.37678813825594876 50 51 47
0.7621966508301967 0.068807635900125 -0.3860209107015118 66 70 63
0.7689666042330378 0.06957956089408897 -0.3782351897777246 25 22 18
0.8323865423212138 0.06797236975602074 -0.38495545769929246 126 129 131
0.8789572987388888 0.08821319086771266 -0.38420621797504184 31 34 33
0.764025536168905 0.11202945986851129 -0.3741554588599404 21 21 18
0.7667002514749631 0.10310706504643952 -0.37543639764626846 18 17 17
0.7654824738344702 0.09028965490361426 -0.3870777347123338 66 70 64
0.7657136112445927 0.07006838011260734 -0.3860808012103393 27 27 24
0.7711766202607399 0.06529648378527579 -0.3853460946643884 64 70 64
0.7657634554807173 0.09149116954549359 -0.3838068897704608 37 37 37
0.7648739675647446 0.08056129848689873 -0.38750301894803807 27 24 21
0.7709972090324358 0.07417027103817521 -0.38692980044352143 41 44 43
0.7632794583725062 0.056452048943365016 -0.3863622639409822 62 62 62
0.7632794583725062 0.056452048943365016 -0.3863622639409822 62 62 62
0.7645341943215793 0.055323323173419814 -0.3846879621367116 29 26 23
0.7661704091919594 0.04522555218260733 -0.38680658126736983 25 25 25
0.7690916119836924 0.04614193626042256 -0.38538906221922087 48 43 39
0.7639449114832151 0.04189356432697791 -0.3857622933718019 68 67 67
0.7639449114832151 0.04189356432697791 -0.3857622933718019 68 67 67
0.7654784584701044 0.04191229436034701 -0.3868533132787238 30 27 24
0.7639654414166109 0.04037506506405611 -0.3874697698787564 41 38 33
0.7636660184480257 0.035311442289876344 -0.38745286034320836 33 30 27
0.7672035172212804 0.03689920731806008 -0.3867248357388289 24 23 23
0.7687652573164094 0.02872903031237653 -0.3870021230875042 29 24 22
0.7658218933070615 0.023414084941817386 -0.3879285353433761 56 56 50
0.8304626958022534 0.05939108616907352 -0.38180966648336306 143 146 149
0.830486179408106 0.05942550920024268 -0.3822287508394618 143 146 149
0.7668292982049825 0.01945365141494442 -0.38704261135591583 26 26 23
0.7694352807386582 0.02046587235726765 -0.38732625454484904 26 26 22
0.8295786107689098 0.052668299109526494 -0.3815787513049558 176 176 177
0.8332668893187857 0.05049761192518307 -0.3827026503386487 172 174 172
0.8324267664500062 0.04490494046855752 -0.38318818015503436 133 130 129
0.832251320332031 0.040489266585856984 -0.3830361295798517 165 165 165
0.8315103382477932 0.03725768980042846 -0.3829196912005318 170 175 175
0.8794179767784301 0.05668954119313729 -0.3845137596650606 173 176 175
0.9171688457500359 0.05173400472769784 -0.38510220657979366 31 37 37
0.8853580105286054 0.02003353833037311 -0.3851795238793047 23 28 25
0.8348522988792197 -0.015155834935726923 -0.3838057333738464 164 170 170
0.9861211201246405 0.0439248130745561 -0.386243467276619 56 67 66
0.9858620766923072 0.041779117467559274 -0.38689964457440384 60 67 68
0.9976892879536617 0.0267736973063959 -0.38559215521664786 73 83 83
0.9784460338726747 -0.00641187153286809 -0.3883358630324643 63 71 70
0.7720438517906478 0.12614174066133094 -0.39111817223016343 33 32 32
0.7685121233251405 0.12548184930565173 -0.3989750712630733 20 17 12
0.7639693686161717 0.12437850058366584 -0.4025770619082416 31 35 30
0.7677398941229905 0.12071029655678796 -0.40089883723018643 36 37 33
0.7735770512595501 0.10420276938398691 -0.3947805625890528 40 42 37
0.7605373768756051 0.0924465217546224 -0.3922689518863959 35 39 32
0.7611709718504691 0.08326306381410113 -0.39499420516148886 44 44 43
0.7611709718504691 0.08326306381410113 -0.39499420516148886 44 44 43
0.7620499273307815 0.08219118008064191 -0.39634374228979097 45 46 42
0.8312688580794125 0.09955631708124608 -0.39071183332391424 185 188 189
0.7754031545984235 0.07722562988409339 -0.39495395749983525 53 52 52
0.8327936092942103 0.09197789786744445 -0.38982073858188065 125 125 128
0.7747283274524495 0.06730899394200669 -0.39269341616747466 20 20 16
0.7677434557684748 0.06174769933971256 -0.3953879871699077 58 57 55
0.7684075438551393 0.058320359131429626 -0.39242039382474686 61 61 59
0.7690146993825893 0.0538061403030732 -0.3945925281183729 64 65 61
0.8347301796108854 0.0739936075204122 -0.3886613307809859 183 183 183
0.7670736213848148 0.041453069087760586 -0.39190428869792543 47 48 44
0.771317758502047 0.03736738684675676 -0.3946547273425771 21 19 16
0.8736896359001174 0.06822188480907614 -0.3882662291097487 176 184 185
1.0044693859331595 0.09683954136307282 -0.3885402182799687 86 92 92
0.8333498686177843 0.024761306876219028 -0.3870201947583389 113 113 114
0.8326045235257913 0.005204223955173703 -0.386044323230305 173 179 181
1.000532302998535 0.040053502259770155 -0.38500734031936834 77 85 84
0.8320841823670013 -0.03274143297967364 -0.38709861827367936 169 173 175
0.9826523529012999 -0.011488029678992949 -0.38501324855357516 51 56 58
0.9203819091216112 -0.10159157785464488 -0.3869023489317991 28 34 34
0.9854789402317496 -0.16210785424530014 -0.3860584359172827 30 29 29
0.9483454925850355 -0.04302305723850278 -0.38183936505386046 36 39 42
0.768185087315807 0.11150610145492065 -0.38536762340856723 34 34 33
0.7615586135423219 0.08510568387532748 -0.3933515272756427 52 53 49
0.7668398629161398 0.06254760520751652 -0.38988246426663864 50 51 47
0.9265997779751213 0.06775725451865795 -0.38410053586021153 187 191 190
0.8299088721464225 0.03687260062277907 -0.38382289033563705 180 183 183
0.9114209744935154 0.05711247148188738 -0.3854000323882168 33 39 39
0.8339333379940764 0.020613597113802243 -0.38471960566918256 177 174 172
0.8945066529400094 0.03586812864001677 -0.3791948687355676 173 181 178
0.9943740870245865 0.04168270709616565 -0.3859285223409699 78 89 89
0.9996149530097964 0.042864145250081566 -0.383215250668712 67 77 77
0.9897279014015411 0.03866023054542457 -0.3852718279092452 75 83 82
0.9916998754568566 0.03718442869890854 -0.38578964182810277 63 71 72
0.854916142375754 -0.012684932798087587 -0.3871006493083112 23 26 25
0.944506852903199 -0.011625066339010167 -0.3869063042628912 36 42 44
0.9763437245796918 -0.006295412546968195 -0.3853599663325537 54 62 63
0.8330626940367358 0.11334220847772616 -0.38515653627159535 144 140 142
0.8303609062340419 0.08274387634807047 -0.38611372693979384 188 188 188
0.9887931476259344 -0.1512516742717102 -0.3872299534620194 29 29 29
0.9995804889797393 -0.15543988129774736 -0.3853388640901146 27 27 27
0.9338864289822881 0.01269395378770632 -0.3805048372097159 178 184 183
0.8299224318025554 0.09664983930178254 -0.3873115911289195 189 192 193
0.8346389175815756 0.07390721730119151 -0.3881639275050975 186 188 187
0.8848255968149548 0.020030104257898612 -0.3836966142100108 23 28 25
0.9411658890142318 -0.03680085226836909 -0.3808855804933965 33 41 40
0.9921335210575141 -0.15087405404841328 -0.3739824282158647 36 37 36
0.8322991294997406 0.09736411532836312 -0.3824762218016879 190 189 190
0.8298756613883912 0.09515802425406923 -0.3830442242525285 184 186 187
0.878165443999017 0.08778880173444736 -0.3821912141755498 31 34 33
0.9716344926646017 0.051548922879048845 -0.3796743261697707 191 191 191
0.9088080395560479 -0.011391312746006332 -0.37909262164473334 168 174 172
0.8349383126052247 -0.03399535141367064 -0.3814364293317384 161 167 165
0.9456437506510021 -0.04195281503773813 -0.3773501121699796 30 33 36
0.9345009237508702 -0.05808384948907761 -0.37685625522322275 27 32 34
0.9832855323566698 -0.14952733659173875 -0.37706143923623975 14 18 15
0.8544609865004292 0.05867607894014099 -0.3754462191125385 31 34 33
0.8302704947538156 0.0052133619921957515 -0.3750261184307347 176 182 183
0.9088788728641153 -0.03716324807988989 -0.3789514916589773 166 172 170
0.9148464896140744 -0.04246142048095037 -0.37852395669151934 179 182 183
0.8830106992914198 -0.0057461272028948044 -0.37494111254114465 19 25 23
0.853964102094935 -0.034660576354985394 -0.37684196965756367 22 25 24
0.9411954048283468 -0.04265260506312051 -0.3806712987694854 185 188 189
0.9646195559455565 0.10774689565134654 -0.37121369644409913 46 46 49
1.0992178933482082 0.10255403298138614 -0.3812290594928207 99 93 96
1.082199988128637 0.10178533108324826 -0.3810493959710947 91 90 92
1.0943026528322919 0.09736926439759239 -0.3803604236306523 108 107 107
1.0743611607679058 0.09551545941309814 -0.38023349300021037 149 154 154
1.0913716934088236 0.09450730556869466 -0.38115108670261594 107 106 106
1.0815758810394513 0.09340082318852827 -0.37832603698815787 158 161 162
1.0849659146892137 0.09019138083737094 -0.37970334047656285 169 174 174
0.9744192131263756 0.08644974468163551 -0.3721832221847466 33 41 38
1.0962637443905106 0.08971254223871318 -0.37911736842746696 163 166 165
1.089534537430571 0.08849155145118856 -0.38043590977612357 169 169 169
1.0941558701219063 0.0883563630428078 -0.38010049083165065 91 91 93
1.080566152953848 0.08796307218166291 -0.38151253124528334 160 165 166
1.0896802254565277 0.08556351254874558 -0.38057142406968875 166 169 169
1.076804746525883 0.08266576316770625 -0.37643313934258854 149 155 155
0.882047566562492 0.07930051517997652 -0.37158442384692897 29 32 35
1.0961605017766545 0.08128056444924124 -0.3809073446123792 107 106 107
1.0961605017766545 0.08128056444924124 -0.3809073446123792 107 106 107
1.0962698360941387 0.0810803392569568 -0.38384288562767194 172 177 177
1.0784054765126305 0.080298263948113 -0.3815872363754151 98 99 95
1.0899927851189541 0.07646380041296226 -0.37836380436514333 107 107 111
1.0933598294315918 0.07655200993059771 -0.3797119174266114 165 170 170
1.0813106765657563 0.0763981176071139 -0.3792216560192741 117 113 117
1.0800982071332232 0.07554775817533498 -0.38096753202017264 157 165 164
1.0867365970351337 0.07323749890527656 -0.3822139175362644 109 109 112
1.0926611752871604 0.07103174478856508 -0.38120705115897235 112 112 116
1.0870060262550891 0.07099723487194151 -0.3808164450072707 170 175 177
1.090374618598948 0.0712413855795743 -0.3827780670978495 166 169 170
1.1008316604722705 0.06907358231139603 -0.3823980064486345 164 166 164
1.0945493561444426 0.06851519629205739 -0.3833745781204292 128 129 131
1.093606966300579 0.06444825434388998 -0.378992575245288 158 163 162
1.098248882051697 0.06479456917900979 -0.38220743272912044 111 114 114
1.0827896912170802 0.06373625195341642 -0.38328584616178624 149 153 152
1.0946684824352393 0.0634927878495 -0.3829403130574311 109 109 112
1.0946684824352393 0.0634927878495 -0.3829403130574311 109 109 112
1.090465246581249 0.06291516530962493 -0.38228535747885894 153 159 159
1.0993654739949215 0.05996876635760482 -0.38258369622558674 109 108 110
1.0993654739949215 0.05996876635760482 -0.38258369622558674 109 108 110
1.0938713684577448 0.05812195456532287 -0.38083259091633004 135 138 139
1.0883115246924002 0.05650596602608618 -0.3825204267502114 111 112 112
1.1007502588711042 0.05560710811447943 -0.3815319000886072 163 166 160
1.0939713626210377 0.05438773687276381 -0.38338011238324093 163 167 167
0.8818682409462919 0.054447823107822965 -0.3702184114246048 25 31 31
1.0977414998636226 0.05249020692610336 -0.38239522867291587 165 165 167
1.0953032689675146 0.05051022525016906 -0.3820757411238569 96 95 100
1.0900640609703118 0.05054395079278728 -0.3826850641716841 157 163 161
1.0847150082415256 0.04944840584522781 -0.3825328881397005 98 97 99
1.0936199190161708 0.048949816482562136 -0.38157232215304526 159 159 162
0.9385829022983436 0.05005066235508796 -0.37542020353652816 29 32 31
0.9385829022983436 0.05005066235508796 -0.37542020353652816 29 32 31
1.0768977923868208 0.04656091171546404 -0.38472589637350396 148 156 155
1.0845483795932929 0.04529988386538828 -0.38222024672730076 87 87 91
1.090125015770606 0.04502536990059587 -0.38460156478409163 100 104 107
1.0915165104629907 0.04226171086803157 -0.3841600750388203 152 160 159
1.0952690905761422 0.04044484202064502 -0.38351578289255656 156 162 162
1.0948975976045525 0.034403116405453994 -0.38255817944347725 163 166 169
1.0971198741042623 0.03426800278793292 -0.38325111501999565 101 102 106
1.0971198741042623 0.03426800278793292 -0.38325111501999565 101 102 106
1.0848873963989405 0.03129241173426273 -0.3814244040494151 99 99 101
1.0879717811805876 0.02901012503497036 -0.38327845584623815 166 169 167
1.0879717811805876 0.02901012503497036 -0.38327845584623815 166 169 167
1.0844357460462097 0.022853178745432755 -0.3885799230135854 104 107 110
1.0880026881342013 0.0220940010029785 -0.3831118736010875 148 154 154
1.081292353839556 0.020744480192429075 -0.388275994696017 146 152 152
1.0783343718900056 0.019221113859669372 -0.3852842901711596 147 153 153
1.0987487189989689 0.014459354973948593 -0.3855203633329848 153 153 154
1.0836956846377723 0.014953595111234964 -0.38612599030241124 84 87 88
1.0924981933471 0.013488347528629542 -0.38462573374325065 102 101 104
1.09417743801236 0.009716958905883644 -0.38406398753833404 162 165 165
1.0883810393291475 0.009165073369156725 -0.3857272519042842 102 101 103
1.08747415732757 0.008197411651032922 -0.3880184503354643 149 152 153
1.0953856077393236 0.007504479998678602 -0.3882268608985283 92 90 92
1.0882005381512043 0.005248897759967847 -0.387307029968663 149 154 153
1.096440520612215 0.004584582662725543 -0.386248171800319 161 165 164
1.0861808520162468 0.004387685083933379 -0.38612430517826 146 152 150
1.087233519984867 0.003492022311919724 -0.3841901010981218 89 85 88
1.090504392776119 0.0022938247740114472 -0.3864273025232597 160 162 161
1.0880210433210875 0.0015550184192293771 -0.38519906935043996 93 89 92
1.0880210433210875 0.0015550184192293771 -0.38519906935043996 93 89 92
1.0954094023540875 -0.0005640495700794608 -0.38738808546137043 107 106 109
0.9893394031074565 0.0014418315050372865 -0.38121942595348907 171 177 177
0.9720742441549528 -0.0051048668476042225 -0.38086454617256493 30 36 34
0.9155029753308015 -0.0115031056211075 -0.3813047753517596 25 28 29
0.9546518729361866 -0.030098540043870883 -0.38355042989389654 163 171 170
0.9377474254107929 -0.06289723444243789 -0.3870170215992666 29 32 31
0.922256876523087 -0.06446849665392063 -0.3877189025277235 32 31 33
0.922256876523087 -0.06446849665392063 -0.3877189025277235 32 31 33
1.0061105231319258 -0.07874141919054113 -0.39040622327710806 29 35 35
0.943237204343526 -0.07515866842149438 -0.38808433681441673 29 29 32
0.9567074906839318 -0.0932417718400115 -0.38991264837372713 40 38 54
0.9852485384814951 -0.10231486048559803 -0.39363556936590566 34 40 40
0.9445137753825806 -0.10234239172528403 -0.3936560427820649 32 32 33
0.9197486220231599 -0.10302509892822442 -0.39580493137365075 29 32 31
1.0104481981971358 -0.16717946720385182 -0.402695156708645 19 19 19
1.0034231982738282 -0.17145951933505382 -0.4034287996007034 15 19 14
