ply
format ascii 1.0
element vertex 677
property float x
property float y
property float z
property uchar red
property uchar green
property uchar blue
end_header
1.0837927515109937 -0.02889146788815292 -0.3859820144023237 103 109 111
1.0834850237685263 0.14070433270952193 -0.3887781232014278 148 151 152
0.8538337599164993 0.08864443633812034 -0.385803731339149 35 38 39
0.8788894444003327 0.08728650695101678 -0.38395922268805793 35 33 32
0.9172755130173019 0.08873084885606308 -0.3849467872394738 36 42 42
1.0704637158169095 0.10188313317386634 -0.38307242712802264 196 199 196
0.9797145240591676 0.0886417487390077 -0.38323977775690315 52 63 61
0.9806681143591134 0.08312202445923732 -0.3851073034177286 196 202 204
0.8721172647032438 0.06412283683333347 -0.3853915942452284 38 39 41
1.094709706787131 0.08230261452658891 -0.3886666067623625 153 161 158
0.9867497739508676 0.06453672668926752 -0.38338982862154203 74 68 69
1.0771889735227118 0.0668492327590515 -0.38819345958122453 152 158 160
1.0845431548868496 0.04731163024383538 -0.3821789426377959 117 124 123
1.084450196297614 0.009048078799259942 -0.3873379435093318 111 114 113
0.8995537003225131 0.006985964579897878 -0.3880821705365117 25 31 31
1.0976792473279082 -0.015354533658546995 -0.3870051033277054 112 112 112
0.8673444215887001 0.07398135409902934 -0.38420147884234157 45 36 41
1.0829427437851429 0.08874035287159958 -0.38647573092869475 140 146 144
1.101021907625088 0.08095816444643768 -0.38993210133211287 138 147 143
1.1009767658942762 0.06157936560143115 -0.3877904627528935 135 143 142
1.095780833202661 -0.012285961142704575 -0.38789113593872676 142 149 148
0.8572357325045512 0.015673974439822883 -0.38516371635763613 41 44 47
0.9853162626480693 0.0019137034136871138 -0.3804238456917793 74 79 85
0.9853162626480693 0.0019137034136871138 -0.3804238456917793 74 79 85
0.9379620263835111 0.07607153668524555 -0.4068746766112187 183 186 185
0.9379620263835111 0.07607153668524555 -0.4068746766112187 183 186 185
0.8790856667794805 -0.006188228506185105 -0.38358845568403926 166 174 171
1.0846675456146175 0.1359972638885511 -0.390220267555291 147 147 147
0.9651406514663059 0.10690449425068374 -0.3833418778019667 188 191 190
1.0804723564616519 0.09121108896567795 -0.389224560394054 147 153 153
0.9258820948638393 0.06711654552657773 -0.38405244221229434 181 184 183
0.9258820948638393 0.06711654552657773 -0.38405244221229434 181 184 183
0.9472906371401654 0.05089263483840651 -0.38242023402359426 179 187 186
0.8853314765450792 0.019116873739992015 -0.38409686943849847 34 37 38
0.9620570108907334 -0.08835224178938168 -0.3819908401904367 181 187 187
1.0910439598112607 0.11123237473339584 -0.3890094730562493 142 148 148
1.094282328946377 0.11022052472633524 -0.38742659431221804 88 88 86
0.8566606911272461 0.05961244078441673 -0.3845616376756835 41 40 44
0.8741185343633844 0.06093525672970552 -0.38407074324421525 30 33 36
0.8741185343633844 0.06093525672970552 -0.38407074324421525 30 33 36
0.9385089143315251 0.059763130458236044 -0.3836914165574788 45 44 44
1.0793431935062552 0.05780881057669485 -0.3881840938544145 170 179 177
1.1035315595989872 0.04702329158033664 -0.38734854247365813 107 116 114
1.0864162305755978 0.04609070286035012 -0.3915274811390781 156 162 163
1.0794296681086428 0.043942262065115936 -0.38772137589948075 164 175 173
0.9697875232109021 0.02879053225843431 -0.38291035393290473 56 59 58
1.093262310728958 0.03217717320957385 -0.3895610837045351 151 160 159
0.9486440966248463 0.020139441292285745 -0.38476116156800727 46 51 54
1.103030064840488 0.02668899461820447 -0.3867487105367184 128 136 135
1.1072985899617627 0.022970222527096927 -0.3881521671131326 98 105 100
1.1012564628535546 0.014559713797258112 -0.38613296614481657 95 102 103
0.8584160289628034 -0.0011346794994952535 -0.38456216980694224 36 38 44
0.9539328721586627 -0.016883628221928484 -0.3835078737921345 198 205 209
1.075807915579522 -0.016254838625197002 -0.3856626344805013 156 162 164
0.8892858995799207 -0.03397742210227805 -0.3845113818794271 40 42 48
0.8892858995799207 -0.03397742210227805 -0.3845113818794271 40 42 48
1.0002031094592343 -0.06235672825448719 -0.38396236679157625 187 198 196
1.0002031094592343 -0.06235672825448719 -0.38396236679157625 187 198 196
0.9048621086222862 -0.09504348104273044 -0.38193566484892894 30 33 32
0.8794070455352939 0.05047566087066845 -0.38693554560769317 33 33 35
0.9065930595527233 0.04685051353498612 -0.38408975807437584 41 38 42
1.0000769914698215 0.04840430720453824 -0.37817110045329433 67 72 76
0.9571274575816082 -0.03371393506400758 -0.3797240787701925 44 54 57
0.9517248862796375 0.029792005684693146 -0.38184222049120004 49 55 57
0.947035062916778 0.025090722989509207 -0.38208946073788547 203 203 203
0.861032361013038 0.06651850267660023 -0.38568472223347483 47 32 33
0.8547893784809779 0.026838089859794342 -0.3858523070105096 39 45 47
0.8794934438542495 -0.00610079366440743 -0.38474935712948993 194 197 198
0.8794934438542495 -0.00610079366440743 -0.38474935712948993 194 197 198
0.9822734237056898 -0.04624053234464628 -0.38054241585943677 42 45 51
1.087778498019568 0.12985104874842843 -0.3887519096219941 93 93 93
0.9598304368387439 0.09888904494687903 -0.3846472146037155 56 59 62
0.970745564353714 0.09251167083355018 -0.38551245431509334 57 59 60
1.1014973753433852 0.09792710279025153 -0.39186785116506034 137 143 143
1.1092124917838504 0.09749142008411314 -0.3924059079370147 107 107 102
1.1095788608547685 0.07850695485796982 -0.39847955952544456 141 147 145
1.084668090560757 0.06551817800907583 -0.3893671054929248 129 132 129
1.102535024549706 0.054862990625462724 -0.38682218047814954 107 114 108
1.0825530051469807 0.05126452781650925 -0.3868245037576182 161 169 168
0.8800139450324409 0.019712039173266967 -0.3864552665007866 198 201 204
0.9325658396364913 0.009471543539433091 -0.3859732949876265 196 201 206
0.9325658396364913 0.009471543539433091 -0.3859732949876265 196 201 206
1.0929820768459377 0.014032200840478582 -0.3883297615775205 156 163 161
0.9864234643738506 0.005256726876815605 -0.38283695927343225 190 203 202
0.9864234643738506 0.005256726876815605 -0.38283695927343225 190 203 202
0.9860000085588667 0.0017827729238047907 -0.38185848466782 60 59 60
1.0978298846893482 0.004291893885854822 -0.3874675669735249 149 157 156
1.086501455376752 0.003170739534910759 -0.38893802763967794 125 128 131
1.086501455376752 0.003170739534910759 -0.38893802763967794 125 128 131
0.9107713774811861 -0.011673284819061195 -0.38417664131897966 191 197 199
1.0047782582080418 -0.012167291289514316 -0.38336604844903416 70 76 78
1.0813215717965579 -0.021466707281812703 -0.3866741215594829 173 181 180
1.0739789921489902 -0.02298613093942572 -0.3857291087602697 138 139 135
1.1049353209469523 -0.022881991030053592 -0.3855048391852065 111 116 114
1.0872501332524351 -0.02475064922439281 -0.39007426366181314 107 109 110
1.0991870461562299 -0.03096855438514316 -0.3879005261848403 110 113 114
1.0942449015560656 -0.032297869421816866 -0.38457896073667946 153 159 159
0.9804308672868267 -0.03789065558309904 -0.38421772033844925 57 66 68
0.9804308672868267 -0.03789065558309904 -0.38421772033844925 57 66 68
1.107993344769566 -0.040635021110248984 -0.3881193183288529 104 104 98
1.0739747919567237 -0.05149463885470957 -0.3858006829103365 117 117 119
0.9427363074135102 -0.06880509879158395 -0.38371228040545036 191 196 196
0.9436778223184563 -0.07432648843517403 -0.3853563037544377 38 38 43
0.9436778223184563 -0.07432648843517403 -0.3853563037544377 38 38 43
0.9611779425652677 -0.09200434134322777 -0.3787177311977294 59 48 54
0.9312982516881062 0.07805862913847127 -0.3842769332279433 46 47 53
0.9620321843673604 0.043630054414351804 -0.38203286225524613 48 51 50
0.9471279423866737 0.01939510862738487 -0.3818118664766275 40 48 50
0.9471279423866737 0.01939510862738487 -0.3818118664766275 40 48 50
0.9512939561059581 -0.017097509544625952 -0.3791115124439431 179 188 191
0.9600643979484222 -0.025594381873333103 -0.3791681422205154 51 59 60
0.878845191199342 -0.0687473705045021 -0.38170806066134444 184 190 191
0.8762891573319909 0.11051328999136305 -0.3837971246754271 29 32 33
0.8545977623465952 0.08993527385514714 -0.3854786077714609 32 35 34
0.8788503481938464 0.05635626299844884 -0.3843278080603409 184 187 188
0.8788503481938464 0.05635626299844884 -0.3843278080603409 184 187 188
0.8537183791392634 0.04895554795711557 -0.3843405290684082 39 39 43
0.9460190724880853 -0.006456345174010185 -0.37949017864133455 34 42 41
0.8535765261930203 -0.01313052002496216 -0.38226264206865007 35 38 41
0.8864299409758434 0.019700575920752937 -0.3874789780413254 35 38 41
0.9380703295497796 0.015978408360862912 -0.38307425940769363 58 59 61
0.9326382470219564 0.010029062598179728 -0.3860827644751802 202 205 206
0.9326382470219564 0.010029062598179728 -0.3860827644751802 202 205 206
0.9866583147374207 0.09793017029978274 -0.3737102575083638 33 39 39
0.9936842228072524 0.06932402411972506 -0.37703779511049185 55 56 58
0.9936842228072524 0.06932402411972506 -0.37703779511049185 55 56 58
0.9898475462753221 0.065181441584756 -0.3768814765704016 65 61 61
1.0794451647241237 0.07632824602515963 -0.38192687355371124 119 119 121
0.9155776034989428 0.04979504386744741 -0.3823943271265024 33 36 37
0.8885461930433776 0.04410098313889051 -0.38092732735445295 30 33 36
0.9541098285709423 0.04237630494390074 -0.3802477611321171 184 187 186
0.8601442774696821 0.0048902316129551555 -0.38225092817856354 183 189 189
0.8553883899515686 0.057283310184321 -0.3794817195565278 41 41 37
0.8613094630910192 0.03461366595647018 -0.377520907024882 23 28 26
0.8327541463110775 0.11262059186065551 -0.38462043643715016 186 186 186
0.8320455722515026 0.1004577581442027 -0.3851774659961008 183 182 182
0.8319687916589886 0.07180582859261062 -0.3845481975204697 177 180 183
0.8311742125129571 0.03141521507204503 -0.3840351006185146 112 111 115
1.001791669295975 -0.036379966908025425 -0.3787957765156464 52 60 61
0.9649712307692073 -0.08918058150767363 -0.3802244788333839 38 36 38
0.9649712307692073 -0.08918058150767363 -0.3802244788333839 38 36 38
0.8640073729107096 -0.08833798279766585 -0.38062894154812943 13 17 15
0.8299053942851933 0.06613536209757045 -0.38576915405415296 193 192 192
0.8329215411327586 0.027619187967081092 -0.38221078665773456 126 122 123
0.8329215411327586 0.027619187967081092 -0.38221078665773456 126 122 123
0.8328090144259488 0.003027575485199313 -0.37996841898757844 185 187 187
0.9158821143089204 0.08788811709277033 -0.3833542021724338 35 38 37
0.8733911431787085 0.013130382775783996 -0.3854978442229471 12 18 17
0.832505886175159 -0.021232316554278353 -0.38385195749157613 161 170 170
0.905597950766805 -0.07880554523489144 -0.38286854109746227 19 22 21
0.9654110384339994 -0.0841976395062336 -0.38055156242462473 39 37 42
0.8638621357621524 0.10116856132375875 -0.3848010436009789 21 27 25
0.9999166075408094 0.0715545736104296 -0.38162177330378894 68 78 81
0.8324528236329409 0.013889752293572288 -0.3844591964385399 165 171 173
0.832241868785931 -0.017348220747187455 -0.38437726058423755 159 162 163
0.883353348163301 0.0864242490971349 -0.3821516577983753 185 188 187
0.9779158301753594 0.01984275604935781 -0.3806556626438214 155 168 163
0.9584226913827155 0.006391920603460827 -0.38123891459671605 27 33 31
0.9413959627480613 -0.06832254668834645 -0.3814045689323359 154 162 161
0.9411809679325396 -0.06824201612124815 -0.3809582579506461 154 162 161
0.8311945150479316 -0.007859456706265365 -0.38392030704230223 165 168 168
0.8904356879507156 -0.028664936398275286 -0.3815636231256161 178 186 185
0.9643477634098269 -0.088547617867877 -0.3785589464895592 43 43 45
0.8920342293767887 0.10585327479727555 -0.3842061098038893 41 33 22
0.953216380370447 0.098005150084598 -0.38218123524659525 183 189 187
0.8309046677023032 0.07120925906531773 -0.3845401826764266 130 127 128
0.8309046677023032 0.07120925906531773 -0.3845401826764266 130 127 128
0.9888864215084333 0.0702415726038524 -0.3807310594402946 65 72 71
0.8315797849278063 0.028073038686131722 -0.38378544278281207 107 107 111
0.8659077359307812 0.013878049813037162 -0.38376945861654377 28 31 32
0.8314338003159564 -0.0034558747931491738 -0.3836887980417611 95 90 95
0.9284402785444483 0.10354112067884155 -0.38446826080680874 23 26 25
0.9146768535999712 0.08070108110995414 -0.3813980952251915 186 185 185
0.9146768535999712 0.08070108110995414 -0.3813980952251915 186 185 185
0.8790325342474937 0.019410383750547985 -0.3841812815906339 168 173 174
0.8718294227003351 -0.002311981534315497 -0.3792792312016464 24 27 26
0.885094923708557 -0.06839278892292781 -0.38305671353092824 21 27 25
0.885094923708557 -0.06839278892292781 -0.38305671353092824 21 27 25
0.8640751867645428 -0.0883953841110188 -0.38135487660682277 16 20 15
0.9684852883440311 0.0914555865503064 -0.38250206140667714 55 63 62
0.9818495480056498 0.07914695395171074 -0.38265209434518077 61 69 70
0.8297344335212758 0.047455064036541074 -0.3824969467538482 176 182 182
0.8334769496315977 0.04774163845309306 -0.3843032762395584 173 175 174
1.0033794782751313 0.025937018456759636 -0.38133605607217486 70 81 81
0.8322773556663462 0.001485242126304817 -0.38351249763759404 152 158 156
0.831949141113216 -2.80911660616899e-05 -0.3836584121078487 115 116 119
0.8319898781292999 -0.007162832967717136 -0.3838565514770656 98 95 98
0.8324886692487399 -0.015800817693967018 -0.38345164981604823 155 162 164
0.8325328764834928 -0.022782918372854247 -0.3833218655182942 128 128 128
0.8337055096719946 -0.02777301472022757 -0.3837251863431615 98 89 92
0.8321098919734529 -0.031469728596503904 -0.38388090037121303 111 110 112
0.8319011052724524 -0.03278031379715234 -0.3841981796376662 86 86 85
0.866360782868195 -0.055605859664621775 -0.38331310131907503 161 161 161
0.8789023489264959 -0.06834596777840672 -0.3825173591416859 142 150 149
0.8319888554691289 0.09956493134547469 -0.38483718797597194 189 192 193
0.8317572889931346 0.0634735071153725 -0.38405901356872474 186 185 185
0.8318466781448247 0.04777402753914693 -0.38386750695594696 180 179 179
0.8320718883491951 0.04321041751340255 -0.38424770308733847 180 180 182
0.968184259171527 0.03993155317868737 -0.3796412626461594 54 62 63
0.8332336260025014 0.02830769163931106 -0.3839698673238449 93 92 93
0.8329296599474312 -0.0042926314773885765 -0.38399391810154115 130 126 129
0.8328413919019383 -0.009886186329450557 -0.3839538973229215 100 99 101
0.8333408968843101 -0.025111775835876333 -0.38457801832939975 160 160 160
0.9633020201636476 -0.029729204532090808 -0.38032629860338596 177 183 181
0.9845351162424838 -0.05277033449024068 -0.37980381612371167 185 188 189
0.831776788436981 0.1103721778980051 -0.38632130633940237 186 185 186
0.8317462370746957 0.09137794432896308 -0.3848672994299779 120 116 117
0.9872707258639568 0.06986593020325133 -0.37910541298643974 56 57 57
0.9098747527268765 0.05585196603909718 -0.38323522824157125 16 22 20
0.941131189841114 0.050698832137130875 -0.38305387989941264 32 38 36
0.8326748715931721 0.03743420632183044 -0.38365043636589613 114 113 112
0.8332922441099458 0.036586339795131866 -0.3841684875286609 177 176 178
0.8327975541142949 -0.0014220829761804245 -0.38359348967913315 104 104 106
0.8313621623660388 -0.0034382662337766154 -0.38367730602105393 92 92 95
0.8313621623660388 -0.0034382662337766154 -0.38367730602105393 92 92 95
1.002145858484678 -0.011610719073739275 -0.37991727622328963 62 69 69
0.9098811026324444 -0.011575693947885714 -0.3826906160137882 162 170 167
0.8304134284648563 -0.02972499679819154 -0.38655702189109054 164 166 167
0.9158342608719312 -0.04275703413941378 -0.38224634574375543 132 143 141
0.9474006591751113 -0.07352782040151408 -0.38125728001453335 178 182 177
0.8883286055905537 -0.07743421531020965 -0.382292165778679 21 24 24
0.8318721499715485 0.06215017542288954 -0.38433005876527887 197 194 191
0.9150118576811733 0.05036462506519702 -0.3822125827621687 24 27 30
0.8331767855771371 0.039952653104957096 -0.3809356606437614 133 129 130
0.9617071735043098 0.03535884599819756 -0.3817842665494412 28 37 38
0.8335547648028601 0.009331471137612377 -0.383954239969261 168 167 167
0.9050532291414005 -0.016860211262745305 -0.38355667395806053 18 22 17
0.9052429095927885 -0.016763452127558347 -0.38403713454491856 13 19 17
0.9973474892929585 -0.025860589954584044 -0.37489257196434417 44 52 51
0.8314273614053536 -0.02773119214888867 -0.3824308029459558 107 110 111
0.9774740518413542 -0.03702284222550373 -0.3794887407067332 34 42 41
0.9341053476069328 -0.05685634968298844 -0.38186312780418763 30 27 29
0.9341053476069328 -0.05685634968298844 -0.38186312780418763 30 27 29
0.8688371308880549 -0.05854105101263446 -0.38253007708409686 154 162 161
0.9084354774424164 -0.06764298800871528 -0.3782165171817643 19 21 21
0.9084354774424164 -0.06764298800871528 -0.3782165171817643 19 21 21
0.9714858491251214 -0.07318888723572413 -0.37931748876430205 171 177 175
0.9714858491251214 -0.07318888723572413 -0.37931748876430205 171 177 175
0.9555966775113474 -0.07932599939806753 -0.38231484821734146 173 180 176
0.8794100369086055 -0.07395013659120611 -0.3832530720233539 19 24 18
0.8794355084920419 -0.0739679096021674 -0.38335685938479686 17 17 17
0.9537880829413676 -0.09396642549335672 -0.3788301367806813 26 32 34
0.8884120551335905 -0.09589204147037059 -0.3815650787255438 20 23 26
0.925651544457481 0.07472076642574846 -0.3822395480206109 152 163 159
0.8541253586405263 -0.03605296467727591 -0.3821396800859807 15 21 21
0.9886774301491299 -0.05289815482554668 -0.37892146251342673 40 49 49
0.863896639457749 -0.061074359990539194 -0.38287977293065933 23 22 26
0.878777160998774 -0.06830985806249175 -0.3819483870692475 142 150 149
0.9271664256198021 0.1021792858408902 -0.38202652013920757 21 25 24
0.8782882910217404 0.08638193178658628 -0.38259211606997356 21 24 23
0.8314421067112795 0.07927389655545945 -0.38433403009460787 182 182 182
0.8319335578968414 0.07264739810039869 -0.38389073425642356 112 112 113
0.8317581277420587 0.0659220851763005 -0.38420406131668494 181 180 181
0.8318503681575574 0.04767491112813806 -0.38360679781041646 170 169 171
0.8840621919882191 0.04998990621203653 -0.382824384829531 147 161 160
0.8840621919882191 0.04998990621203653 -0.382824384829531 147 161 160
0.9775398387967743 0.019767564935806756 -0.3801048741125395 181 182 178
0.8301284952595097 -0.02297203525095419 -0.3841698514056888 159 167 168
0.8337661967822646 -0.024665314791028008 -0.383179837455829 110 116 118
0.9063438644835085 -0.034015766860519464 -0.3814200598391936 18 24 22
0.9916147945037428 -0.06174639456885929 -0.3788712026248341 177 180 179
0.901859544731633 0.105249818053784 -0.38348687217417005 194 197 198
0.901859544731633 0.105249818053784 -0.38348687217417005 194 197 198
0.8686703273882027 -0.05842911532244157 -0.3832652844517182 166 166 166
0.9299215063265859 -0.048969261791317005 -0.38119749586726354 180 180 180
0.9299215063265859 -0.048969261791317005 -0.38119749586726354 180 180 180
0.9981082735592386 -0.06418368091410497 -0.37795604634724134 43 47 51
0.9053989657466889 0.09044583299885887 -0.3822012021642594 30 34 33
0.8318554861608877 0.07181779445367485 -0.38350188772307087 179 182 188
0.8531805297938562 0.04829381688756351 -0.38192373415434794 26 29 28
0.8840525956078089 0.024680380607081352 -0.38264474200955717 167 175 172
0.9418974789763743 0.02529828420453615 -0.38358881695057945 47 55 54
0.8330360483442502 -0.02701871238839524 -0.3829688272062798 159 169 172
0.9398518167384379 -0.0986077726483361 -0.3806364045612318 22 29 27
0.8316798005470165 0.09598699693617792 -0.3851463705331083 153 152 153
0.8321282335063387 0.06244252247178869 -0.38348816444681094 171 170 174
0.8320537828645471 0.032695944021662704 -0.3838385739010062 182 181 183
0.8324530339078781 0.024867821015384182 -0.38337167658016674 141 138 141
0.8324682832300837 0.020681008729013194 -0.38383486541919276 107 106 110
0.8324682832300837 0.020681008729013194 -0.38383486541919276 107 106 110
0.9853333411019976 0.002032587102890435 -0.38076254481698374 52 51 58
0.9096869830613196 -0.005877526441722131 -0.3828754465909559 21 27 25
0.9096869830613196 -0.005877526441722131 -0.3828754465909559 21 27 25
0.8791723560037479 -0.011804916633589766 -0.38443929679467415 21 24 21
0.8791723560037479 -0.011804916633589766 -0.38443929679467415 21 24 21
0.83340255488588 -0.016277930478312868 -0.3837587885854027 166 166 164
0.8956003950513428 -0.03101659555796627 -0.3823359933304321 155 160 158
0.830722025204448 -0.030218081371840712 -0.38243147512635717 140 138 141
0.972911102172902 -0.042571518805938895 -0.3819943824216497 31 33 39
0.9095209679005187 -0.03732136426703432 -0.3815753052125687 156 162 160
0.8325798828833813 -0.03368099374284693 -0.3838426902986689 156 160 161
0.8325798828833813 -0.03368099374284693 -0.3838426902986689 156 160 161
0.8327529923343503 -0.03589936204260582 -0.38385670869630756 158 161 160
0.8321528968696649 -0.036652856813332864 -0.38380685266857123 107 106 108
0.9299371076223997 -0.048929954441290356 -0.38178064153254 153 159 153
0.9299371076223997 -0.048929954441290356 -0.38178064153254 153 159 153
0.8733399275972535 -0.04819102272185157 -0.38327446377843344 19 22 21
0.8733399275972535 -0.04819102272185157 -0.38327446377843344 19 22 21
0.8311829112530196 0.00981486895521648 -0.38375615402762137 142 141 143
0.8311829112530196 0.00981486895521648 -0.38375615402762137 142 141 143
0.8786516195493352 -0.006107741788981525 -0.3831078598931672 160 166 164
0.9648832558578041 -0.019266964048713378 -0.3810843338412008 39 40 44
0.8335160281710303 -0.013983367426614627 -0.3834420134984076 111 110 110
0.8332398106121873 -0.02841651129569485 -0.38407379922796664 175 175 177
0.8308531406338369 -0.02942666361604581 -0.3839545008770389 140 141 145
0.8308531406338369 -0.02942666361604581 -0.3839545008770389 140 141 145
0.8312944250475189 -0.031950683477711204 -0.3837630266726067 174 181 185
0.8294365141873835 0.11149360128336779 -0.3767120123597739 156 156 158
0.8314219910218423 0.09763578076424083 -0.3827894652808784 178 178 182
0.8314219910218423 0.09763578076424083 -0.3827894652808784 178 178 182
0.8313656389118242 0.08481934596199245 -0.38113498285845504 184 187 188
0.8314941702174223 0.08417556592939567 -0.38121587431656534 186 189 192
0.8314499021052351 0.08043910352592565 -0.3818723869892061 184 189 187
0.8315101377211805 0.07445269782868107 -0.3812041116778188 184 185 187
0.8295342836422093 0.06547660752699863 -0.3821072349802268 180 186 186
0.832839377769707 0.05374231070013796 -0.3844781437329806 181 187 185
0.8323475705299992 0.03570354499585971 -0.3861201117910268 165 164 166
0.8318992980669767 0.025740227315254875 -0.3888151904303242 145 145 149
0.8301442256435059 0.06999557459205351 -0.37720927030738116 142 141 144
0.8320272545726138 0.05036989625417761 -0.3799267600563089 137 136 136
0.8326690385507429 0.041270974005890124 -0.3813869658165298 198 196 196
0.832364065126857 0.03742956275789926 -0.3818279856136596 131 128 131
0.8327299358176922 0.031113250347753224 -0.3820530416740096 193 194 197
0.9375006744549004 0.016171328035036972 -0.38284131577844105 32 39 34
0.8653180947448961 0.01403969746839859 -0.38098531937344865 29 32 31
0.8653180947448961 0.01403969746839859 -0.38098531937344865 29 32 31
0.8723066246775719 0.013115360070637797 -0.3823008540003428 25 28 27
0.9673525782584751 -0.016409757250941178 -0.381802698453404 32 38 40
0.8960679369349609 -0.023125448834179167 -0.38485462159942857 34 33 33
0.982576422259114 -0.07060397423072828 -0.38638420015341296 186 189 192
0.9402615345982039 0.0872183211023197 -0.3817586211184781 38 45 45
0.9402615345982039 0.0872183211023197 -0.3817586211184781 38 45 45
0.9591362040691989 0.03727156923191265 -0.3840836761410185 41 47 47
0.957883722654206 0.03208247027782833 -0.38236471489499946 182 188 186
0.9313909958338995 0.009518018850795559 -0.3850019433992367 169 174 174
0.9313909958338995 0.009518018850795559 -0.3850019433992367 169 174 174
0.9720784090568838 0.0877021814763186 -0.3825020897439898 179 184 182
0.9822086967363863 -0.046035123517563926 -0.38126052784345793 36 38 44
0.9924015224899533 -0.06209994677951423 -0.38057804405529516 187 188 192
0.8317368255440007 0.12251711332889034 -0.38679261545857613 189 188 188
0.831986778719013 0.1003494222275337 -0.384905526504642 186 186 190
0.8317714662479759 0.09631380368032573 -0.384917315284837 128 125 120
0.831576549107461 0.09339278915879437 -0.3849163977594272 186 185 189
0.8331793768348618 0.08972823025282599 -0.3835152411783446 189 189 191
0.8527126442733404 0.08668219015919033 -0.3804278685960767 25 29 28
0.8530089395994583 0.08712465514402012 -0.3821338105696784 28 28 28
0.8300882147444616 0.08037618938117223 -0.385379291858204 185 188 189
0.9713921297151545 0.08730983847436224 -0.38134879409187084 183 189 188
0.9149883789211375 0.055821113444147204 -0.38185203279281194 176 184 183
0.940155831017119 0.05594887544602289 -0.38125668872439816 179 187 184
0.9415445726505769 0.050793534589579865 -0.38387418154757375 32 38 36
0.831478788042509 0.04128251132651109 -0.3834635454332006 186 183 182
0.8328928631219684 0.03107490451455109 -0.3836210396385844 175 177 179
0.8317701761009874 0.02926313489270968 -0.3837382145421217 115 117 120
0.9102360981568464 0.01976941358451948 -0.3832742922077293 25 25 25
0.9983138933954787 0.014253623374838759 -0.38058676697226235 60 68 69
0.9303028935389389 0.009426988959859628 -0.382210016910652 167 173 171
0.8327786410278895 0.005860884189693631 -0.3839525671798179 128 127 131
0.884363241693874 -0.006215105817218838 -0.38235822831991756 22 25 24
0.8315026085140677 -0.01266154358221931 -0.3842291180781375 121 120 122
0.9824128077226215 -0.05719117439805509 -0.38068309445737775 31 34 37
0.933913559845512 -0.056997512529307647 -0.3813637533707681 29 28 35
0.933913559845512 -0.056997512529307647 -0.3813637533707681 29 28 35
0.9361567626268243 -0.05910015385692727 -0.3812679080157513 28 36 36
0.9102526575679913 -0.07427752271361933 -0.3833678432593075 169 169 166
0.9661434052486982 -0.09425696745048669 -0.3762861574915966 37 37 42
0.8342835334717671 0.010328677475863962 -0.3830439384681172 172 175 176
0.8304349497436981 -0.003111141690877808 -0.38396287149089275 116 115 116
0.8315512574972314 -0.00975745941128051 -0.3838102265355067 108 110 110
0.8319516715285743 -0.01200322127647391 -0.38378680102996227 182 182 183
0.8319922313842648 -0.012022601705681915 -0.38394846396257204 168 168 171
0.9534106220995243 -0.030138945764836795 -0.38070617255175376 184 187 186
0.8331095654865296 -0.025124467405017257 -0.3842221094022287 160 164 163
0.8320397777832016 -0.02510394436967276 -0.3840508934887902 160 160 159
0.9233019015644597 -0.06053462690255287 -0.381792915723076 35 23 30
0.832062728172856 0.10544021938615937 -0.38620325476319783 190 190 192
0.8337017402907955 0.012817338929841668 -0.38382151430595285 167 164 165
0.8333245071193907 0.009369101087919423 -0.3834930267165545 194 193 195
0.8687771696495441 -0.05838488357503917 -0.3830882949691035 162 162 158
0.8311848839762076 0.10708340005979068 -0.3823776278441811 188 188 188
0.8314323190180948 0.09517688695995975 -0.38186758683173483 138 135 130
0.8314449789770253 0.09194167213790212 -0.3831077759334457 190 196 198
0.914715875395592 0.08128324549241998 -0.38133759061299305 182 188 188
0.8752894283268724 0.07802017278154066 -0.38387653727740567 30 29 29
0.8318156841082172 0.05000572787448282 -0.3839160054354255 185 185 188
0.8331919650269665 0.04143931352887137 -0.38644493315573725 175 172 175
0.8331919650269665 0.04143931352887137 -0.38644493315573725 175 172 175
0.8326499166616383 0.0374509821608644 -0.3847941890843842 108 106 108
0.831649977073806 0.03703728608828374 -0.38368475514015904 179 182 184
0.9566634185643658 0.03262007093714978 -0.38633831155208753 69 64 68
0.8329854392847112 0.029480685371021845 -0.3842975235676921 196 196 199
0.832900216007102 0.0218213754095987 -0.3868781099388721 135 132 137
0.8306663494026605 0.09898880705796376 -0.3784308821675942 198 195 198
0.831321583086402 0.06142042007734101 -0.37903259499344627 189 187 188
0.8940290339878838 0.028814004618618962 -0.3796788040210333 25 29 24
0.8843418156063414 0.024802769894282123 -0.38328039982893203 165 173 170
0.8834181905612591 0.02482548998134484 -0.38019276065501795 165 173 170
0.8616712059146004 0.0041512941213648095 -0.3746407937654455 190 190 190
0.9969558551024784 -0.011845184644526817 -0.37430886609068076 42 50 51
0.8846521728010438 -0.006334536300311471 -0.38338607149066317 30 34 29
0.947237518008627 -0.037449421157906254 -0.3814794545460951 193 196 195
0.887842047998215 -0.03348232121005289 -0.381017723113626 21 24 23
0.9216984382971863 -0.047390780989345 -0.3798440673993413 29 29 31
0.8727892332336098 -0.05850344204607066 -0.38697914763203994 32 28 29
0.8727892332336098 -0.05850344204607066 -0.38697914763203994 32 28 29
0.9746074786995655 -0.08115121205056948 -0.39083728515282395 41 40 44
0.8878673356186493 0.03081354229525591 -0.38041516424532407 46 32 20
0.9469610171382209 0.01984858372337841 -0.3824156077689988 31 38 37
0.9204733855324093 -0.001077774278764804 -0.38214721540429647 29 32 31
0.915301463018591 -0.005998430611094612 -0.38143878748068927 159 168 165
0.915301463018591 -0.005998430611094612 -0.38143878748068927 159 168 165
0.9255511805058094 -0.04950087840358481 -0.3798161450482359 24 27 26
0.9235153821106332 -0.06070969401621054 -0.38232875580777387 35 23 30
0.9584894193311151 -0.07787479119687517 -0.38232575468403956 31 34 35
0.960735050735129 -0.08781454261453125 -0.38015577709681636 189 192 193
0.9898595476633568 0.037864352898719957 -0.3773108734443561 57 65 64
0.9386652819993399 0.025439705401376272 -0.3781717404139833 40 46 44
0.953585728740649 -0.032962595164216166 -0.3809904410283404 44 44 57
0.9575182282776565 -0.03347179103864606 -0.38039255363434193 43 46 47
0.9511757588045697 -0.03404984224460689 -0.38251710147094936 41 44 47
0.9511757588045697 -0.03404984224460689 -0.38251710147094936 41 44 47
0.9414461308283093 -0.037457107947770414 -0.38315547051384624 30 36 36
0.9414461308283093 -0.037457107947770414 -0.38315547051384624 30 36 36
0.936185949333427 -0.045749514037949024 -0.37962800853350925 34 37 40
0.9714995575415771 0.025043237024154102 -0.38048966111664617 181 187 185
0.8846297405095536 0.01924500431195556 -0.38364945550571494 20 23 24
0.9537982523349426 -0.030125439494166645 -0.38140060009998844 176 184 183
0.8330088173871683 -0.0251046005934876 -0.38360525701994586 170 176 178
1.00235301985783 -0.03636166684483233 -0.37982320556646587 48 54 54
0.833524590642815 -0.032480998240885295 -0.384068756308461 89 84 88
0.8336983871520982 -0.03549056600176042 -0.38371945469480084 116 116 118
0.8336983871520982 -0.03549056600176042 -0.38371945469480084 116 116 118
0.9158833098177649 -0.04278845967018806 -0.3823652889850474 157 160 159
0.9372272449605369 -0.04617216551226968 -0.3812494698125168 26 28 27
0.895523593970543 -0.08178425483376132 -0.3823465807608217 23 23 19
0.8317794451497774 0.06944478400623245 -0.38508775014148283 186 186 188
0.83205930505017 0.03618288302750351 -0.3839517620983065 117 114 111
1.0000219285264271 0.034583361989544564 -0.3793490859695912 58 69 69
0.8320007844375109 -0.008395416244215519 -0.3836437806146178 107 104 105
0.8335933609799863 -0.013153058161478631 -0.3837527986265459 162 165 164
0.8335063187336538 -0.03766543439912368 -0.38384137132148544 86 80 84
0.8317113991229841 0.13313085093587307 -0.3865285624877808 159 155 156
0.8319752390636823 0.005323357853412471 -0.38351500458490584 174 176 178
0.8320031425120048 -0.004473897058714843 -0.3836834691778471 179 179 176
0.9547727135088165 -0.08806519040527636 -0.3805360696722617 169 175 175
0.8314276727952811 0.1348226000007911 -0.38827170144270057 119 119 115
0.8319370145325219 0.024970802680179916 -0.3827453040746094 191 191 195
0.9857735853473203 0.008530208064928239 -0.3779753956589116 63 69 73
0.8315615194450293 0.10157076668975194 -0.3868929271368176 189 185 188
0.9899322034146177 0.10233118620201767 -0.3802602343791092 46 54 51
0.9899322034146177 0.10233118620201767 -0.3802602343791092 46 54 51
0.9020890786228288 0.08975416919474574 -0.37832474508822744 32 41 42
0.9401418567428013 0.0870059744908385 -0.3814782615812624 35 38 37
0.9109204222294199 0.056289661009039246 -0.3859097662920671 26 33 27
0.8329537346110087 0.030063251822475323 -0.38740541708599036 194 194 197
0.9313194633179389 -0.04961077473557897 -0.3839726271708538 172 179 173
0.9181220487269445 0.0895985658488976 -0.3889626549058034 26 32 30
0.9999572437978413 0.08782147245770994 -0.3785402916486118 72 83 83
0.8643054718848409 0.07085067136416894 -0.3854224919655278 36 30 28
0.9916525858222586 0.07349008059478741 -0.3791172740731628 69 68 70
0.8883302982266844 0.02858027168769956 -0.38451918682548614 29 32 31
0.8883302982266844 0.02858027168769956 -0.38451918682548614 29 32 31
0.9488032601012294 0.0201230674094365 -0.38599551433075135 41 47 47
0.9213699860051989 -0.0012109765201728862 -0.3841597576080898 33 36 35
0.9781415541332074 -0.011261287088477687 -0.38064761262573066 50 57 60
0.9781415541332074 -0.011261287088477687 -0.38064761262573066 50 57 60
0.9622957770883177 -0.07407346850801018 -0.3706003276389078 42 40 47
0.8314199037612892 0.135267126821015 -0.38399615103105555 168 162 166
0.8330269428996459 0.13356080735218448 -0.3806134361477145 193 192 192
0.8288614923283543 0.11882903706457242 -0.3832557944584299 194 193 193
0.8335054313556467 0.10865246232393921 -0.3836453156908915 194 193 193
0.8309917221268098 0.08727993491804631 -0.3828216438750734 184 184 185
1.0855787129480086 0.11946510861227945 -0.3906158981432011 106 107 103
0.8316608322168593 0.0805240814119854 -0.3830872252005025 180 179 179
0.8316608322168593 0.0805240814119854 -0.3830872252005025 180 179 179
1.0696791668346208 0.10508078842603813 -0.3809970993729492 126 125 122
0.8333438534453816 0.07295377079930578 -0.3839101776302806 139 133 135
0.8325525936043665 0.070615423805083 -0.3831909629403346 185 186 191
1.0771237743469821 0.08536128070731891 -0.38543516613063944 119 123 122
0.8300554887459606 0.050384137228021916 -0.38543457889187943 183 186 186
0.8317904261327375 0.04776029726183533 -0.3835539623616723 178 177 179
0.8318546083010643 0.034136804799558926 -0.38340813645029825 178 178 180
0.8333202721235045 0.031676412718735704 -0.38331411884856287 149 148 149
0.8316442036652129 0.0281101060106441 -0.38367500309896163 105 104 106
0.9649311946763542 0.03203882182086862 -0.38093245039539647 176 184 181
0.8324263682786934 0.027517059637767374 -0.38376163596328083 174 174 178
0.8323908041541752 0.026919774781817108 -0.38313775731253785 176 177 183
1.072794915594981 0.024067929239792136 -0.3842619145614196 109 109 111
0.8726900201987031 0.012831035851221528 -0.38258212148625464 19 24 22
0.834514396102115 0.01047679063271206 -0.38325900128145074 173 176 177
0.8321768320138242 0.002868429599600031 -0.3838724706918489 177 176 178
0.831134831491099 -0.007757989518012804 -0.3834175187281401 170 173 174
0.831134831491099 -0.007757989518012804 -0.3834175187281401 170 173 174
0.8338096703688613 -0.03410354520214651 -0.3841916066862291 121 117 120
0.8837332087585053 0.04988555745531076 -0.38170604413300896 172 174 173
0.8321102902724415 -0.002118259195973925 -0.38405298181044006 161 172 172
0.9706937339241719 -0.011120352639349122 -0.3791142463268448 173 179 177
0.9497496732891086 -0.014852648332648358 -0.3799186402365593 46 54 55
0.8974283425500086 -0.022533584330834334 -0.381335694175208 154 165 162
0.8337043894726982 -0.020339094751415203 -0.3835993511087955 122 124 126
0.9498607869352366 -0.07664905144933894 -0.3793695437331541 39 41 45
0.8840979555192708 -0.07327033954947904 -0.3805326348638969 155 156 152
0.8322067638463814 0.11072455341709966 -0.3870386406908994 199 196 196
0.9164915665568014 0.11352780863855165 -0.38488767536548496 33 36 35
0.8671547606859168 0.07397319456998687 -0.3839031101591943 33 32 33
0.8671547606859168 0.07397319456998687 -0.3839031101591943 33 32 33
0.83236371800116 0.04021085406961371 -0.38409516344048666 191 191 191
0.8675648677859116 0.0011836528557878528 -0.38337024686876975 35 35 36
0.8336294768191207 -0.03409510549930977 -0.38334193341076706 119 121 122
0.8848094238076163 -0.037427497902738395 -0.38355878764561907 155 163 162
0.9106737531118163 -0.04256992633407221 -0.38349098110009505 20 23 22
0.9022125407116565 0.10545581892412616 -0.3838445041741229 188 188 188
0.904888230821581 0.08975820269236473 -0.38088284341834777 34 34 32
0.8834786183914203 0.08143084145840898 -0.3828844989841903 29 32 33
0.9287569758410614 0.07140218404383557 -0.3802960748819392 185 182 177
0.9148582344746482 0.05019159512140967 -0.3818126084799032 24 27 30
0.905796420832065 0.046521631500506866 -0.38191206345652234 30 30 30
0.905796420832065 0.046521631500506866 -0.38191206345652234 30 30 30
0.8316605841683729 0.030201312844606434 -0.38377628948645415 190 193 196
0.9641628368467593 0.03168567941627647 -0.379500787293896 177 180 180
0.9915353042162116 0.027048086045891755 -0.38138913155143495 52 56 56
0.8949729976463388 -0.01864772471229071 -0.3813853236398018 167 178 176
0.9029965121858358 -0.031249997020486617 -0.38144155975767097 18 21 20
0.9822625793072846 -0.04584123307150377 -0.38105083591477834 56 62 64
0.9822625793072846 -0.04584123307150377 -0.38105083591477834 56 62 64
0.8999756562062784 -0.08459664161362508 -0.38073599662873814 25 33 30
0.9514754533094326 0.09205163613793242 -0.38153450400086536 49 62 59
0.9767348942970207 0.024876438231631232 -0.37883114831864156 74 82 80
0.9767348942970207 0.024876438231631232 -0.37883114831864156 74 82 80
0.9569605565002421 0.006060938642242582 -0.37901579356383525 37 43 43
0.9638556546365487 -0.019382225004744333 -0.3795295371767272 53 52 54
0.9528774842225576 -0.030154065553137196 -0.3798315760352146 163 171 168
0.8321178183654969 0.10621601763048699 -0.3870814334431391 182 181 177
0.9589807219256683 0.10172308689829238 -0.3796121417683013 43 41 40
0.9663647579212681 0.10105929067490135 -0.38286384861911427 30 35 35
0.8299299280662013 0.06621839526811335 -0.3858640180733503 191 191 193
0.9881627797610458 0.07008961325013625 -0.38014753045246064 57 57 51
0.9881627797610458 0.07008961325013625 -0.38014753045246064 57 57 51
0.8321895922691546 0.046652078052656774 -0.3862405863567484 121 116 117
0.8324977527291301 0.044826972202419234 -0.384277841606094 124 119 123
0.8794023307221647 0.050872378962168584 -0.38680031860114406 25 25 25
0.9419027323044404 0.05120140629311108 -0.38444293925971096 31 32 34
0.9789732783152917 0.020193411480145692 -0.3824365187317201 171 174 174
0.9789732783152917 0.020193411480145692 -0.3824365187317201 171 174 174
0.831653059224441 -0.02594252532497715 -0.3844421802065994 118 117 120
0.918052552298946 -0.07502070423023179 -0.3840069038266363 21 24 23
0.8335573767436643 0.10677570793435241 -0.38642720135594405 134 125 127
0.8316243442627024 0.10121591781276598 -0.3860234051067629 188 185 186
0.832569706997427 0.08013142174014866 -0.3851916162541911 135 130 131
0.8300328350855939 0.07204788119691381 -0.38456086487443214 178 180 177
0.8319684879977555 0.04048033144028855 -0.3827344608973238 148 149 150
0.9462720012324173 0.024940529712780095 -0.38088388847421756 173 176 175
0.832145759068365 -0.010506168442291396 -0.38388299854165125 182 187 189
0.8661048810303646 -0.06345308092809529 -0.3818703862942418 21 21 23
0.9774337439487821 -0.07306763619285968 -0.37875532410040763 29 37 38
0.9499747378206763 -0.0767019282804214 -0.379523883734169 29 34 36
0.9290411321473161 -0.08967378462199467 -0.3815611797840961 17 20 19
0.8315531848865337 0.13292821439275665 -0.38567877919532506 151 146 144
0.9575015121814872 0.10543455984388962 -0.3820867530366831 61 62 59
1.0760793015609225 0.052832901495176006 -0.38316756201355934 124 127 128
0.9651409585495444 0.03217447300783858 -0.38137821424611396 193 200 199
0.831411748796171 0.1386493316933576 -0.3871578731816831 203 203 207
0.8318328847542027 0.11827640794633282 -0.3866896812481328 183 182 188
0.8606075110173056 0.07398566234986402 -0.38332745081290115 41 30 23
0.8317646456825093 0.06592731919796034 -0.38421364717523276 184 184 183
0.8996155989760717 -0.02741882135535303 -0.381369444129135 178 179 180
0.8996155989760717 -0.02741882135535303 -0.381369444129135 178 179 180
0.9989449108775438 0.028174685372114334 -0.37970087479927295 70 73 74
0.8952292291372521 0.035743072504087724 -0.38259427124623674 181 189 188
0.9290129931769846 -0.05442011474705552 -0.3823060578669449 166 174 171
0.9547308130699035 -0.09425402593867858 -0.3803299207306763 25 31 33
0.8336847099399393 0.051082484657091955 -0.38344234233245283 189 189 191
0.8297675772639045 0.020905852732268384 -0.3828802735870311 170 174 173
0.8313025019191689 0.008421692447881627 -0.38350222915701593 109 114 116
0.8309821931520811 0.03819954481787461 -0.3836634881889557 136 133 137
0.9708117969065395 0.05615130999333425 -0.3806281934756608 68 80 82
0.9708117969065395 0.05615130999333425 -0.3806281934756608 68 80 82
0.9955395751439517 0.014229088223086182 -0.37713640538436227 81 89 90
0.8895636350371512 0.10834076114905267 -0.38463406744820355 34 37 36
0.8310439291176325 0.05972999156951008 -0.38052279813671963 199 199 203
0.8580513733445739 0.07104821425818365 -0.38420907762097595 33 39 39
0.8300531999021273 0.05035071843565707 -0.3856114306908652 200 200 202
0.9342562203420373 0.05454454516800059 -0.371417874146957 196 202 202
0.9521113849420287 0.0361629252590351 -0.37260455174780155 59 63 62
0.9443280156100836 0.019515134732457036 -0.3772024895089567 48 54 56
0.9443280156100836 0.019515134732457036 -0.3772024895089567 48 54 56
0.9335627112110177 0.012814335643329657 -0.38102772173436367 191 197 195
0.9504948312752503 0.09166203069653817 -0.3798783117760166 38 45 46
1.0015446709994735 0.026070515550157918 -0.3798626197664042 72 85 84
0.9204618632224387 -0.001081562699583465 -0.3820941952629989 33 36 35
0.920447173195762 -0.0010796168310246517 -0.38207042934532304 29 32 31
0.9105786651977498 -0.04296065913611442 -0.38382777146142405 25 25 25
0.8738964336099344 -0.0486406074191539 -0.38503275626980177 26 26 28
0.8738964336099344 -0.0486406074191539 -0.38503275626980177 26 26 28
0.9306324317312278 -0.049258943349211416 -0.3832734705977079 170 177 169
1.0823999883950435 0.07929732711717749 -0.3813552411798517 111 117 117
0.9931450151013057 0.041405769706982926 -0.38314361728505336 69 81 80
0.9931450151013057 0.041405769706982926 -0.38314361728505336 69 81 80
0.8967947863920281 0.006498420704497352 -0.3821239332545935 27 30 29
0.9408785220012359 -0.04249147263534561 -0.38143642214047785 186 186 186
0.9408785220012359 -0.04249147263534561 -0.38143642214047785 186 186 186
0.9231914094218356 -0.05372431627435549 -0.3816402534636197 177 178 178
0.9803330181714288 -0.060653141360012174 -0.3796304205588473 52 47 48
0.9469617759260576 -0.0685002876911008 -0.38037643959180917 30 33 34
0.8317806341217336 0.14046479730617523 -0.38709272524733185 163 154 157
0.8306721112354577 0.12887100901031703 -0.38532138511451747 167 166 166
0.8317340349417117 0.1225305236659479 -0.38630564724500166 202 201 205
0.8306644253362644 0.07246294148009563 -0.38511087498438556 197 197 198
0.9710875491220032 0.08711457398600714 -0.3810022915444818 196 202 200
0.962364411143427 -0.029606355931353395 -0.37913385423132556 201 201 201
0.9363482862304344 -0.05884723807196398 -0.3815112555294913 25 28 27
0.98919059787358 -0.06075239263670476 -0.3807026026653535 60 48 61
0.9302544401237822 0.0728036728573279 -0.38370277730147423 196 197 192
0.9617342740206943 0.03545885143494179 -0.382172700519339 43 49 49
0.9656796513931869 0.03228636627000103 -0.3822072925163011 185 196 192
0.8784898185101485 0.024935031062401622 -0.3828784471897313 25 31 29
0.8718437288197866 -0.0011801517704897045 -0.3818410934717168 25 25 25
0.9470526824264179 -0.011225951265881353 -0.38175815663787355 183 189 189
0.9696730641343864 -0.09625735917172919 -0.3817207077603999 38 41 43
0.8893387321103566 -0.0966060403278228 -0.38392372419360443 26 26 26
0.9098490656795952 0.02492275626473934 -0.38298641192055904 169 175 174
0.9763110409508584 0.019794158526016643 -0.37846789194713865 176 179 180
0.9147703662121168 0.019447693801682556 -0.3809390912313837 170 176 174
0.9043015740066813 -0.09455226429518424 -0.3814045206328546 20 23 22
0.9024165596949973 0.09529576023865571 -0.38449934487629717 196 202 202
0.9024165596949973 0.09529576023865571 -0.38449934487629717 196 202 202
0.9671848439848086 0.0905791195513102 -0.38061473521596256 51 58 52
0.9671848439848086 0.0905791195513102 -0.38061473521596256 51 58 52
0.9725926451789101 0.08229655442801369 -0.3838200010862942 49 57 56
0.9107447223232467 0.0825623160632682 -0.38650184558473144 30 33 32
0.9063824441003412 0.036753228025954314 -0.3848864532830413 35 38 36
0.945867427659637 -0.004785664529741803 -0.3769772930199156 39 45 43
0.9808303003531743 -0.045649137452849736 -0.3790091840707185 45 50 53
0.9292698111586768 0.07705384505163938 -0.3806417698088137 38 42 45
0.9297754249933242 0.00950203854614959 -0.38141760622127413 171 178 173
0.9757449271501539 0.08094030119204175 -0.3782937553752368 195 201 199
0.8728969880161765 0.07545960641873849 -0.3847943754572366 29 35 37
0.8728969880161765 0.07545960641873849 -0.3847943754572366 29 35 37
0.8637156270010246 0.07468016884816481 -0.3844458039281237 197 200 203
0.8670042837551065 0.0737832687524862 -0.38370489703640814 44 44 46
0.9395194284484857 0.08124967219638923 -0.3801154246619634 184 184 184
0.8836867935867883 0.04978646389753279 -0.38156014329196 172 174 173
0.9873226495913027 0.0262176343907221 -0.3759581046506989 56 64 65
0.8327874675111808 -0.001377834105170549 -0.38399873294432363 125 125 127
0.8309544363731349 -0.0027886748125525666 -0.3829185411423222 181 181 185
0.9763526767441628 -0.011254392854634193 -0.37802564825899543 61 68 67
0.8314826754670238 -0.015358238726938868 -0.38396351156339115 133 132 135
0.8314826754670238 -0.015358238726938868 -0.38396351156339115 133 132 135
0.8323735427831807 -0.019208162130420637 -0.3844902095082395 177 177 179
0.9297216065681212 -0.05398885161135201 -0.38205431200885376 165 170 168
0.9411945890903236 -0.06841433871910926 -0.3812675135758892 178 184 182
0.9411945890903236 -0.06841433871910926 -0.3812675135758892 178 184 182
0.9055677401609885 0.09061864376031979 -0.3825558349235248 33 36 35
0.9456986310603049 0.08146957778463126 -0.38099774088772387 35 41 43
0.9714103841167357 0.08163678454298316 -0.38207933736486593 46 50 52
0.8330841837912814 0.05468197334613912 -0.3845423514172877 120 116 113
0.8967654463887841 0.0063173556277265905 -0.38186917954399907 16 22 20
0.8322034473732582 -0.017250241742970997 -0.38385012870684543 173 173 176
0.9667562214247603 0.10131632386090943 -0.38348988299358744 38 44 44
0.8830055663466835 0.07963796448149095 -0.3796686329466348 29 32 33
0.9913258835479716 0.06784849326231691 -0.3706589407696451 65 76 75
0.8322313356816153 0.010392760751927629 -0.38497312390281435 175 175 177
0.8319304867733889 0.010213824137716827 -0.38336816640879134 181 183 184
0.8923940813895995 -0.019624256384481 -0.38345302085173855 45 40 38
0.9974190773480837 -0.025861164159053103 -0.37527023128004694 55 63 64
0.8738283651692118 -0.04830164915666657 -0.38438714548717484 23 26 26
0.8738283651692118 -0.04830164915666657 -0.38438714548717484 23 26 26
0.9408619419795481 -0.07364247407034684 -0.38088769214124407 27 30 29
0.9408619419795481 -0.07364247407034684 -0.38088769214124407 27 30 29
0.9050679494287784 -0.07831240672219346 -0.38148350287271 18 22 17
0.9056867899452292 -0.07861851949287417 -0.38273015323083753 18 22 17
0.8302350058762064 0.12611430531023132 -0.3889342783653095 185 181 182
0.8319083347576682 0.10881374849398551 -0.3870220504349002 182 178 179
0.8470516887533638 0.05986327266558786 -0.3895094008587985 177 180 179
0.9605371459412012 0.09714003493662561 -0.38150525655165757 49 44 49
0.8630112434281683 0.03727803728934018 -0.3840168001302007 18 24 22
0.8537096607635031 0.025315136845630054 -0.3840525017493922 23 29 27
