ply
format ascii 1.0
element vertex 676
property float x
property float y
property float z
property uchar red
property uchar green
property uchar blue
end_header
0.9220389536672726 0.027061242303995644 -0.3906387009199796 35 41 42
1.0060178694035387 0.0818293276226683 -0.3916001302500625 68 68 72
0.8796612435010794 0.063160159178596 -0.3933223705300651 30 33 36
0.9471209708655838 0.0527436155824879 -0.3936702369136345 39 44 49
0.9471209708655838 0.0527436155824879 -0.3936702369136345 39 44 49
1.0066853460085474 0.051507407235881916 -0.38930457598236284 67 72 76
0.9636628850694808 0.04642348927183958 -0.3914508482445067 189 194 194
0.9464986757800802 -0.004477689814042349 -0.38929940919236883 188 196 193
0.9529581334453009 -0.009692810141665521 -0.3898304975115725 189 195 195
0.9157319850179123 -0.03608157151363697 -0.3890383275629366 186 190 191
0.8969196453749841 -0.07979277949636178 -0.38588068210892806 185 188 187
0.9168907458908226 -0.03622288603133864 -0.3921126185506342 187 195 196
0.8855071942568957 -0.03642443897915153 -0.3922316542135808 32 35 36
0.8855071942568957 -0.03642443897915153 -0.3922316542135808 32 35 36
0.891419950594994 -0.036519312195349124 -0.39252290020035513 189 195 197
0.891419950594994 -0.036519312195349124 -0.39252290020035513 189 195 197
0.8804691673063516 -0.04749007719059792 -0.3917046115651488 31 34 35
0.8804691673063516 -0.04749007719059792 -0.3917046115651488 31 34 35
0.878901859037861 -0.05322617785185053 -0.39214351701719713 185 191 193
0.8672234502449001 -0.057406844516722656 -0.392323532198664 44 35 46
0.8669083840579431 -0.06154237170509857 -0.39195918153772114 186 189 192
0.8669083840579431 -0.06154237170509857 -0.39195918153772114 186 189 192
0.8918289646767387 -0.0678902117762994 -0.3913005042411912 30 35 36
0.8858282156519915 -0.06804409872944267 -0.39161855971810366 184 190 191
0.8858282156519915 -0.06804409872944267 -0.39161855971810366 184 190 191
0.8963109601233717 -0.09595045051440096 -0.39303646857199215 38 36 40
0.963531742449191 0.0968417276339319 -0.39104234545282907 56 49 39
0.9520138586134481 0.08995287244030312 -0.3912025508704197 195 195 195
0.9520138586134481 0.08995287244030312 -0.3912025508704197 195 195 195
0.9142431068470993 0.08274161550889707 -0.39109024257659186 38 38 40
0.8845520489886624 0.05199023790283937 -0.39399152050077413 37 34 34
0.8932058485325833 0.029465276240175146 -0.3895781710937238 46 43 47
0.8969342941729108 -0.01880327679047733 -0.3872757847775811 45 34 38
1.088616138756378 0.04329916136981331 -0.3953570176264763 130 129 129
0.9718436329824314 -0.08250442712502427 -0.38946674661299713 45 41 48
0.8338803986171969 0.1255061913612137 -0.3910798359399484 193 193 190
0.8336107033381233 0.12139675033124887 -0.39120421962790874 193 193 189
0.8367129631855692 0.11693399590784939 -0.3912417451072784 191 187 187
0.8378456608039166 0.10715725643459346 -0.3899190963289996 136 128 131
0.8343022819950662 0.09736866059637954 -0.3883924748589595 188 189 185
0.838177708482219 0.09116017866425075 -0.3901524954137921 185 184 184
0.8382655260220329 0.055281244038843054 -0.3897708344737915 98 98 98
0.8378516740613081 0.045202513830474966 -0.3893542544152067 115 111 112
0.8373791580675773 0.0437786431476396 -0.3894620709236246 171 174 177
0.8761394606613847 0.0079754055046755 -0.3865958450274698 22 25 24
0.8761394606613847 0.0079754055046755 -0.3865958450274698 22 25 24
0.8377332662144845 -0.012702267452104711 -0.38836862112139087 144 149 147
0.9662873884653334 -0.016713583261298907 -0.38739875748865565 149 164 161
0.8386675386038691 -0.029695053976313338 -0.38775561892710714 158 161 162
0.9109497180308116 -0.07726464576277692 -0.387404987820357 19 22 21
0.8945195713747844 0.1112786804584209 -0.3938151922711916 31 37 35
0.9116576762864983 0.1129513475594465 -0.3942500836207136 41 44 45
0.9077809414564177 0.10881434756942163 -0.3943864013189633 183 188 186
0.9714602430411569 0.11081015185684542 -0.39532718016620116 188 188 188
0.8893167994928566 0.08980083271178876 -0.39306158738492303 181 188 188
0.8893167994928566 0.08980083271178876 -0.39306158738492303 181 188 188
0.8345558547785948 0.07874420658874288 -0.39150052235379607 181 187 187
0.8686550024882327 0.06839396053310476 -0.391800201556756 173 184 182
0.865547167358853 0.06784705727639993 -0.39215165647697825 35 31 24
0.8769353410720879 0.06874503299561562 -0.39263434840445066 176 182 182
0.8512924317657623 0.060894741766667815 -0.3942850307607744 179 185 183
0.9038299988223855 0.0369880155556701 -0.39152278040808114 29 34 32
0.9038299988223855 0.0369880155556701 -0.39152278040808114 29 34 32
0.8784109970534356 0.014654208025050242 -0.39284851693648193 21 27 25
0.8657350134056107 0.013622929282279768 -0.3921629679138853 164 170 168
0.9401566772542724 0.015377912262083944 -0.39171567941037866 166 173 171
0.9401566772542724 0.015377912262083944 -0.39171567941037866 166 173 171
0.8646306346363117 0.005090585206328785 -0.3905737999825919 157 163 161
0.8373181902892061 0.0011395240401213768 -0.3908914406641449 100 99 98
0.8695841094716913 0.0016111791905585326 -0.39147513680878465 160 166 164
0.8695841094716913 0.0016111791905585326 -0.39147513680878465 160 166 164
0.8376055670658351 -0.016073018947207945 -0.39080442418995076 159 162 163
0.8376055670658351 -0.016073018947207945 -0.39080442418995076 159 162 163
0.9042747528289946 -0.017445782718293088 -0.39168157114920843 160 166 164
0.838155436814504 -0.021837084358978215 -0.3913412900200048 128 128 128
0.8392768359019566 -0.026608603011596173 -0.39068256847485466 98 89 92
0.8385099958396235 -0.0288097769851313 -0.3909174248921586 164 164 164
0.9045060784865077 -0.0280402039807454 -0.3915475838029549 28 27 29
0.9045060784865077 -0.0280402039807454 -0.3915475838029549 28 27 29
0.8374781227898519 -0.03152985620887686 -0.39059161232716194 86 86 85
0.8374781227898519 -0.03152985620887686 -0.39059161232716194 86 86 85
0.8382096720242994 -0.03252049058482101 -0.39065449471772956 156 162 160
0.8382583006355888 -0.03367441399831739 -0.39089737055130985 86 84 87
0.8382583006355888 -0.03367441399831739 -0.39089737055130985 86 84 87
0.878051191919897 -0.05222771614131542 -0.39115628710898304 160 161 157
0.8661336043467859 -0.052396469450569236 -0.39108019933414034 161 161 161
0.8665544761479045 -0.05633719382195084 -0.39135325264264514 27 25 27
0.878273542792164 -0.06071074390968029 -0.3906753416061389 17 20 19
0.9666745274607629 0.1057073124555585 -0.39093965198052466 40 39 43
0.9275555260318118 0.06884358945193246 -0.39070884117438254 182 186 185
0.947231410433592 0.02148086647453988 -0.39050831030601807 142 157 154
0.9920997367402915 0.003924606819930326 -0.39076497839816615 66 68 74
0.9920997367402915 0.003924606819930326 -0.39076497839816615 66 68 74
0.8398712140045848 -0.012132348990846737 -0.3895980046110771 168 168 170
0.9831673703315085 -0.00815938079585888 -0.38992608568669057 41 45 50
0.953914434046418 -0.009740292917999183 -0.39109935547790997 144 159 158
0.964492148463436 -0.021787137332680225 -0.38938007750056997 149 161 157
0.9683377513205642 -0.028628660470364477 -0.39023536849793816 155 163 162
0.9852726126484821 -0.040673204218072356 -0.3904573278928084 164 172 171
0.9852726126484821 -0.040673204218072356 -0.3904573278928084 164 172 171
1.0009960656822854 -0.0569352782246646 -0.38993114102529947 185 188 187
0.9916886947735262 -0.05958123039201434 -0.389718303717795 168 176 173
0.9480754019865506 -0.0670659859123597 -0.38995043737140184 154 162 161
0.9344728797273533 -0.08817362638730945 -0.3874349592629359 12 19 13
0.8890898722565397 0.08848276683992912 -0.389896527212263 182 188 190
0.9283413693716158 0.07196690321680044 -0.3901006417258495 46 38 29
0.9716762408130464 0.0479679779417204 -0.3910816933420269 37 48 46
0.8376471176858491 0.004491076641793563 -0.38699637257782943 116 112 115
0.9269173655765435 0.00020151754891003823 -0.39055654188359584 26 29 28
0.9626305402828742 -0.018891865056991017 -0.3902443442713291 182 188 188
0.9701227957127306 -0.028184070742335834 -0.38949780189363514 184 190 188
0.9428217670942683 -0.05780557781649205 -0.3894535722664389 23 23 23
0.8970377879249584 0.10763065546940206 -0.39050254820017916 41 33 22
0.8358837261902206 0.07208575382603473 -0.389713374235584 130 127 128
0.8761332534283944 0.07093191103666213 -0.38939192697500463 26 26 24
0.9297158660114022 0.06802298339313002 -0.38793300677974124 179 187 184
0.8373707628856782 0.058738334337765874 -0.3895923576587238 184 184 186
0.8786647192658485 0.06196978920731444 -0.39014032653459535 23 26 25
0.8370452153139862 0.05072206491277608 -0.38963498548604686 175 180 182
0.8370867908921445 0.04962954877959136 -0.3898697463738588 107 107 109
0.8592020175988626 0.05029221705277277 -0.39187040393982286 26 32 30
0.9155352743892082 0.05207592563322287 -0.3908016188389033 177 185 183
0.8373670798301562 0.04391257700395135 -0.3899528340114372 180 180 182
0.8357611634271073 0.0318760322800817 -0.39059355296680925 177 180 181
0.8385881673104096 0.02883254567283733 -0.38846807235848524 100 96 99
0.8386715809263885 0.0288971046608597 -0.3897603266680074 107 103 106
0.8375157340681129 0.025616604340703397 -0.38954369423476215 189 188 192
0.8391562030821844 0.015221891177044686 -0.389474522287887 118 113 115
0.9434147093954126 0.01763683728346924 -0.39031766921950645 32 35 36
0.8386819169663513 0.008953695612885584 -0.3894463144874989 115 111 112
0.8368720351014702 0.008838557467888402 -0.3895551425455119 125 125 127
0.9380386684729827 0.011693586666032572 -0.39146889102697013 168 173 171
0.9380386684729827 0.011693586666032572 -0.39146889102697013 168 173 171
0.9380386684729827 0.011693586666032572 -0.39146889102697013 168 173 171
0.9314976714717836 0.00925194306507408 -0.3894637719147672 132 155 149
0.838545290150149 -0.0010153748670339293 -0.3895540605029784 111 110 110
0.838181553652809 -0.00542776794783656 -0.3903591669687583 169 169 171
0.8393417488120093 -0.0074258711174708236 -0.38996093788486225 102 100 106
0.8379196385951286 -0.008001626706854467 -0.3897101143882737 108 107 107
0.8386666355737155 -0.00953932368689354 -0.3898558799302142 100 99 101
0.8378726306406815 -0.011690615482447517 -0.38976081701739107 168 168 171
0.8378726306406815 -0.011690615482447517 -0.38976081701739107 168 168 171
0.838433978879656 -0.0155028323677751 -0.39003323066322837 162 166 167
0.9667240142386535 -0.021873664141225563 -0.39284279113342974 179 185 184
0.8393009684030306 -0.024825636419734717 -0.3905327898092486 160 160 160
0.9037773355441268 -0.05476369189601315 -0.3903492512771236 15 19 14
0.8340745394312422 0.12197462796450191 -0.36368412134801764 189 188 188
0.8340745394312422 0.12197462796450191 -0.36368412134801764 189 188 188
0.8343909566202217 0.11964009823584719 -0.39101992157545734 189 188 188
0.8688918122169498 0.10315908127034291 -0.39196735892582113 21 26 24
0.9696418567219061 0.10853058098101169 -0.3899949503351499 183 186 185
0.8347555420412693 0.08880517328715416 -0.38992426085509574 186 189 189
0.920791554208515 0.08933986618302062 -0.3895278015165679 26 32 30
0.915040944196574 0.08328713675960366 -0.39165945466526075 28 31 32
0.915040944196574 0.08328713675960366 -0.39165945466526075 28 31 32
0.8720923674664607 0.07478186192429782 -0.38946378863022174 34 35 34
0.8721756787283083 0.07487101257070916 -0.3897103797731969 34 35 34
0.8374560955357091 0.06767075367536476 -0.39016255291014434 123 122 122
0.8368649000804288 0.061073367178412864 -0.3896459098895055 183 182 183
0.8368649000804288 0.061073367178412864 -0.3896459098895055 183 182 183
0.9150399305098625 0.05700471157704614 -0.38911142148649763 26 33 27
0.8371251438321662 0.046633431901464885 -0.3887004252430439 125 122 121
0.8972798225670108 0.043828426054989704 -0.38969192586238594 24 20 11
0.9713648882562385 0.04784361501965633 -0.39032369404480277 30 41 41
0.9215250300447047 0.020851433494771986 -0.3902835351990146 169 180 176
0.8814972403981958 0.017036110108124974 -0.39055598176239387 24 25 21
0.8371570159757815 -0.003094769077815467 -0.3894990465518836 80 86 88
0.8371570159757815 -0.003094769077815467 -0.3894990465518836 80 86 88
0.8907359364299425 -0.00535593004266955 -0.3904365716056465 22 25 24
0.947646754730347 -0.009821371141201457 -0.39069537521431286 27 33 33
0.8395016219686777 -0.013922100487594466 -0.38767826656897264 127 126 126
0.9571069230425044 -0.013450815554772035 -0.3902055649408358 37 42 46
0.8379125337059623 -0.017008463458433418 -0.38883793847378545 162 162 164
0.9704519473315768 -0.028145136510685783 -0.3902687398153933 177 183 181
0.8396419704027588 -0.02749356205757029 -0.38883716978974364 99 98 98
0.8362651627400339 -0.029401863365243287 -0.39096724295060825 177 180 181
0.8386433647064967 -0.03460088100649356 -0.38973787395048326 79 76 77
0.8386433647064967 -0.03460088100649356 -0.38973787395048326 79 76 77
0.9419085102574853 -0.05320831353821873 -0.39002503551584683 152 160 157
0.9418824716995052 -0.05318775051437306 -0.3899197740330161 152 160 157
0.9222611874113853 -0.0672540216983892 -0.38903054406551174 155 162 160
0.9222611874113853 -0.0672540216983892 -0.38903054406551174 155 162 160
0.8913475838511666 -0.07324568841392678 -0.38980874689385864 155 156 152
0.9019399479752095 -0.0768476322480021 -0.390186372986885 20 23 23
0.9659189246533024 -0.0857286384920802 -0.39093725580108696 180 184 179
0.9691485104461808 -0.09056980755821947 -0.39049089275307636 38 37 47
0.9856699088954768 -0.09751999554257033 -0.3891905544408166 30 33 36
0.8361296137449772 0.12850345998734064 -0.3921044636905522 156 154 153
0.8928209980302357 0.0923287454165859 -0.3905315111206454 25 27 24
0.8890821491394011 0.08305535608846397 -0.3902550937132358 21 27 29
0.9739014034744276 0.09363210685230672 -0.39035445122315576 36 39 38
0.9521803871514587 0.08971652620246157 -0.39052925959513807 163 169 167
0.9315412385420505 0.07683879181796194 -0.3904582399213648 152 163 159
1.0020888701208004 0.07371767934279837 -0.39005705063435436 62 65 66
0.8380697309469424 0.05657033062988844 -0.39021813421134827 172 176 179
0.9908494367216711 0.06990282464724913 -0.39038566683623244 165 168 167
0.8388549626505466 0.031076304755852744 -0.3896698404634397 127 127 127
0.9405983353743359 0.014479882139397117 -0.3905350851339496 138 156 152
0.9405983353743359 0.014479882139397117 -0.3905350851339496 138 156 152
0.9266108171265741 6.0344342586560225e-05 -0.39004752769187256 15 22 19
0.8386844832177993 -0.0039034790161717645 -0.38970954229452087 129 128 128
0.8846264992958377 -0.011725639287344311 -0.3922412735901317 12 18 16
0.9013228290926253 -0.017638887117829943 -0.38983665448312116 134 149 146
0.8949274802818799 -0.03292895898656686 -0.39116562546307865 16 22 23
0.989387722564123 -0.055544441259526796 -0.3904793194323823 35 40 39
0.9919597902645343 -0.059625757073317714 -0.3901015539976017 168 176 173
0.882290178854126 -0.06467900760861932 -0.389720418925656 21 23 22
0.882290178854126 -0.06467900760861932 -0.389720418925656 21 23 22
0.9791115251770348 -0.07187926325731782 -0.3898978817943139 171 177 175
0.9616717085420736 -0.09308178234980553 -0.3895345919644888 26 32 34
0.9754467679072347 0.03085387655000464 -0.3915484642130916 59 69 71
0.9914905018612874 -0.051177111684576546 -0.38953368377925174 165 173 170
0.8337451632642567 0.12576437883441408 -0.3910124358570258 194 194 194
0.8361280686408674 0.12148584140939682 -0.39067971307515814 191 191 193
0.8361280686408674 0.12148584140939682 -0.39067971307515814 191 191 193
0.83598742341965 0.11874717640292996 -0.3910284710266826 192 192 193
0.8368474134961006 0.11314651871920069 -0.390524411297564 137 133 134
0.8382395134880289 0.11063622017906198 -0.39066128764951363 193 192 192
0.8360343360622959 0.10906661211376152 -0.3901485100451456 188 188 188
0.8377812536663829 0.10743179023703998 -0.39038996573654844 131 125 127
0.922338442891173 0.11394976907620193 -0.39087386522289996 34 37 38
0.8366340952793059 0.1016285880794432 -0.3906403277962448 184 188 189
0.8364919901780461 0.09755961667123808 -0.3905433492832683 128 125 120
0.9700841127919088 0.10908146012495198 -0.3913115466418762 183 189 187
0.8363017074153898 0.09452948122955636 -0.39043300962691946 182 185 188
0.8363945956102116 0.09215888233034296 -0.38936321197390644 115 114 113
0.8363945956102116 0.09215888233034296 -0.38936321197390644 115 114 113
0.8363945956102116 0.09215888233034296 -0.38936321197390644 115 114 113
0.8380152234645557 0.09090985033017167 -0.3892223232672483 189 189 191
0.8578264736503576 0.08800153699568658 -0.3865557021243874 25 29 28
0.8580806268692852 0.08845729632207502 -0.38823519371331516 28 28 28
0.835714919884671 0.08549501831960875 -0.3903675928962969 147 147 148
0.8361444847684781 0.08455658329343765 -0.3894808350353405 189 190 190
0.8376187714807223 0.08474478153472381 -0.3900946366278087 181 177 178
0.8366579821525245 0.08192619737819813 -0.38990357716980245 185 187 188
0.8349493921222023 0.08145169963540419 -0.3911137293213245 185 188 189
0.9463662033756232 0.08413245466158464 -0.3901926092841428 184 190 190
0.9463662033756232 0.08413245466158464 -0.3901926092841428 184 190 190
0.9529385179049057 0.08441751088465944 -0.3914773853905184 36 42 42
0.8376237267336298 0.07168478387004527 -0.3893721600583919 186 188 191
0.8691592259529102 0.07155119049816296 -0.39004727480661655 33 27 29
0.8691592259529102 0.07155119049816296 -0.39004727480661655 33 27 29
0.8381724487916403 0.06716276363999849 -0.3886785466842375 186 185 187
0.8368009579341957 0.0643309043941221 -0.3896299406111489 185 185 187
0.9906601946937001 0.066409655704216 -0.3890067505723294 70 76 78
0.8378403256600432 0.05645318009835974 -0.3897817946879833 184 186 186
0.8836646867128645 0.05683561995272825 -0.38866854457921485 176 182 182
0.8894959374509294 0.056937557339681776 -0.3889076782287032 22 28 26
0.9462324498766042 0.057896870468376105 -0.3895583942076577 179 187 184
0.8367859324585407 0.052795596477641295 -0.3896373269952245 124 123 123
0.8370849572407597 0.049661957927974114 -0.3901319169356058 107 107 109
0.9476009119155837 0.05273200543474814 -0.3921971471983812 32 38 36
0.9476009119155837 0.05273200543474814 -0.3921971471983812 32 38 36
0.9774914878659309 0.053176330865298806 -0.3897752567003076 185 191 189
0.8370410761602696 0.048530060021627915 -0.38963268009764757 181 181 183
0.966985511151139 0.04512134577793012 -0.3897042806534873 40 40 40
0.8368350562852113 0.042030445147325485 -0.39012601922252654 175 177 181
0.8686618818470779 0.03831339191083895 -0.39177954361118333 18 24 22
0.8376030448905181 0.03621860003907716 -0.3901035399047315 146 145 147
0.9717327504496082 0.034116517472633646 -0.3904824837039011 181 189 186
0.9717327504496082 0.034116517472633646 -0.3904824837039011 181 189 186
0.9080427390833791 0.03313710382362878 -0.39021898014686407 167 175 172
0.8386634923606633 0.032241413604213974 -0.38803148747963756 127 134 129
0.8383047560933035 0.03167695215757976 -0.38950246765847996 175 177 179
0.9582666864706183 0.03182369226177326 -0.3913860635532427 32 40 39
0.8370949204817807 0.029785247410307296 -0.3877177803146044 114 117 117
1.0088410176942135 0.028335378441411655 -0.3901351783318887 65 73 74
0.9846742543915143 0.027433050071006337 -0.39013831203982857 46 54 53
0.9530322527331504 0.026734145098383417 -0.39007722263356603 177 185 182
0.8379084167952465 0.02536673214235305 -0.3890054893060369 128 127 128
0.8367956772873201 0.024933651271229058 -0.3894723153830532 115 116 117
0.8367956772873201 0.024933651271229058 -0.3894723153830532 115 116 117
0.947691420507866 0.021387954441600014 -0.39129496434492955 170 178 175
0.9163905294723373 0.02111449976329474 -0.3911804499560593 25 25 25
0.8379579655127352 0.02116508176554624 -0.389592608475517 107 107 109
0.8379579655127352 0.02116508176554624 -0.389592608475517 107 107 109
0.9883413495415755 0.018486600020411675 -0.39021766651991796 55 63 64
1.0052380937998218 0.016474717430324977 -0.39067362333974903 63 71 72
0.8815998730287458 0.01703322869361882 -0.3909270081567434 26 24 21
0.8379031149635218 0.013277296324771233 -0.3906490491636788 138 137 143
0.8378946087637977 0.013270498506236364 -0.3907125012023258 138 137 143
0.9288256295308702 0.010174833338121213 -0.39033598062807234 36 35 37
0.8770309517269882 0.008466300477042539 -0.3897837349618861 36 37 39
0.8770309517269882 0.008466300477042539 -0.3897837349618861 36 37 39
0.8384702049649442 0.006260765644199516 -0.390301432064133 128 127 131
0.9439785296959518 -0.0009826457796550522 -0.3906283274653732 35 38 37
0.8739031178539278 0.001605505285896096 -0.38970818387999506 25 25 25
0.9536646068341004 -0.004075929472965978 -0.39016991153306446 32 38 36
1.006656139522403 -0.010382697348203173 -0.38762588377621143 42 50 51
0.9783727002069993 -0.00939247129938117 -0.389909080121964 185 191 189
0.9650744167435822 -0.021769292312668408 -0.3902550239068701 174 180 180
0.9650744167435822 -0.021769292312668408 -0.3902550239068701 174 180 180
0.9597930843702701 -0.02851291913766989 -0.38894624871761735 184 187 186
0.9094720170299229 -0.030412499043589537 -0.38955383957196205 21 27 25
0.9853826383790634 -0.040606025318432035 -0.39010503734831664 189 192 187
0.9212941639652714 -0.03581952087165978 -0.38748555552354386 23 27 22
0.9212941639652714 -0.03581952087165978 -0.38748555552354386 23 27 22
0.9883885836675673 -0.044083325869417024 -0.38941437723500627 34 40 42
0.8846895474669453 -0.03635714077463804 -0.388491744121888 20 22 21
0.8846895474669453 -0.03635714077463804 -0.388491744121888 20 22 21
0.9437226832252023 -0.0448979262176062 -0.38950421259936185 26 26 26
0.8599013435771031 -0.036994758430099306 -0.39077397844322537 20 23 22
0.9354413494116105 -0.05347994097692816 -0.3904939110026711 154 160 158
0.9970152701644898 -0.06273787388346028 -0.39042837500542366 32 32 34
0.930324821692876 -0.05965880554394376 -0.3906588643352927 35 23 30
0.930178493609193 -0.059556899084446314 -0.3903063783615699 32 27 25
0.9859855367410099 -0.0669113477744382 -0.39057263600730935 179 183 183
0.9859855367410099 -0.0669113477744382 -0.39057263600730935 179 183 183
0.9484850152982074 -0.06735024586429321 -0.390635994578809 170 173 173
0.9800821646597228 -0.07234460718849742 -0.3913802183424063 187 190 189
0.891106383002861 -0.06785204244765392 -0.3891380054227378 21 24 23
0.9707426595745231 -0.07962062588223984 -0.3903992096172339 184 185 182
0.9172503266620761 -0.07355295737424185 -0.39186821703436353 169 169 166
0.9134362898048024 -0.07909524996513755 -0.3940181320983899 23 24 20
0.9134362898048024 -0.07909524996513755 -0.3940181320983899 23 24 20
0.9621077302202536 -0.08692804616986899 -0.38998303830879405 188 191 194
0.9093824369097302 -0.08032928626355126 -0.3900589357723042 31 32 28
0.9728390314863182 -0.09097642009289567 -0.38970560109396585 179 185 183
0.8985736443329071 -0.0803900203675844 -0.3901407212266546 157 163 162
0.9754380485350274 -0.09427159087233841 -0.3889527555291377 33 39 41
0.8979617486344407 -0.09145319145072706 -0.38761105024618886 158 162 157
0.958707071747736 0.11073475578435465 -0.39052013529400015 40 46 46
0.9362264970406066 0.07978634368407098 -0.39110094933701955 33 39 37
0.8370096231104304 0.07298423527434159 -0.38977564815787474 187 187 187
0.8344433298729478 0.06943856350273742 -0.390406955753059 186 188 188
0.8370780457254091 0.048527733073835434 -0.38961576802787545 181 181 183
0.8382988055470514 0.04202228408891117 -0.389767799554682 175 172 175
0.837489562512381 0.04147983121642507 -0.3900397129721225 129 128 131
0.8374171219917041 0.041405628328156516 -0.38935944710146614 129 128 131
0.8354081362367118 0.024131181923428655 -0.39088815843614266 175 178 179
0.9255254403107898 0.017434364753074808 -0.39063159909206613 27 32 32
0.8717765872891071 0.014717565251783193 -0.3907677171394141 23 26 25
0.8378451779390219 0.014392692254886895 -0.38949327404584316 169 175 173
0.8399527241901966 0.010792141896531552 -0.3890585730109873 172 175 176
0.8738047314617506 0.009713133995454993 -0.39001360091768544 165 171 171
0.8368230490941124 0.010255174282955465 -0.3897330151918103 126 126 126
0.838660946621474 0.008954751573356776 -0.3894595222420489 106 102 103
0.8779743017367351 0.005176353298324213 -0.390056130348156 163 169 169
0.8379070758967474 -0.001739194190696889 -0.38982040616073127 163 166 165
0.836190937382035 -0.002770356586164794 -0.3899459955860272 116 115 116
0.957551571339442 -0.013493737833608655 -0.3908155182610487 34 39 42
0.9711885957131859 -0.017691431530584157 -0.38959782781181596 49 48 51
0.8364233065737159 -0.011951905886949249 -0.3902507293929729 183 186 188
0.9724300133877661 -0.020926100458370615 -0.39047539525230235 176 184 181
0.9602559566215599 -0.028691708428561037 -0.38979552806935636 184 187 186
0.9748253810134242 -0.03192250983018877 -0.3894360633321117 40 43 46
0.8379992088435247 -0.0248394963046181 -0.38991604770278265 160 160 159
0.9913907277808028 -0.050957990175329655 -0.3892064522993732 185 188 189
0.9913907277808028 -0.050957990175329655 -0.3892064522993732 185 188 189
1.0065256720905533 -0.06266957645436054 -0.3896494843183802 37 41 46
0.8787358479066689 -0.05320140289737924 -0.3904273812624826 160 160 160
0.8787438375143312 -0.053194179654727405 -0.3903902143584774 158 164 164
0.8953499937517498 -0.0769938015021923 -0.3907469138058263 22 22 22
0.8351461781807173 0.141522836886409 -0.39008613719762 127 123 126
0.8357280464547469 0.13755476534181826 -0.3903615224544881 168 162 164
0.8357280464547469 0.13755476534181826 -0.3903615224544881 168 162 164
0.8679678768104616 0.06482403200241596 -0.38988001909067754 179 182 183
0.8370491642718214 0.028651953786790627 -0.38955846187935705 107 107 111
0.8717832012008127 0.014725790144371153 -0.39073257201487127 23 26 25
0.8660212544952298 0.012767748281445987 -0.390400069917495 167 173 173
0.8393445073612684 0.013301826147543369 -0.38974907202558395 167 164 165
0.8697778894309065 0.009009491024094382 -0.38990486326061347 31 32 32
0.8390051650140355 0.009784168898779751 -0.3893661859312015 162 161 163
0.9919424562320112 0.003954361485703877 -0.3902186959739869 66 68 69
0.8380037422444288 -0.024815060812272204 -0.3898548712428165 160 160 159
0.898580301364398 -0.08039463833454397 -0.39013182943426766 160 159 163
0.8953566923799708 0.1029215989188399 -0.3900296265416008 25 32 26
0.8659713967613746 0.07538470150304627 -0.3904143809437931 39 26 21
0.8351353364689897 0.0720794463334394 -0.3904935397465344 185 188 189
1.083231092944102 0.08881202716284732 -0.3957949179061029 119 123 122
0.998639955211047 0.06973091836042669 -0.39049206564592026 70 73 76
0.8351639974913133 0.05100863427748159 -0.3908935280690665 183 186 186
0.8377520979869494 0.04533575964585102 -0.3894295515011715 127 126 128
0.9005253063656649 0.040746939741890253 -0.3902453794627455 29 31 32
0.838533130002386 0.037107605961936234 -0.3893871894836386 177 176 178
0.963161808095095 0.031069637413164566 -0.3894114791823256 36 39 41
0.9780419531458284 0.027063802470793655 -0.38974449479044804 181 187 185
0.9162050432612384 0.021082279024172697 -0.3908042019017413 21 24 23
0.8905273980236166 0.020313227958280933 -0.39090151364926246 23 26 27
1.0797781888357232 0.020056281400794813 -0.39563109397986257 116 116 118
0.9923607264499239 0.004083137160639329 -0.3908793947400689 66 68 69
0.8376658449540527 0.00033585288190780626 -0.38954025307960455 97 97 101
0.837668811398603 -0.004129875196782879 -0.38953440737865885 178 178 180
0.8378186575496089 -0.008097612919845305 -0.389471977338184 107 104 105
0.8960189591886932 -0.01597889365657563 -0.3908212609422195 23 26 25
0.9680944025772614 -0.025385669696080877 -0.3887045853428958 54 55 55
0.9680944025772614 -0.025385669696080877 -0.3887045853428958 54 55 55
0.9605655613706523 -0.028669631974683262 -0.3904469518846205 176 184 183
0.8389986946920142 -0.024888954085873362 -0.3895029404666522 170 176 178
0.8390254225845695 -0.02489872170765688 -0.38968149390814416 161 165 166
0.9576072241264297 -0.03226550240228515 -0.39091212468277436 35 40 38
0.9024611402602472 -0.030420739954724666 -0.39016176989574747 154 162 159
0.836897406485718 -0.029227329169541568 -0.39030740234004074 143 142 143
0.836897406485718 -0.029227329169541568 -0.39030740234004074 143 142 143
0.8373553701810904 -0.03177512036118393 -0.38971065581649267 175 179 182
0.8397644101025045 -0.03532492337398614 -0.38970420162248676 116 116 118
0.8397644101025045 -0.03532492337398614 -0.38970420162248676 116 116 118
0.837973790339603 -0.037817827484997665 -0.3901852941592008 88 87 89
0.9364912028031326 -0.047734607415095484 -0.38983048188990793 153 159 157
0.9364912028031326 -0.047734607415095484 -0.38983048188990793 153 159 157
0.9886520894947934 -0.06301684999657332 -0.3894929330897767 36 39 40
0.9482597996730594 -0.07223916676956015 -0.38994602505149334 26 26 27
0.9619922248559558 -0.07784245034575729 -0.3902189765952864 179 185 183
0.9691367199721237 -0.0911180098140184 -0.3914328240646161 34 37 41
0.9620515020566435 -0.09312204315394569 -0.3898293976048446 25 31 33
0.8359067894486806 0.13404636919265817 -0.39041986257852335 159 155 156
0.8359067894486806 0.13404636919265817 -0.39041986257852335 159 155 156
0.8689710178572594 0.10350393367305376 -0.39276235496202333 21 26 24
0.89846301682283 0.03680560060096929 -0.39118048432697117 173 181 180
0.9043286837700806 0.03641906593459803 -0.3899819187656737 38 38 34
1.006887561638217 0.03701991073256304 -0.38949972248867365 58 69 69
0.8378683262187854 0.028067894909363476 -0.3896776850950922 174 174 178
0.8375206289693663 0.02560262072455308 -0.3895120909446414 176 176 178
0.8376831967235538 0.004256894061421689 -0.3876701016082332 140 140 141
0.8385236093536077 -0.009561355787419408 -0.3893865432417039 106 105 107
0.8377882155839381 -0.010237808905089725 -0.389331947438651 175 178 178
0.8377882155839381 -0.010237808905089725 -0.389331947438651 175 178 178
0.8394690150045245 -0.012873241953133267 -0.3896210264834613 162 165 164
0.9715546480539469 -0.0174484188905308 -0.3900617338395483 43 46 51
0.9715546480539469 -0.0174484188905308 -0.3900617338395483 43 46 51
0.9725313156107429 -0.020901383301564408 -0.39070937998033867 177 185 184
0.8379564244782377 -0.016980772370360973 -0.38954878750522864 162 162 164
0.9041301539774399 -0.021711827821103095 -0.3899647116186995 160 164 163
0.8385241770905919 -0.02254563719404553 -0.3896894977025397 135 132 133
0.8385241770905919 -0.02254563719404553 -0.3896894977025397 135 132 133
0.9642177371516732 -0.028730361467734063 -0.38994845049104004 40 46 45
0.9642177371516732 -0.028730361467734063 -0.38994845049104004 40 46 45
0.9576116392354735 -0.03227138515018912 -0.3909179559616553 37 40 41
0.9729080998244433 -0.09098917414637261 -0.3898343487412276 177 181 182
0.889304704882643 0.051131982072579636 -0.38842796365160553 172 174 173
0.8370210360885322 0.0343607489143153 -0.3863339990170678 171 174 173
0.8362815264587068 0.031712644318356714 -0.3868465173242055 118 118 114
0.8935494796448042 0.02948771235317914 -0.38988462969945464 27 30 29
0.838689671909403 0.009764185721623296 -0.3863234096692642 168 167 167
0.9649999391140581 -0.021535080475021947 -0.39022792483546365 166 172 170
0.9751788616911692 -0.03198547809409684 -0.3903119633435937 50 56 58
0.9750117607863146 -0.07537661626074445 -0.3889108965537518 32 37 37
0.9106594785250379 -0.09341493366631343 -0.38826884074606 19 22 21
0.8348031745683719 0.11260891457034927 -0.39396347335550813 198 201 202
0.9664729883693993 0.1058910423101277 -0.39099744259559177 43 41 40
0.8837573663417889 0.08802335376038686 -0.3895679458327556 27 27 27
0.8837573663417889 0.08802335376038686 -0.3895679458327556 27 27 27
0.8724838320147077 0.07540908252073082 -0.39056338295700976 33 32 33
0.8724838320147077 0.07540908252073082 -0.39056338295700976 33 32 33
0.8837949267725882 0.05684983047957194 -0.3892352613196012 176 179 180
0.8896863873838928 0.05700732336099208 -0.3887183548972731 24 27 26
0.8896863873838928 0.05700732336099208 -0.3887183548972731 24 27 26
0.8377336266923285 0.04085702938761245 -0.38979174777540204 191 191 191
0.8950175414755596 0.04655188937391482 -0.3908499825994546 23 26 25
0.8374879222986915 0.03682429543731185 -0.3897412243136046 117 114 111
0.8373956295773155 0.03292222476955815 -0.3882399703964726 189 189 189
0.8370830552509329 0.03077654698260061 -0.3893475632152905 190 193 196
0.901168796668505 0.03360917121319923 -0.39134476337036844 34 31 34
0.893612814202454 0.029540388237939093 -0.3902479155861342 24 25 21
0.8900329605233039 0.025935330902998367 -0.3902510915596903 166 172 174
0.8909256715596076 0.020622117858362984 -0.39230094887989836 20 23 24
0.9219047443629844 0.02109155044196442 -0.3911786602764183 164 170 170
0.9439556930384781 0.017854011302451765 -0.39124454098182393 31 34 33
0.8386468696948624 0.0053630918446035064 -0.38946200331445896 132 129 126
0.9375436781664107 0.011267158007278526 -0.39252560001495407 164 170 168
0.8358425789862238 0.003199157835988375 -0.39111858237123637 183 186 187
0.8735395818100752 0.0019609264335264734 -0.3903707877433033 35 35 36
0.8735395818100752 0.0019609264335264734 -0.3903707877433033 35 35 36
0.8381717221833396 -0.007436530830802143 -0.3897144869449919 159 158 157
0.8370376469395738 -0.007514767992406653 -0.3897906062579284 183 183 187
0.9158103240676603 -0.005337620378984461 -0.38911945902342704 20 24 19
0.8377624795307766 -0.011799860810987307 -0.3892093180936399 182 182 183
0.8377624795307766 -0.011799860810987307 -0.3892093180936399 182 182 183
1.0032569574063812 -0.007664407075719657 -0.3893517053882456 57 62 67
0.83796463030772 -0.01700741632224845 -0.3896019362279778 173 175 180
0.8396996897132049 -0.0200630003520035 -0.38968645426793996 127 127 129
0.8391614743488998 -0.02675051942053682 -0.38973304188415625 179 180 182
0.8395158902204316 -0.03228481751926006 -0.38974198124226994 97 93 95
1.0081607232443286 -0.034564943954902866 -0.39173722691571844 60 68 69
0.9895140152630926 -0.04417817338073696 -0.3913299861462298 44 50 52
0.9339081605388235 -0.05630971252215438 -0.39124887852156354 36 35 37
0.9304207169330561 -0.0595937040095936 -0.39089801278588515 32 27 25
0.8728487826629819 -0.06319775166557784 -0.38986005451679384 21 21 23
0.9581547718398695 -0.07590666965685385 -0.39087922421340343 29 34 36
0.902276542809694 -0.07690884811594437 -0.3903222884720905 21 24 25
0.9122221570589093 -0.07791325234039378 -0.3903105438963008 20 25 23
0.9122221570589093 -0.07791325234039378 -0.3903105438963008 20 25 23
0.9865043542570248 -0.09649687204283153 -0.38814284496873785 34 42 39
0.835909280961616 0.13093345031531245 -0.3866096854171061 145 140 140
0.8813325573193621 0.11318996419180544 -0.392675300312145 25 28 28
0.8588496755902781 0.08926210072690939 -0.391127759341072 28 31 30
0.9165769723756524 0.08411523571774608 -0.394690725622607 29 32 31
0.9321871601011491 0.06926542408550804 -0.3934942122936668 181 189 186
0.9321871601011491 0.06926542408550804 -0.3934942122936668 181 189 186
0.8852160466963872 0.025982150799652506 -0.39249970339138257 24 29 25
0.9349345044703444 -0.049775904016727865 -0.3929602063884621 39 39 39
0.9349345044703444 -0.049775904016727865 -0.3929602063884621 39 39 39
0.9165024080474493 -0.06753743704565018 -0.39132601769636366 21 25 20
0.8870666941738097 -0.06917273964309144 -0.39494337936466933 166 169 168
0.8616596721707963 -0.07563270480048667 -0.39264580618678147 20 22 21
0.9048518106703277 -0.08530797306893644 -0.39416072088528 19 22 18
0.9002173113651327 -0.09327978535453227 -0.3940759199887416 164 164 164
0.9002173113651327 -0.09327978535453227 -0.3940759199887416 164 164 164
0.912786906429727 -0.09572764238706126 -0.3947664124092718 21 27 25
0.9339593435297487 -0.02358547321152864 -0.38851309165584985 23 29 27
0.9054253775121776 -0.025113331626873483 -0.38940724408632393 172 178 178
0.9054253775121776 -0.025113331626873483 -0.38940724408632393 172 178 178
0.9049983060293733 -0.029039011923515306 -0.3894394367525117 34 32 33
0.9049983060293733 -0.029039011923515306 -0.3894394367525117 34 32 33
0.902332448035804 -0.030604588368397943 -0.3891763164725447 166 173 172
0.902332448035804 -0.030604588368397943 -0.3891763164725447 166 173 172
0.8947702634611906 -0.03320785972763692 -0.38961519972559366 28 31 30
0.860025002531136 -0.03684616037623715 -0.389613182093581 23 26 25
0.8846636045225637 -0.04248438475711521 -0.3875444188516542 173 173 173
0.8846636045225637 -0.04248438475711521 -0.3875444188516542 173 173 173
0.8798396380580625 -0.04780896174823335 -0.38959471203933627 23 24 24
0.8798396380580625 -0.04780896174823335 -0.38959471203933627 23 24 24
0.8648784218175121 -0.0479792846587782 -0.38841014158733117 21 24 23
0.8664380155154571 -0.053403416830206885 -0.38807025617192364 167 170 169
0.9026296120173233 -0.054579434669938656 -0.38600408992903634 17 20 19
0.8779976110559401 -0.056703774081944915 -0.38902069880617035 29 29 33
0.8668684674372775 -0.05733771691429588 -0.3880378006711501 27 26 27
0.8779953127785446 -0.061483421333400644 -0.38531810301869374 18 22 17
0.8739544379995706 -0.06360285080423218 -0.39094310346273453 20 23 22
0.8739544379995706 -0.06360285080423218 -0.39094310346273453 20 23 22
0.8373327646690949 0.07382946748973573 -0.38970724670087625 123 120 117
0.9002998840613154 0.10766370831026172 -0.39065019604488943 176 176 172
0.8516330668850078 0.05980902852128586 -0.39186917840472374 177 180 179
0.9217953894149014 0.08404019455699674 -0.39191630184063936 177 178 174
0.9217953894149014 0.08404019455699674 -0.39191630184063936 177 178 174
0.9621665872938991 0.10216935738137642 -0.39553350960108946 176 176 172
0.9691724838302795 0.04598139429389746 -0.39335794182079786 59 62 63
0.9893334765909988 0.04327491376027723 -0.39379658992942096 60 67 68
0.8377414401741478 -0.026919286396212008 -0.38905353147279575 107 110 111
0.8377414401741478 -0.026919286396212008 -0.38905353147279575 107 110 111
0.8380113991441289 -0.029772736902846233 -0.3894958719648149 156 163 160
0.8376725988691266 -0.03659669616998991 -0.39085639771868064 161 171 173
0.8381475621322431 -0.03722951054866369 -0.38985646618350683 95 99 99
1.0003224380103164 0.02841296090814224 -0.3915900460895505 73 83 83
0.871779149651644 -0.05840661418421839 -0.39474895367606344 144 152 149
0.9551484275007079 0.10856713766124348 -0.384011948087812 55 61 63
0.9378149175194329 0.0764326167771557 -0.3864123008431789 186 189 188
0.8762365232672796 0.0672478015476976 -0.3868392412996247 176 184 185
0.9344904496171875 0.0679004527033212 -0.38673177063569214 45 50 53
0.8641693458337034 0.06299658701081429 -0.3859957271445408 177 183 183
0.8998428921682599 0.033294432838762156 -0.3872984204464207 38 38 40
0.8730653986919978 0.0098756846836813 -0.3870993873399124 164 175 173
0.8730653986919978 0.0098756846836813 -0.3870993873399124 164 175 173
0.9023331945237929 0.00798726015358252 -0.3875768322331477 18 24 22
0.8657466405520301 0.006199406943173076 -0.38734135607186276 168 176 175
0.8375718836646997 0.006075971705874266 -0.3873697302331054 176 182 183
0.8644754417634181 0.004535458099239259 -0.38677582325972826 165 174 171
0.8644754417634181 0.004535458099239259 -0.38677582325972826 165 174 171
0.8692725080013035 0.0011758377507004676 -0.3869532354134237 165 172 169
0.8692725080013035 0.0011758377507004676 -0.3869532354134237 165 172 169
0.8634100405136989 -1.8975721656511286e-05 -0.3874992629748124 21 27 26
0.8376415435388512 -0.006324676617636595 -0.3872517665684951 135 133 138
0.8391314148104803 -0.006940908310373868 -0.38756650982886776 137 131 137
0.894859713199012 -0.015271991504698757 -0.3879406679829581 22 28 28
0.9003435525709516 -0.016938572205461796 -0.38662228695496653 161 169 168
0.9030561672800618 -0.021128996956070206 -0.38736409543879896 160 170 168
0.9007069950441753 -0.021103759519362452 -0.3877048988962804 38 39 41
0.9007069950441753 -0.021103759519362452 -0.3877048988962804 38 39 41
0.9007069950441753 -0.021103759519362452 -0.3877048988962804 38 39 41
0.8964570083555465 -0.020993217709860477 -0.38752387224178775 162 170 169
0.8372702805434014 -0.019408607584165058 -0.3876452217014625 151 149 153
0.9042700745599811 -0.02807224105256257 -0.3884644713504397 26 21 24
0.9042700745599811 -0.02807224105256257 -0.3884644713504397 26 21 24
0.8938997340405327 -0.03215275822695193 -0.3879412725277441 30 30 30
0.8379547779226499 -0.03166126538616367 -0.38804369204507927 111 110 114
0.8902028104076605 -0.0358266007242636 -0.38765570346996425 186 187 186
0.8902028104076605 -0.0358266007242636 -0.38765570346996425 186 187 186
0.8386485230957363 -0.03375479278442575 -0.38800649264714704 103 101 105
0.8386485230957363 -0.03375479278442575 -0.38800649264714704 103 101 105
0.8846386621096956 -0.041448115545955316 -0.3884001200928058 186 186 186
0.8721977143693852 -0.05399571148212281 -0.3881114078160977 186 186 186
0.9525816042743876 -0.0657354478599958 -0.3875175326950023 27 35 34
0.835047592232814 0.13806940177635843 -0.3783836386949949 174 164 165
0.833018198369094 0.1190523310703719 -0.37859495428910517 195 195 195
0.8354447447610134 0.1186900557115466 -0.37717921471244387 194 194 196
0.8354447447610134 0.1186900557115466 -0.37717921471244387 194 194 196
0.8354520432709018 0.10802400442275441 -0.37713520687968477 135 131 134
0.8907842342588362 0.10715810417928964 -0.3759805893119733 33 39 41
0.9377745489023732 0.11092753644258802 -0.3799970005321229 33 39 39
0.8938244447411644 0.1056182733907493 -0.3775218133622915 46 38 28
0.8964830067198242 0.10514949569452366 -0.3759521547450958 185 188 188
0.8360527690726974 0.09995063911533646 -0.37816712606286984 184 189 192
0.8360931780888107 0.09915846888456158 -0.3776605080324004 191 193 196
0.8336788464254101 0.09735075150119037 -0.37862578809264286 192 192 193
0.9530117590235653 0.10098988201762855 -0.37419212043273414 192 192 194
0.9530117590235653 0.10098988201762855 -0.37419212043273414 192 192 194
0.9560051536730153 0.09940768957997777 -0.3761461046366774 47 46 46
0.9560051536730153 0.09940768957997777 -0.3761461046366774 47 46 46
0.9523898001426069 0.09818987426284144 -0.37534983028983376 186 189 190
0.903447091441349 0.09505904007942813 -0.37696944485376105 182 189 186
0.8374540055181268 0.09034822536328314 -0.3793932281707748 187 187 189
0.8359933867805541 0.08860300799570853 -0.37828388232825944 130 129 129
0.8899659838359126 0.09098110595108504 -0.3778408553513703 38 38 38
0.9071979291777712 0.09108303920777694 -0.3762811086982057 40 41 37
0.9503012629382905 0.09215830324297523 -0.3727753293546009 34 40 42
0.9503012629382905 0.09215830324297523 -0.3727753293546009 34 40 42
0.836162358380216 0.08592812849100732 -0.3791491362117801 188 188 188
0.836162358380216 0.08592812849100732 -0.3791491362117801 188 188 188
0.886175867504307 0.08716779574581902 -0.37638537454168314 182 188 187
0.9111000934869328 0.08789662737057188 -0.3774307205436957 180 188 185
0.9460689104333112 0.08781323778348223 -0.375076813526061 183 189 187
0.8869046998737797 0.08198156040516075 -0.378438699544734 31 34 35
0.9163646793450461 0.08221556375790967 -0.3763053303473107 182 187 185
0.9410547566194738 0.0829158101125703 -0.3767576161615867 184 187 188
0.9410547566194738 0.0829158101125703 -0.3767576161615867 184 187 188
0.9300930955100948 0.07813612933479393 -0.3747174136249703 32 32 33
0.8668348706678506 0.07501567274207646 -0.3776932271987665 181 185 187
0.8701054573112734 0.07426591729302173 -0.3772770092929315 33 34 36
0.8701054573112734 0.07426591729302173 -0.3772770092929315 33 34 36
0.9261082782502272 0.0756781879746484 -0.3747834241088663 178 189 189
0.8365132026226643 0.07279233818532488 -0.3788468588953991 187 187 193
0.9341071696153367 0.07601952320626791 -0.37542214372682997 180 189 188
0.9341071696153367 0.07601952320626791 -0.37542214372682997 180 189 188
0.8364779777178611 0.07224269236993697 -0.37830808849935865 191 194 197
0.9301354241274218 0.0751881105372157 -0.3749828439202908 41 34 31
0.9301354241274218 0.0751881105372157 -0.3749828439202908 41 34 31
0.8672794948735024 0.07122220332717316 -0.37820415173695426 41 32 31
0.8672794948735024 0.07122220332717316 -0.37820415173695426 41 32 31
0.8362461649937077 0.06963621699476692 -0.37721914180966976 186 189 192
0.9336478102427428 0.07288865170758568 -0.3758565790771182 182 190 189
0.873922065996407 0.07053775633042174 -0.37698548300785034 36 36 36
0.873922065996407 0.07053775633042174 -0.37698548300785034 36 36 36
0.9232607320432087 0.07138134074995689 -0.3756105475832046 42 33 25
0.9232607320432087 0.07138134074995689 -0.3756105475832046 42 33 25
0.8470270184292226 0.06884290012930655 -0.3816990594384887 187 190 191
0.8369960520273781 0.06765619801055212 -0.3797104940697233 135 132 135
0.9583608817195376 0.07035963292774634 -0.3765207452168934 26 32 30
0.8708853273958354 0.06758137045439798 -0.37832807161589194 43 40 43
0.8748398134798355 0.06751311712720173 -0.37799704188033795 177 185 186
0.8748398134798355 0.06751311712720173 -0.37799704188033795 177 185 186
0.864159692642336 0.06693183157073505 -0.37896571453699696 47 32 23
0.9256693974071762 0.06778550230032188 -0.3760250226636442 181 189 188
0.9256693974071762 0.06778550230032188 -0.3760250226636442 181 189 188
0.8631692400650395 0.06337341990747772 -0.3769680594165247 179 183 184
0.9339006640158187 0.0646331597684185 -0.3753944708205177 27 30 29
0.921258741090169 0.06243240811629922 -0.3761493044170375 26 29 28
0.8605006777955736 0.060579858918241455 -0.37937219236733566 39 39 42
0.8374822436746094 0.057803445016701406 -0.3784894306138625 111 112 114
0.8373858467585701 0.056573550567098924 -0.3774078164452242 189 189 191
0.8373858467585701 0.056573550567098924 -0.3774078164452242 189 189 191
0.9161784751598245 0.057292379637174644 -0.37463599438298806 177 185 184
0.9161784751598245 0.057292379637174644 -0.37463599438298806 177 185 184
0.8375961459957639 0.05567669393252371 -0.37860190993827425 109 108 110
0.8375961459957639 0.05567669393252371 -0.37860190993827425 109 108 110
0.9112741002644816 0.052156699663694704 -0.3768334685753791 177 185 186
0.9112741002644816 0.052156699663694704 -0.3768334685753791 177 185 186
0.8578628005399788 0.05096445866985774 -0.3811278984624546 30 36 36
0.836622068760451 0.050202639480671975 -0.3787577839237216 117 116 119
0.836622068760451 0.050202639480671975 -0.3787577839237216 117 116 119
0.9499427716357199 0.04906090957563505 -0.3750320083377001 33 36 37
0.9499427716357199 0.04906090957563505 -0.3750320083377001 33 36 37
0.9670250010904988 0.04873241869713267 -0.3807028573170171 32 35 36
0.9670250010904988 0.04873241869713267 -0.3807028573170171 32 35 36
0.8918425336676888 0.047122669945602456 -0.37788315373199977 23 29 29
0.8918425336676888 0.047122669945602456 -0.37788315373199977 23 29 29
0.9569009231744058 0.046297868426206146 -0.37537727821790107 174 185 183
0.9593826976811243 0.04527425646078369 -0.37336835962331605 34 33 37
0.9534400334010762 0.04525622373102662 -0.37380489744949785 180 188 185
0.9534400334010762 0.04525622373102662 -0.37380489744949785 180 188 185
0.8944042962028713 0.044579501888887214 -0.37794717015194024 34 25 25
0.9044178908613698 0.043403813604428264 -0.3773787623105387 20 26 24
0.9566153924406158 0.04233272632944507 -0.3750874366046551 41 35 39
0.8971714684975959 0.04141380577843628 -0.3769853012585982 32 34 37
0.8979900267001207 0.0379882249334865 -0.3775880523011266 171 184 183
0.9606662981307604 0.03485222426044743 -0.3752569979762865 32 35 36
0.9606662981307604 0.03485222426044743 -0.3752569979762865 32 35 36
0.9570070725359874 0.03472723014196044 -0.37522669808918874 175 183 180
0.9052660805285031 0.03447462731632828 -0.38051305958566556 172 180 179
0.8379833850324331 0.03128790604495839 -0.3774880033054733 184 185 191
0.8381170390480642 0.030257781443651117 -0.37895674112471406 115 115 120
0.8381170390480642 0.030257781443651117 -0.37895674112471406 115 115 120
0.8366012078944279 0.02996780278947753 -0.3780244151496969 109 109 111
0.9760557492673199 0.028853335095894887 -0.37323197855035417 32 40 37
0.9117735817224828 0.027572142747465514 -0.37713896745471964 173 181 180
0.9117735817224828 0.027572142747465514 -0.37713896745471964 173 181 180
0.9756130214718376 0.023264710100384493 -0.37312463916727334 176 184 183
