ply
format ascii 1.0
element vertex 679
property float x
property float y
property float z
property uchar red
property uchar green
property uchar blue
end_header
0.8343423077261578 -0.032440253161350546 -0.38229411546649533 117 112 120
0.832731222250439 -0.03264279843008782 -0.38226807075568403 111 110 114
0.8334656179053764 -0.03580585405381426 -0.38163490481858403 184 184 186
0.8733054177422737 -0.06217305594309383 -0.3809717025656039 26 28 27
0.8975376652721274 0.09910385111960306 -0.38203982597796365 30 33 34
0.9770692478650728 0.08108003774216888 -0.3778546347487409 187 186 186
0.9801506609945267 0.0780679197132606 -0.3781379582060652 73 72 74
0.9846049041096585 0.07417962757551362 -0.3777774594719862 66 72 72
0.9953504229848081 0.07431867684905166 -0.37739794977256497 181 185 181
0.995423120714189 0.07041610976431256 -0.3777212606288874 81 84 85
0.995423120714189 0.07041610976431256 -0.3777212606288874 81 84 85
0.995423120714189 0.07041610976431256 -0.3777212606288874 81 84 85
0.9579232528038589 0.06775046049827257 -0.3787403752820105 46 52 52
0.9971672220605475 0.06728445580603296 -0.3794364482285526 189 200 198
0.9303731802403453 0.009501765547577553 -0.37832191880136706 181 184 183
0.9303731802403453 0.009501765547577553 -0.37832191880136706 181 184 183
0.9303731802403453 0.009501765547577553 -0.37832191880136706 181 184 183
0.9289438752140051 -0.0544640341638469 -0.37862030507271205 184 187 186
0.9410063174070015 0.11222390008141035 -0.3838516037531125 42 48 50
0.9695058915950275 0.10974986896490437 -0.38206205728144954 49 45 46
0.9581856735245835 0.10533455160791995 -0.38102890684043894 43 31 23
0.959090018848159 0.09425810880142019 -0.38170160805998476 43 33 25
0.9474844348530689 0.08709022790363947 -0.3814167558986072 193 199 199
0.9311313869697863 0.07740026784340981 -0.3824122847887123 36 36 40
0.993785853750553 0.07385821903885416 -0.3798227359462543 51 44 41
0.9896481737880758 0.07016981624400015 -0.38018690404416255 49 43 37
0.9931924680425598 0.06669606727336308 -0.3798711156708378 59 50 50
0.9931924680425598 0.06669606727336308 -0.3798711156708378 59 50 50
0.9834251410965847 0.060730164668817616 -0.3798205312833755 38 41 42
0.9509809739961022 0.04648386054981134 -0.38055825298329254 35 41 43
0.9553929708457826 0.0427222408939973 -0.3810423390958521 195 198 199
0.9553929708457826 0.0427222408939973 -0.3810423390958521 195 198 199
0.9614197714302672 0.04255609935083096 -0.3798512036837023 33 33 35
0.9989717730197494 0.013952471729496143 -0.3794192842690151 43 53 56
0.9593458923631722 -0.055845251942467845 -0.3786724299194518 24 30 28
0.888508593326732 0.09038657782053948 -0.38236646688228687 37 40 43
0.8846852630175268 0.08674695160875288 -0.3818618670844413 188 196 197
0.8846852630175268 0.08674695160875288 -0.3818618670844413 188 196 197
0.8795380193610093 0.08135808815062814 -0.3835934183169319 187 193 195
0.8795380193610093 0.08135808815062814 -0.3835934183169319 187 193 195
0.8678029995780026 0.07343689882204363 -0.38245336506007943 49 46 50
0.9231371542543473 0.06994360309434255 -0.380639236730899 48 36 36
0.9231371542543473 0.06994360309434255 -0.380639236730899 48 36 36
0.8684856470584204 0.06639912249877228 -0.382894264847992 56 49 58
0.8603812709069242 0.062229494908500084 -0.3820433519475227 194 197 198
0.9235708356426993 0.06342090773064378 -0.38153388310000563 41 32 32
0.9346794989666124 0.06305696463973971 -0.38150243237117953 28 31 30
0.9269267108714572 0.06245005569251719 -0.38105902561519844 191 197 199
0.9269267108714572 0.06245005569251719 -0.38105902561519844 191 197 199
0.9379695562555804 0.05949424515251602 -0.38123590212609143 34 35 35
0.9159263691289022 0.05566882714745397 -0.380742645229679 191 199 200
0.9159263691289022 0.05566882714745397 -0.380742645229679 191 199 200
0.9104655187332161 0.050187631001142805 -0.3819242150432591 191 197 199
0.9071753632420946 0.04677401355349121 -0.3822347173245636 33 34 37
0.8900977324721806 0.04507720119471621 -0.38235587613363897 34 37 40
0.8900977324721806 0.04507720119471621 -0.38235587613363897 34 37 40
0.8900977324721806 0.04507720119471621 -0.38235587613363897 34 37 40
0.8956423261233148 0.039172158297155264 -0.38177276600782206 47 46 53
0.8932031386427874 0.035284450742969084 -0.38179028241907936 194 197 199
0.8894128966209142 0.03056102030172535 -0.3805441452886302 83 65 63
0.9413865038834145 0.025293307841463348 -0.38081422615224175 34 37 36
0.9416198824864672 0.019407103288817482 -0.3804640688666473 190 196 194
0.9352730918815547 0.012814463265508292 -0.38084822968799387 185 198 195
0.9352730918815547 0.012814463265508292 -0.38084822968799387 185 198 195
0.857434439566044 0.015168432325163057 -0.38195460843406737 46 46 50
0.922776148710146 0.012416699515273128 -0.38060116105529607 184 192 191
0.922776148710146 0.012416699515273128 -0.38060116105529607 184 192 191
0.8608532389170467 0.011740047747055993 -0.3820983689120354 190 196 196
0.9232544240785048 0.00856521983004236 -0.3807923846222897 49 44 46
0.9261465199983961 0.007613363386221758 -0.38049669676860093 189 195 195
0.9261465199983961 0.007613363386221758 -0.38049669676860093 189 195 195
0.9270522851523281 0.0046326732092005435 -0.3805812078689499 50 48 53
0.9270522851523281 0.0046326732092005435 -0.3805812078689499 50 48 53
0.9922677554190042 0.0014863151326684615 -0.37954101422212194 189 197 196
0.9301897052936017 0.0036842658674537234 -0.3804657565100005 187 193 191
0.9301897052936017 0.0036842658674537234 -0.3804657565100005 187 193 191
0.9984577404776558 -0.00043626760212079236 -0.37827248273130726 46 57 57
0.9236820874398478 0.0013502353470005717 -0.3807536190484496 44 33 31
0.9236820874398478 0.0013502353470005717 -0.3807536190484496 44 33 31
0.9349046413257602 0.0003471697675465797 -0.3804035266338535 184 192 191
0.9349046413257602 0.0003471697675465797 -0.3804035266338535 184 192 191
0.9212346606662898 -0.0013188548594001166 -0.38085654117953716 33 40 39
0.9212346606662898 -0.0013188548594001166 -0.38085654117953716 33 40 39
0.8901099671567391 -0.017000364562842936 -0.3810871853118733 33 33 33
0.9598384037278898 -0.02297060091935122 -0.38139537752475394 183 191 192
0.8640005131420966 -0.024794871983476744 -0.3818951405677718 28 31 30
0.9355274272496495 -0.0545515517998655 -0.37977735830129605 180 184 184
0.9355274272496495 -0.0545515517998655 -0.37977735830129605 180 184 184
0.9235205092498024 -0.05415342995218244 -0.37987907674209914 186 186 186
0.9581669918474188 -0.07758005568830219 -0.37912900743736777 30 35 41
0.955013972489662 -0.08818399023883951 -0.3786164061084597 183 183 183
0.9659744413600537 -0.09245733607295133 -0.37859382415241466 178 182 181
0.9659744413600537 -0.09245733607295133 -0.37859382415241466 178 182 181
0.8651093911962597 -0.08895810967279685 -0.3814562119844996 21 25 24
0.8537286646497817 0.022945641902836184 -0.3837243181719315 34 39 39
0.860785988856473 0.00960467154728979 -0.38526085076388533 192 194 200
0.868542123869976 0.006546543765834858 -0.3848673474634113 187 192 197
0.860768291037417 0.002893296194772753 -0.3842286905806362 192 195 198
0.8599176544400985 0.0013170740634884932 -0.3854886189116549 188 191 194
0.8599176544400985 0.0013170740634884932 -0.3854886189116549 188 191 194
0.9159572487919393 -0.008577234840975567 -0.3824975310452314 192 201 204
0.8854365517725833 -0.014392447423600522 -0.38482706074112305 187 190 191
0.8956349958859376 -0.02523450195624389 -0.38286072105922503 55 48 54
0.8992413695964104 -0.02831923939969126 -0.3821838085270635 189 194 199
0.8992413695964104 -0.02831923939969126 -0.3821838085270635 189 194 199
0.8792134516432721 -0.045679960392403615 -0.3837327717938928 184 187 188
0.8645614357981305 -0.06100517260763848 -0.3843922513299399 181 183 184
0.9097509312300875 -0.07049319003300143 -0.3820366988880195 29 32 31
0.8853158923416309 -0.07673313163011873 -0.38407218159418977 188 188 190
0.8798040168952742 -0.07683544502521954 -0.3845044686372261 25 25 27
0.8550370975085195 0.08729846368383981 -0.3861664875607322 35 38 37
0.8620861125368379 0.07278285503862511 -0.38818066365099935 45 34 34
0.9982531739214386 0.07595207685471979 -0.3838748873695849 62 64 69
0.8792633736563775 0.0537908002069179 -0.38491917992280367 197 200 203
0.948091015355085 0.05423879470187147 -0.38291289849512916 40 49 50
0.8644747283383707 0.005828911323237455 -0.38432898449528274 49 48 57
0.899350258270568 0.004392467535366897 -0.38756399811547754 25 31 31
0.8924446098714786 -0.021988311901663733 -0.38362835558041747 47 41 40
0.8743154579930393 -0.050578796381558516 -0.3838483630521315 29 29 29
0.8743154579930393 -0.050578796381558516 -0.3838483630521315 29 29 29
0.8690771666013452 -0.061005184136461846 -0.3835726042053574 182 183 185
0.8690771666013452 -0.061005184136461846 -0.3835726042053574 182 183 185
0.8581902618693443 -0.060249899510672965 -0.38561845375791626 32 31 38
0.8576080095037252 -0.06757792598758545 -0.38424185113997666 32 32 35
0.9022743156317389 -0.0835030163443235 -0.3806415589463939 45 48 50
0.8899910744537505 0.10569097663122913 -0.38517281124669006 39 39 41
0.9787544428163946 0.08537290146700778 -0.3819748400166748 52 63 61
0.8597889440108416 0.060099960072970186 -0.38375095672410287 199 198 204
0.8900118658515314 0.04295741523952325 -0.3846437028859512 35 38 39
0.9553784873781433 0.04070291103746175 -0.38292061525883453 196 202 203
0.9027671658244233 0.029414081461676733 -0.3835242419633198 191 196 201
0.9379770364305373 0.013570404854335198 -0.3832737542021101 46 48 56
0.8661464584705755 0.011356179126449945 -0.3835663586495154 31 34 37
0.954395144120818 -0.0206073516335763 -0.38307038990276504 192 200 199
0.9364847398819366 -0.06484179158791097 -0.38185148463075946 32 35 36
0.9804992252183137 0.11022265792805275 -0.3840456761116499 55 60 65
0.8877630065569808 0.08794148458250393 -0.3835433051130241 46 43 41
0.9536011136379625 0.09519204455039905 -0.3826483901431636 194 202 202
1.0013595209591246 0.07652953079488353 -0.3835462784898013 76 76 81
0.9942207246132633 0.07212901580002933 -0.3830766977442338 68 66 61
0.8788821198508369 0.047312352808725665 -0.384776489698828 33 33 35
0.8788821198508369 0.047312352808725665 -0.384776489698828 33 33 35
0.9515612046616672 0.04465991765643729 -0.3837801971623452 51 50 54
0.9579891831745118 0.04142798669142188 -0.3826176098531456 192 201 201
0.965311955691686 0.02938476819219151 -0.3815161770627493 190 200 203
0.9684244694174357 0.0258446975487055 -0.3812000060236455 56 59 58
0.915825866322166 0.01680324751281252 -0.382735090981983 194 200 202
0.9474329604753908 0.017272740066359416 -0.38293729137653254 46 51 54
0.9525330233351815 -0.019435037482875585 -0.3814496766722175 198 205 209
0.888465926023514 -0.03632224264760118 -0.38221185053571205 40 42 48
0.9376636814810466 -0.04889356010232699 -0.38178334231208805 48 47 51
0.9981262191737705 -0.06448534500944648 -0.3816377583962709 187 198 196
0.9981262191737705 -0.06448534500944648 -0.3816377583962709 187 198 196
0.9855194304000418 -0.06396243653158884 -0.3813023889469164 188 199 199
0.9603733682140554 -0.09037359549263231 -0.3795246601885276 194 202 203
0.8673689141685224 -0.0017271764675587616 -0.3814311861510056 55 51 56
0.8673689141685224 -0.0017271764675587616 -0.3814311861510056 55 51 56
0.8853469363140125 -0.04573479121014642 -0.38259064304849816 33 36 39
0.8853469363140125 -0.04573479121014642 -0.38259064304849816 33 36 39
0.9158338763986642 -0.07077903746919152 -0.38097952978864935 181 187 189
0.9099045211907036 -0.07636457912373737 -0.3809676213447089 182 188 188
0.9802082993468252 0.11325033677064764 -0.3830262427918286 55 63 62
0.9735293197478061 0.08343122946762423 -0.38530633653026497 53 61 60
0.9735293197478061 0.08343122946762423 -0.38530633653026497 53 61 60
0.9985270430842195 8.527750348669449e-05 -0.38093233550846495 51 62 60
0.9575268645352883 -0.03328449155208806 -0.3808451169336703 32 38 38
0.9890751744477193 -0.05257969454951569 -0.37939614254004095 36 44 43
0.9893917002052458 -0.06415779257409662 -0.3801712544896295 32 32 34
0.9269373970608699 -0.061451901225284114 -0.3817603855340284 156 156 152
0.8315077355608204 0.13226108711499893 -0.3881770482477965 191 187 188
0.9179727928954172 0.1162125654936692 -0.38931829957439534 27 33 35
0.8901287279491454 0.10981899884087873 -0.3875295495310947 29 32 33
0.9073036262719191 0.11204009469554367 -0.3881135423776133 33 33 34
0.8977930308227737 0.10109612854033613 -0.38603206602050316 32 32 34
0.8977930308227737 0.10109612854033613 -0.38603206602050316 32 32 34
0.9024496284582127 0.09615885473936571 -0.3857047743553803 167 170 169
0.9024496284582127 0.09615885473936571 -0.3857047743553803 167 170 169
0.8881784667087782 0.09217982290685954 -0.3867530655805399 25 27 24
0.9100618080949543 0.08844105550080286 -0.3853227212718344 160 170 166
0.8843038172725539 0.08286184958831327 -0.38638024460590836 21 27 29
0.9422952208854728 0.08379143430046188 -0.3859047531902197 161 167 166
0.9422952208854728 0.08379143430046188 -0.3859047531902197 161 167 166
0.9209239270028049 0.07612360006005128 -0.3846217633825409 24 30 29
0.9307385736568342 0.07547994719547407 -0.38473332113522857 35 34 33
0.8606245839490717 0.0665738601428067 -0.38578444219886987 37 28 19
0.8606245839490717 0.0665738601428067 -0.38578444219886987 37 28 19
0.8677939661737987 0.06735672882431754 -0.3863255443715628 30 29 33
0.8975107128948085 0.07057162263992812 -0.3869251845046578 13 19 16
0.871890574886682 0.06739107413958823 -0.3857687510653848 157 165 166
0.871890574886682 0.06739107413958823 -0.3857687510653848 157 165 166
0.9339160446447404 0.07270137438198357 -0.38431362316671575 183 186 185
0.8627830272442205 0.06431160633443202 -0.38537180706835145 162 170 171
0.8595768638402846 0.0631732913889765 -0.3855438259386242 162 170 171
0.8595768638402846 0.0631732913889765 -0.3855438259386242 162 170 171
0.8564411471120009 0.060102070485939414 -0.3860466627751352 30 31 27
0.926765037417996 0.06368177320258751 -0.384320625442832 178 184 182
0.910324306407798 0.05122305302293558 -0.3852798850045176 181 184 183
0.910324306407798 0.05122305302293558 -0.3852798850045176 181 184 183
0.8958132429612092 0.044431843999105165 -0.38579770607158553 140 157 155
0.8958132429612092 0.044431843999105165 -0.38579770607158553 140 157 155
0.8913622984599737 0.040239370558135666 -0.38542442951027633 180 183 182
0.895747884113342 0.03629297391719238 -0.38474173509041254 177 184 184
0.8914136804506609 0.03196787989879357 -0.38492111440198845 139 155 154
0.8324250043427315 0.027935906502924372 -0.38569858166256626 164 167 168
0.888179643382754 0.02897034336398964 -0.3852635863372524 14 21 14
0.9063599018189051 0.028811645571431982 -0.3840197487165088 31 32 31
0.9100971753011506 0.02535456629103193 -0.3840312099178117 137 157 152
0.9162680821071753 0.020066502565567863 -0.3849211067120467 138 156 152
0.8569978613585574 0.015938747845603618 -0.38661633299499193 21 24 23
0.9379077828789334 0.016456566673323663 -0.3837616306477378 37 43 45
0.9255458187949918 0.008097171351208531 -0.38244463279606267 176 184 183
0.9255458187949918 0.008097171351208531 -0.38244463279606267 176 184 183
0.8972236691637919 0.006474035496030333 -0.38409982464998527 10 18 15
0.8602571848168056 0.005370644317178952 -0.38398391802308757 142 157 156
0.8611256111834823 0.0016045162222768899 -0.38618927489417393 26 22 18
0.8611256111834823 0.0016045162222768899 -0.38618927489417393 26 22 18
0.8325888260216001 -0.009793751976309738 -0.38465937830809843 99 99 103
0.8787309910652725 -0.012383431039211292 -0.38658489036982896 12 18 16
0.8538829822414825 -0.0126415766220269 -0.3851642987777974 15 21 19
0.9681898147472517 -0.01591934324346418 -0.3830678190834895 28 40 39
0.9681898147472517 -0.01591934324346418 -0.3830678190834895 28 40 39
0.9059467971700251 -0.016566810477780303 -0.3864161340855135 13 19 17
0.8898727090798453 -0.016773199851781932 -0.3845954781652866 24 26 25
0.8914392577706339 -0.02242833362970087 -0.38434633212806785 128 146 144
0.9003029426717482 -0.027206468901405444 -0.3837780862806789 127 144 141
0.9003029426717482 -0.027206468901405444 -0.3837780862806789 127 144 141
0.8989076334716252 -0.029576012173046565 -0.3841964196062609 23 22 24
0.8989076334716252 -0.029576012173046565 -0.3841964196062609 23 22 24
0.8887540929966693 -0.03368891694553999 -0.38486747239692054 16 22 23
0.9103297240549323 -0.03730767101262522 -0.38370135303497294 133 148 145
0.927854017014078 -0.050412304112514926 -0.38373762871882067 33 36 37
0.927854017014078 -0.050412304112514926 -0.38373762871882067 33 36 37
0.9356968214395488 -0.054504524004448815 -0.3827284165457189 166 178 174
0.9356968214395488 -0.054504524004448815 -0.3827284165457189 166 178 174
0.9273515113464265 -0.05742733697772239 -0.38354800802689076 30 29 30
0.9273515113464265 -0.05742733697772239 -0.38354800802689076 30 29 30
0.9273515113464265 -0.05742733697772239 -0.38354800802689076 30 29 30
0.9273515113464265 -0.05742733697772239 -0.38354800802689076 30 29 30
0.9273515113464265 -0.05742733697772239 -0.38354800802689076 30 29 30
0.9226847111824409 -0.0577294554485838 -0.3827037372409014 166 174 171
0.871370304321345 -0.05710381231966215 -0.3832292413515534 35 35 37
0.871370304321345 -0.05710381231966215 -0.3832292413515534 35 35 37
0.875696793709841 -0.06527766248451282 -0.383057576406183 21 23 22
0.875696793709841 -0.06527766248451282 -0.383057576406183 21 23 22
0.854107291928239 -0.0753419497683551 -0.382871222863667 16 20 15
0.902845578212902 -0.08115415996260956 -0.38338233426228097 22 25 22
0.8994737602289109 -0.08095014227780852 -0.38245903016892074 158 169 167
0.8966186086665194 -0.08505531451659687 -0.38342073976513313 23 27 24
0.901479994862224 -0.08877820175414945 -0.3823383932388572 147 152 148
0.8917226323592251 0.10628059485183772 -0.3843047627339554 37 33 27
0.890531568132102 0.09379147137329231 -0.38236387524219345 165 169 170
0.8829798498635392 0.08650383978196664 -0.3817330830292019 164 172 171
0.9679327299756021 0.09162303220515954 -0.3818197396504341 37 37 37
0.9454984202122952 0.08718258782758646 -0.3810239261704457 181 181 176
0.9255444256703765 0.0752603802412318 -0.3824297864165368 181 180 180
0.9217268852654674 0.06992678321217428 -0.38093337251971116 44 36 29
0.921280651149915 0.06717818362773027 -0.38216773322162434 179 182 177
0.9218537870328702 0.06341578481121664 -0.38112135901587385 44 37 36
0.9218537870328702 0.06341578481121664 -0.38112135901587385 44 37 36
0.9331080011088182 0.06343051807333479 -0.3816381782216016 24 27 26
0.9940790575462759 0.06377323815819971 -0.37911819327540003 181 181 181
0.997668739973566 0.05977333264040551 -0.3786466699294879 55 59 60
0.8313593094712964 0.042301583758933475 -0.38079296774650523 169 175 175
1.0013266265916352 0.050167556756010215 -0.3795056735338151 57 60 63
0.9527503355152145 0.03630164577894725 -0.38065768687952634 178 182 177
0.9527503355152145 0.03630164577894725 -0.38065768687952634 178 182 177
0.9609969155326035 0.035500885668529165 -0.3808276009567679 43 49 49
0.9568415471055193 0.032097085356666284 -0.38057013033312154 179 179 179
0.9595704887410236 0.028492516836853755 -0.3792328552679816 33 41 39
0.9097002361714408 0.019827858426144585 -0.3822834420107036 15 18 17
0.9399287008833414 0.01975720959203149 -0.38037467393917995 176 181 179
0.9770940006084028 0.019958544312634826 -0.3796901629042305 181 182 178
0.9770940006084028 0.019958544312634826 -0.3796901629042305 181 182 178
0.9189712849367166 0.01621647702728266 -0.3822811847731425 30 31 34
0.9216763768341644 0.012848132225542045 -0.38133668161105944 174 180 175
0.9338187173981121 0.013094446960929427 -0.381472763299183 178 186 185
0.9336659154137636 0.013064295980760074 -0.3810453647007104 178 186 185
0.983750844747542 0.012850711341377432 -0.3787524735240216 177 180 179
0.983750844747542 0.012850711341377432 -0.3787524735240216 177 180 179
0.9298291165478132 0.009442647766189867 -0.3813050851295536 178 181 180
0.9833510910807346 0.0052893870158916495 -0.37895419804385067 176 180 179
0.9870690730455292 0.004906039667348027 -0.3783870192917608 69 75 73
0.9297985517468745 0.0014959254103782409 -0.3811227643210119 44 44 48
0.9847057352727376 0.0021438992715499543 -0.38010886776377667 65 68 70
0.9256936921179767 0.0008455815385047536 -0.38102608862971643 169 177 173
0.9335374061755016 0.0008210394774051086 -0.3807153467940732 170 179 172
0.9201614401764959 -0.0009672997799756624 -0.38186201810823117 26 32 32
0.9196889909947559 -0.001163065059527007 -0.380920000305702 26 32 32
0.9361066970483009 -0.0024829059192811582 -0.37963853268747627 35 41 41
0.9366596464700359 -0.0023231573566416808 -0.3806700850641409 24 30 28
0.9641890517709805 -0.022390486208304212 -0.37904589061075294 172 178 177
0.960090256109264 -0.024915956953184562 -0.37986039395988896 40 46 48
0.9606464585295794 -0.026731745703652256 -0.3786953908097328 48 51 52
0.9606464585295794 -0.026731745703652256 -0.3786953908097328 48 51 52
0.9525782837228867 -0.029910308345301825 -0.3794244166598437 170 177 175
0.9766768370436208 -0.03679084271997658 -0.37851120771177 47 58 56
0.9766768370436208 -0.03679084271997658 -0.37851120771177 47 58 56
0.9773081962887373 -0.04205393189473416 -0.37927029644263244 175 181 181
0.9773081962887373 -0.04205393189473416 -0.37927029644263244 175 181 181
0.9399500098825566 -0.04222862001644344 -0.3794859890184599 170 176 174
0.9843499806870549 -0.04914162835048751 -0.3793711062109704 177 180 179
0.9316292056577821 -0.051522493728176744 -0.3810693119631075 168 176 173
0.9877527496852314 -0.05657475137399015 -0.3777924216815325 178 178 178
0.9813060914090327 -0.05682925281745483 -0.3791109334710449 48 56 57
0.98744522325562 -0.060229658607514495 -0.3779977609448337 61 63 69
0.9832128833159955 -0.06076861300475611 -0.37776242417184336 175 181 180
0.9832128833159955 -0.06076861300475611 -0.37776242417184336 175 181 180
0.9832128833159955 -0.06076861300475611 -0.37776242417184336 175 181 180
0.990630708091319 -0.061414128159543634 -0.3776898789277346 177 180 179
0.990630708091319 -0.061414128159543634 -0.3776898789277346 177 180 179
0.9669598525323517 -0.07642300428962658 -0.37790601907878413 39 47 46
0.952774154381546 -0.07994059893329367 -0.3788545317662801 169 175 173
0.952774154381546 -0.07994059893329367 -0.3788545317662801 169 175 173
0.9021726522103214 0.10624296201281927 -0.384942094364545 194 197 198
0.9021726522103214 0.10624296201281927 -0.384942094364545 194 197 198
0.9688407667194358 0.11082505993572382 -0.3833269730540431 38 40 40
0.9552265019338294 0.10237900004602662 -0.3839362880323775 191 194 193
0.9552265019338294 0.10237900004602662 -0.3839362880323775 191 194 193
0.9583250222240366 0.09882043547233632 -0.3832803623209249 47 50 51
0.8787299907515324 0.08778464287257914 -0.38537210340266664 30 31 27
0.9634471575786462 0.09566118998037115 -0.3835230368808427 166 169 167
0.9410074402836334 0.08811296539770656 -0.383398874040566 38 41 40
0.8726527488094997 0.07596766025449068 -0.3858045328435733 25 28 27
0.9368172352230979 0.07830734390931884 -0.3818512514982095 27 30 31
0.9380319645207246 0.0792249060915951 -0.3845128522485459 44 43 45
0.934540952922322 0.07605318437502548 -0.3841383043232444 187 195 196
0.934540952922322 0.07605318437502548 -0.3841383043232444 187 195 196
0.9579983301318465 0.06889463334719916 -0.38134495642057126 22 30 27
0.9154745442593699 0.05657721564763218 -0.38368572077248586 187 193 195
0.9154745442593699 0.05657721564763218 -0.38368572077248586 187 193 195
0.9067059914293769 0.04764093307559382 -0.3848568800498399 30 31 30
0.9067059914293769 0.04764093307559382 -0.3848568800498399 30 31 30
0.8892528650095598 0.04568848123230453 -0.3845204006673222 27 30 31
0.9512423810486608 0.04770084884122107 -0.3836732174934582 25 31 32
0.9500917376084275 0.047218195164916384 -0.38142728686230076 45 52 56
0.8917237067642 0.043024270804156876 -0.383864078517897 38 30 23
0.9024475943301459 0.04188719513455401 -0.38442124044979276 23 29 27
0.9541750039472102 0.043387669210608125 -0.3809907380778951 179 179 179
0.9060091142735459 0.02869527575495444 -0.3830992979711268 29 32 31
0.9097777444143893 0.025192276879577015 -0.38320907493037853 181 187 187
0.9408434057119442 0.020048585585889546 -0.3820902253389239 142 157 154
0.8754525178741853 0.016273636264088613 -0.3839606145762705 29 29 29
0.8711473254719069 0.007866801190744186 -0.3846105387681263 42 42 45
0.8711473254719069 0.007866801190744186 -0.3846105387681263 42 42 45
0.9591618327856466 0.006804174712003363 -0.38253739024730027 18 29 27
0.871968170076975 0.00456496937376863 -0.384148196278841 176 181 183
0.926394142459131 0.005112198236357585 -0.3824340134846867 38 38 40
0.926394142459131 0.005112198236357585 -0.3824340134846867 38 38 40
0.9222133754433556 0.004984209816295012 -0.38261237727079717 175 181 181
0.9222133754433556 0.004984209816295012 -0.38261237727079717 175 181 181
0.9222133754433556 0.004984209816295012 -0.38261237727079717 175 181 181
0.9229813472525774 0.001850855884345461 -0.3824533814954581 40 31 30
0.9229813472525774 0.001850855884345461 -0.3824533814954581 40 31 30
0.8984885474273056 -0.01912784144501394 -0.38309907106426383 170 173 174
0.9576912148329985 -0.023050246597085138 -0.38012512987360564 174 181 179
0.8953901415250634 -0.0226533873844701 -0.3833514537262809 41 36 37
0.8953901415250634 -0.0226533873844701 -0.3833514537262809 41 36 37
0.8990421259551165 -0.02570086273220262 -0.38280532489411306 168 174 174
0.8990421259551165 -0.02570086273220262 -0.38280532489411306 168 174 174
0.9152085154926963 -0.03683410833555657 -0.3807660663660399 27 31 26
0.9602391073435244 -0.055879221991828355 -0.38259301493954256 19 27 24
0.9225795422519455 -0.0601627291151881 -0.38033310228131006 28 24 29
0.8604565293100297 -0.05762419039944242 -0.3832797891389626 25 24 26
0.8684469520900034 -0.05836968554803303 -0.38323949182717576 166 166 166
0.8641556606745323 -0.06137233753276634 -0.3833541303825511 24 23 23
0.8602782183604205 -0.06189855706813037 -0.3839207457188771 168 167 169
0.8602782183604205 -0.06189855706813037 -0.3839207457188771 168 167 169
0.8571269282952736 -0.06529243561801575 -0.3846504514660571 24 24 24
0.9502518106663344 -0.07682827207206125 -0.380155714338283 25 28 29
0.8881403213959164 -0.0774113353356967 -0.3823300731779335 24 24 25
0.9567649395031759 -0.08385045562073333 -0.3788393101006794 39 42 45
0.9567649395031759 -0.08385045562073333 -0.3788393101006794 39 42 45
0.8916007486159923 -0.0810249382275381 -0.3824506471297822 168 168 168
0.9005033652734347 -0.08509711455967707 -0.3828008610003858 26 29 30
0.8920223094510651 -0.09277583980298433 -0.38343528250654896 170 171 171
0.8745932506725314 0.107764815057234 -0.3767426523100966 26 32 31
0.8736562843576685 0.07627050564223864 -0.37947437663816147 28 28 30
0.8736562843576685 0.07627050564223864 -0.37947437663816147 28 28 30
0.9291085438675691 0.0663655766138464 -0.3806155819286671 39 42 43
0.9291085438675691 0.0663655766138464 -0.3806155819286671 39 42 43
0.9577915774116893 -0.023069535868125435 -0.3798206914971825 166 172 170
0.9634294793903174 -0.08297155487326523 -0.377498047790346 35 33 41
0.8313404164825601 0.1074715784449184 -0.38952726978783153 188 188 190
0.9491943445641785 0.08982524204937715 -0.3880056427247833 184 191 185
0.9849133888021709 0.0810993040941745 -0.38763702494312974 61 69 70
0.9976745775305622 0.07658177983853269 -0.3876151005629793 69 76 75
0.994372777059552 0.06864438351684793 -0.38426222104590074 57 52 52
0.8293914651446401 0.051065336190621806 -0.3876551938611175 183 186 186
0.9595797185964181 0.045160687254751156 -0.38650657611616124 182 190 189
0.996336076730659 0.04491569894492342 -0.3845352668097544 64 77 76
0.962189215796225 0.02948661655867905 -0.38392244232998796 34 37 36
0.8320010556394434 0.028182486462991443 -0.38768878375825655 174 174 178
0.8308496426007909 0.02643013802285623 -0.38766775344938575 143 144 146
0.8329190127098083 0.022278025769487512 -0.3862566368282538 169 172 175
0.9834020657805488 0.01700336499553244 -0.38366234824398865 56 62 64
0.9234598069417828 0.01315007241289685 -0.38624570627346383 164 170 168
0.8327801694912349 0.00973944357925643 -0.38600705167344 169 167 170
0.9862876922076329 0.002415536640996097 -0.3825314271575396 52 51 58
0.9792612172693529 -0.00567632628142736 -0.38256396496395106 187 190 191
0.9726715272832523 -0.00572110387051278 -0.38231227650687066 40 46 46
0.9726715272832523 -0.00572110387051278 -0.38231227650687066 40 46 46
0.9088415679144202 -0.004812253427723921 -0.38422012677050077 20 26 22
0.9728356201344941 -0.010939206446927266 -0.3829062977101389 186 189 188
0.9515844731023139 -0.014836938348507097 -0.3839381756221874 31 39 40
0.9671473697866177 -0.015909483106056742 -0.38181399958426304 32 38 40
0.9585349481228918 -0.030281389022917198 -0.3834091849896504 36 39 40
0.9585349481228918 -0.030281389022917198 -0.3834091849896504 36 39 40
0.9506091363876629 -0.033476206631103046 -0.38212247052742404 31 34 35
0.9302374977888439 -0.04905832243651064 -0.3833029220851802 153 159 153
0.9302374977888439 -0.04905832243651064 -0.3833029220851802 153 159 153
0.8660828710550362 -0.055993336289934616 -0.38534992413186553 158 159 155
0.8567285472813555 -0.06534035977279223 -0.38476561731230213 20 21 17
0.9337665970587896 -0.09387858277080259 -0.36851270478603926 25 31 29
0.8466841293216771 0.017450162293521945 -0.39440965068885114 180 183 182
0.8948844803661129 0.11047942598129515 -0.3951850620676982 43 32 25
0.9063073733948075 0.09441035131199518 -0.3910705786722279 29 35 35
0.9305400006521145 0.07307903632033841 -0.3907878783242197 181 187 185
0.9305400006521145 0.07307903632033841 -0.3907878783242197 181 187 185
1.0044080891607319 0.06189354607529771 -0.3875786479429528 70 78 81
0.9765940594128578 0.0206371640855858 -0.3886572408545327 47 53 55
0.9996562777721664 0.014858038434309618 -0.3822191975418585 68 74 72
0.9890941539579091 -0.052349255053862544 -0.379346681722794 47 58 58
0.8671024146763032 -0.06428917771370737 -0.38581156004124906 16 19 18
0.8671024146763032 -0.06428917771370737 -0.38581156004124906 16 19 18
0.8632467050806337 0.1022259834647582 -0.3860543492825425 21 27 25
0.9269641709693414 0.10311951877331355 -0.38295261699728794 28 34 32
0.9906578480078747 0.10353855380761008 -0.38144939061098176 55 63 60
0.9906578480078747 0.10353855380761008 -0.38144939061098176 55 63 60
0.9534458925275022 0.09908612163968254 -0.3834204271601742 183 189 187
0.9590590591336929 0.09949642668213328 -0.3849137005686603 31 34 35
0.962572504374594 0.09546622937199963 -0.3826677849072056 185 188 187
0.9155810727190451 0.08270034230679563 -0.3848870704320813 182 188 188
0.9406914954271116 0.08287945222358865 -0.38335999822893463 184 190 190
0.947295920122944 0.08309062647868243 -0.384497105248281 36 42 42
0.9294791638601765 0.07498273160097069 -0.3826261691984642 39 39 35
0.9294791638601765 0.07498273160097069 -0.3826261691984642 39 39 35
0.933277879863477 0.07254021470484769 -0.383484003189336 180 188 185
0.9931435263784895 0.07496908165163914 -0.38157373065510114 72 73 73
0.9336756044453063 0.06397027721457854 -0.38343777097532183 30 36 34
1.0002024753048915 0.06087015623862256 -0.3824573126259548 64 67 68
0.9402348968891705 0.05664928197883806 -0.3823176123067002 178 186 183
0.8840345740371143 0.05086989118571581 -0.38487497246675767 173 181 182
0.9416221797398966 0.05145494726911566 -0.3849206872113539 32 38 36
0.9416221797398966 0.05145494726911566 -0.3849206872113539 32 38 36
1.0038724424326104 0.05116134738011567 -0.38343146742867096 62 69 73
0.9506182030524415 0.0476685622880856 -0.38303397280143975 39 45 47
0.8888740080502565 0.045811819330888646 -0.38446708277200864 23 26 25
0.8910904617898473 0.0429695957550428 -0.3830015405812763 37 34 32
0.9022464664168075 0.042046727882179266 -0.3848570972390891 20 26 24
0.9573243796696838 0.04053818826920419 -0.3824244017160219 46 46 50
0.9684410362856523 0.04053292093151721 -0.3806178751486744 54 62 63
0.8908045307723932 0.04018984740371597 -0.38475681406974643 169 177 176
0.9643728566146614 0.04049650847673455 -0.3832996925260444 178 184 178
0.9275640596634611 0.03753933602787989 -0.3825645745482226 22 28 26
0.9532807280602309 0.03657855617660593 -0.3821049423634 183 189 187
0.9532807280602309 0.03657855617660593 -0.3821049423634 183 189 187
0.8926198843615119 0.03610882640242666 -0.385520824132907 169 180 178
0.9541301842606035 0.033147678038061706 -0.38255621222010977 47 41 43
0.965984901617983 0.0326897018770661 -0.38320451509552483 179 182 181
0.965984901617983 0.0326897018770661 -0.38320451509552483 179 182 181
0.9608669618109434 0.032435633590352404 -0.381327868200531 43 45 44
0.9608669618109434 0.032435633590352404 -0.381327868200531 43 45 44
0.9575722093373127 0.03241906952342081 -0.3823454522906068 181 189 186
0.8906096011337151 0.031809369684412184 -0.3835952917607029 167 175 174
0.8876587024349292 0.02881096260133617 -0.38437886573405894 27 31 26
1.0032040933199906 0.02655752360876601 -0.38199901975149897 66 74 73
0.9786737270504318 0.025862806427223058 -0.3821979758928161 53 64 62
0.9717614233716062 0.025554688813555545 -0.38152696965735333 182 190 188
0.9470834168766546 0.025465418808772195 -0.3829746746038024 181 189 186
0.9095628948866484 0.025283792762159595 -0.3835971113721781 167 177 173
0.9095628948866484 0.025283792762159595 -0.3835971113721781 167 177 173
0.946626314257933 0.020312203492037793 -0.38263479680874546 31 38 37
0.9413375666114561 0.020149175020140485 -0.3835997441434185 170 178 175
0.9100503202493462 0.020172567986142812 -0.3841554107927825 25 25 25
0.9157373466048283 0.019958652149777725 -0.3844193741902421 168 174 172
0.9157373466048283 0.019958652149777725 -0.3844193741902421 168 174 172
0.9321130559665479 0.01044907965900246 -0.385284881478259 171 179 176
0.9320722666444256 0.010449171934603992 -0.3851106214440123 165 171 169
0.9321130559665479 0.01044907965900246 -0.385284881478259 171 179 176
0.9225825010685674 0.009120567322689292 -0.3835162954307893 36 35 37
0.9200522452084562 0.009045878025071346 -0.38458782173978806 27 31 27
0.8301878877831624 0.010276751479324298 -0.3820448794281738 126 126 126
0.895420276071551 0.007219335804690398 -0.3801220696546725 18 21 20
0.926430270043645 0.005208417924105573 -0.3832541859929202 36 36 40
0.926430270043645 0.005208417924105573 -0.3832541859929202 36 36 40
0.922234817607071 0.0051041304515834435 -0.3834335201424972 157 168 164
0.922234817607071 0.0051041304515834435 -0.3834335201424972 157 168 164
0.9231305733127628 0.001981273588155496 -0.38347156874263777 36 27 30
0.933995860700171 0.0009367181803095724 -0.38240552797638666 160 168 165
0.926318600376792 0.0009669120115914278 -0.3831557946196492 156 164 163
0.9373532621727391 -0.002142885653189813 -0.3827049357616005 35 38 37
0.9469872537103963 -0.0053190089506370926 -0.3819972988203238 32 38 36
1.0025314303029296 -0.011303641766892872 -0.3806128976596682 62 69 69
0.8314431422019068 -0.0019433122351392666 -0.38483719495379376 163 166 165
0.9998439996426964 -0.012103187425295 -0.3782368216979053 42 50 51
0.8305881529186577 -0.0076313485515520935 -0.38508697089313976 159 166 166
0.8305881529186577 -0.0076313485515520935 -0.38508697089313976 159 166 166
0.8314644674394323 -0.010391325066936345 -0.38461461446974937 161 164 167
0.8332348433927556 -0.012204650244799962 -0.3837025199489745 168 168 170
0.8946962955442286 -0.018241843910954743 -0.3824298734015284 160 166 164
0.8946962955442286 -0.018241843910954743 -0.3824298734015284 160 166 164
0.8327855570254258 -0.01613635921868664 -0.38407776724372367 164 164 164
0.8320344737760954 -0.022753041588765708 -0.38523937145735265 113 109 112
0.8320344737760954 -0.022753041588765708 -0.38523937145735265 113 109 112
0.8348181822778931 -0.023456601924110768 -0.38544060230543764 166 166 166
0.8975120321622608 -0.02921509255948308 -0.3809304556824136 30 30 33
0.8975120321622608 -0.02921509255948308 -0.3809304556824136 30 30 33
0.8949454934056571 -0.030747984884517212 -0.3818041249249333 152 160 157
0.9462021046116726 -0.036870441407343205 -0.3802392499769385 179 185 183
0.939057403505749 -0.036199845819318635 -0.3791943802005231 25 29 24
0.8331739538957759 -0.02779263590604973 -0.38499147466041583 94 89 92
0.8331739538957759 -0.02779263590604973 -0.38499147466041583 94 89 92
0.9782468701820008 -0.04207484160012016 -0.38073099185246984 189 192 187
0.9090330945824382 -0.03712302272550636 -0.3814695278754278 166 169 168
0.9811933744538358 -0.04556582920611182 -0.379929752567958 34 40 42
0.8301840913371099 -0.030301671417421516 -0.38387499077722065 139 135 140
0.8315558985031861 -0.03144656465391249 -0.3849401881558796 94 88 92
0.8329881616820902 -0.03244250400932672 -0.3846675831996299 89 81 86
0.8313331996881023 -0.03272777365268037 -0.38503191888789584 88 87 91
0.8313331996881023 -0.03272777365268037 -0.38503191888789584 88 87 91
0.9853385791336431 -0.049475783425334194 -0.38113280856701154 178 184 182
0.8320168986195068 -0.03370436054883924 -0.38490379056413915 157 160 161
0.8320168986195068 -0.03370436054883924 -0.38490379056413915 157 160 161
0.8315908053055181 -0.036698682806659166 -0.3849415127958112 93 89 92
0.8839170810179664 -0.04260160709366775 -0.3817902829973944 17 20 19
0.8330146303914941 -0.03769664833534591 -0.38471798960061876 84 78 82
0.8330146303914941 -0.03769664833534591 -0.38471798960061876 84 78 82
0.8313217541345013 -0.037949118913341254 -0.3847920561651247 85 81 82
0.8313217541345013 -0.037949118913341254 -0.3847920561651247 85 81 82
0.9825331335608173 -0.057127773298401706 -0.3811902413170807 31 34 37
0.9599359372393245 -0.055785789401153967 -0.3824277225308488 22 26 21
0.9347566812033555 -0.05423719335749994 -0.38158879675069773 156 162 162
0.9850458392745131 -0.0612307888235053 -0.3807690443442765 184 190 190
0.9850458392745131 -0.0612307888235053 -0.3807690443442765 184 190 190
0.8729140527550666 -0.048136106117843386 -0.38359695158588564 20 20 20
0.8729140527550666 -0.048136106117843386 -0.38359695158588564 20 20 20
0.9353363061762638 -0.05867535543497578 -0.38038724358095016 23 23 23
0.9515778308666464 -0.07765645481517436 -0.38313037628437374 27 31 34
0.9641189729348237 -0.08819791818545467 -0.379029322238815 38 38 42
0.8989339853793057 -0.08075164017602712 -0.381982735550413 160 159 161
0.9609970529284997 -0.09138933301443421 -0.37993155956642144 44 40 45
0.9644373501460112 -0.09166409443863317 -0.37882074792136794 183 189 191
0.9606145169302547 -0.09170536852085877 -0.3801474618185379 38 36 39
0.8849101146520832 -0.09190799271572875 -0.37143820572776687 20 22 22
0.9774891381149288 0.05661211134996635 -0.38108876775955725 184 190 188
0.9588571353001156 0.10697569471259034 -0.3848434767727742 57 52 48
0.9849645498982628 -0.05276807834474554 -0.38071597941572366 185 188 189
0.9994808533732329 -0.06447439711785455 -0.38009655531104086 37 41 46
0.8769445991537235 0.11351788766139675 -0.3894618191556265 26 29 28
0.980136164971534 0.1157121729871642 -0.38593661367398774 50 56 58
1.0790464196476686 0.08662721831310308 -0.3870962828457129 119 123 122
0.9928690821448511 0.07478754982881464 -0.3812106665344539 72 73 73
0.9308474781978078 0.06765998863175848 -0.38456795190319587 33 39 39
0.9308474781978078 0.06765998863175848 -0.38456795190319587 33 39 39
1.0741403570750903 0.017556070245990194 -0.3855499873198583 116 116 118
0.8682771075201338 0.005833083620338918 -0.38311514218392545 168 175 175
0.9616311393906856 -0.026784098571265402 -0.3805851979933611 54 55 55
0.9616311393906856 -0.026784098571265402 -0.3805851979933611 54 55 55
0.8945972113135595 -0.02832258971585116 -0.38613925479080025 162 168 166
0.9997445313782837 -0.03512054019399627 -0.377603395398649 42 50 49
0.9894549873659928 -0.05697353078456518 -0.3805608108997539 180 186 184
0.9546853173999778 -0.07902990224527415 -0.38105233415541834 179 185 183
1.0016109642487416 0.03538239644991687 -0.3818663674600462 58 69 69
1.0028314223061439 -0.036245885294684164 -0.38087758289108836 48 54 54
0.9399335399788866 -0.098578407006127 -0.3806727703134935 22 28 26
0.9512188281031208 0.09293584179461604 -0.3821739525092983 28 31 32
0.9973281089094165 0.02731436159486746 -0.38045073367562693 58 61 62
0.8310181604475447 0.1344258296237792 -0.38354848594293983 177 177 181
0.8312475347022791 0.13180685377264809 -0.3847260409542809 178 177 179
0.9427847122632108 0.1163344153766307 -0.38944609937077945 27 33 33
0.9640834535941795 0.09620286043139101 -0.38487096050722935 183 184 180
0.9694464851043129 0.09268033925006279 -0.38461062937706064 38 40 40
0.9094240195469182 0.08170399663741608 -0.38397445678297926 29 29 29
0.9159437498400906 0.08259225761224886 -0.38525590644411073 180 180 180
0.9266896314343569 0.07607611321339254 -0.3852508905643708 173 176 175
0.9232863836569455 0.07122583415318827 -0.38475879120084905 44 31 23
0.9238214441140908 0.06501803048766285 -0.3859757911433374 44 38 34
0.9238214441140908 0.06501803048766285 -0.3859757911433374 44 38 34
0.934365563381295 0.0641922090032533 -0.384561479526245 27 30 29
0.9073803627204753 0.04822099175129246 -0.3871396663945435 30 30 30
0.9073803627204753 0.04822099175129246 -0.3871396663945435 30 30 30
0.9518936250100479 0.04810409125567609 -0.38517496262300815 34 37 40
0.9586582157893235 0.04496227179421552 -0.38453025929207646 167 170 169
0.9589460483811763 0.041052470246663544 -0.38509296109164853 42 41 43
0.9288342312783657 0.037696314063704835 -0.3846420226596147 19 25 23
0.9544786418789729 0.036905737665188613 -0.384046194543607 166 170 169
0.9544786418789729 0.036905737665188613 -0.384046194543607 166 170 169
0.9694569336216926 0.03712503428798188 -0.383657753905678 41 47 47
0.9630893693689001 0.03623247437884146 -0.3845189113669208 36 39 42
0.958656417010805 0.03274700434284466 -0.38400989815070774 163 171 168
0.9411321183555721 0.025353493935988094 -0.38294771670409533 26 33 28
0.9733819369310336 0.020456247605919544 -0.3839999034986156 44 50 52
0.9201052838624331 0.01659554937715156 -0.3851402764804594 24 27 26
0.9933005849096607 0.013027985561046646 -0.3833213046037232 171 177 172
0.9591388783623335 0.006844406851049146 -0.3830563645485944 25 31 29
0.9237626286261138 0.0020134753328478233 -0.384508891754761 39 28 19
0.9237626286261138 0.0020134753328478233 -0.384508891754761 39 28 19
0.9267806210351999 0.0010117416137438355 -0.3836540665861792 159 167 166
0.9876053098497757 0.00278361015690403 -0.38440833622564974 60 65 70
0.9876053098497757 0.00278361015690403 -0.38440833622564974 60 65 70
0.9413828561695938 -0.0058282644692633 -0.3829755606272692 163 169 167
0.9420790126609158 -0.011089093285522156 -0.3843781037734489 28 31 30
0.9665509313021978 -0.022347236469012315 -0.3830236278440874 166 174 173
0.9588356563648752 -0.02322067256240216 -0.38225680620803065 164 172 170
0.9588356563648752 -0.02322067256240216 -0.38225680620803065 164 172 170
0.9922958107972648 -0.0243904807400909 -0.38075772945100705 46 55 54
0.8962544718542791 -0.03122579468451952 -0.38381538992862874 149 158 157
0.8962544718542791 -0.03122579468451952 -0.38381538992862874 149 158 157
0.969349769197518 -0.03337212199231018 -0.38278851446138173 40 45 49
1.0021110751463145 -0.036359057023840693 -0.3830965290528712 60 68 69
0.9733227135405327 -0.03709422410139281 -0.383101383303916 170 177 174
0.9733227135405327 -0.03709422410139281 -0.383101383303916 170 177 174
0.9833069694873071 -0.04580132339892736 -0.3829703812199912 44 50 52
0.9383353777446058 -0.046205655645403805 -0.3837729334932742 26 29 30
0.9383353777446058 -0.046205655645403805 -0.3837729334932742 26 29 30
0.9291586705226912 -0.05469072574072729 -0.38363742438006615 154 160 158
0.9862038010945708 -0.05716486454807391 -0.3822485390609855 54 54 60
0.9862038010945708 -0.05716486454807391 -0.3822485390609855 54 54 60
0.9862038010945708 -0.05716486454807391 -0.3822485390609855 54 54 60
0.9981270192536403 -0.06169902713281155 -0.3817074215579768 176 182 182
0.9981270192536403 -0.06169902713281155 -0.3817074215579768 176 182 182
0.9858628092363717 -0.06125205366301907 -0.3819136212967177 174 180 180
0.9929073569058097 -0.061916004668153786 -0.38124381664832646 177 182 182
0.9481616122959399 -0.0736650031221554 -0.38307411865818997 171 177 175
0.9691407861987036 -0.07709360153538936 -0.3817435948699312 36 38 42
0.9515172251675517 -0.0772272312052352 -0.3827546311181642 29 34 36
0.9639632605352524 -0.08106908323416322 -0.3819525894727676 181 187 187
0.9547728058093358 -0.08074459598831747 -0.38258877189314067 177 183 182
0.9547728058093358 -0.08074459598831747 -0.38258877189314067 177 183 182
0.957913559447134 -0.08433859559733052 -0.3810765650069029 45 45 47
0.957913559447134 -0.08433859559733052 -0.3810765650069029 45 45 47
0.9660188227063482 -0.09244405988157428 -0.3811106832792324 179 185 183
0.9795530117627953 -0.09804034408141062 -0.3790732037715472 34 42 39
0.8321978351789956 0.11209424561671619 -0.3841180005370131 203 203 203
0.907613003241488 0.07959947498863544 -0.37922099270286597 29 29 29
0.974805346325819 0.054779140867474346 -0.3770960351567428 181 181 181
0.9749672071876819 0.04962506173568592 -0.3774722425230198 44 48 51
0.9486179189789657 0.046225698612946016 -0.3792139763829532 31 37 37
0.9388641550574289 0.02420185635630662 -0.37829182973357045 30 36 34
0.9388641550574289 0.02420185635630662 -0.37829182973357045 30 36 34
0.9447182298725754 0.024401549632705945 -0.3784366271615185 177 181 176
0.9903195698601721 0.02687404018537298 -0.3800358965914427 52 56 56
0.9760570200769393 -0.011447334765192056 -0.3778710099587602 56 62 62
0.9024641594472096 0.08981673641249645 -0.3798342124197662 35 37 32
0.8313363405716765 0.06612244682476538 -0.3814426550463213 171 170 171
0.8311557321579262 0.060627224059252104 -0.38041210060299796 177 177 177
0.8305431767397812 0.05993408213704432 -0.38054179514786735 135 135 134
0.8321977530710195 0.05520188245907263 -0.3797573565917909 102 99 95
0.8553802942160733 0.05782540963382884 -0.3801160239200988 29 32 31
0.8303935913039048 0.05394201578170115 -0.3792964256106411 111 111 111
0.8295088823935822 0.04924504349356287 -0.38236220343160915 174 177 176
0.8310839701274678 0.04639114041742325 -0.37963663539582326 167 168 164
0.8297860972634173 0.04600274145128576 -0.38009585343794006 175 175 176
0.830976218052083 0.02715000996774465 -0.3798913730316443 105 106 100
0.9084165886127874 0.024401805320395962 -0.37998624526738684 169 175 174
0.831218457011204 0.009457500131009983 -0.37877149782352776 164 168 168
0.8322542455189545 0.00781681448384776 -0.37910617248272716 101 101 99
0.859264581681825 0.0046356266001475865 -0.3791761847452658 162 170 169
0.8314781530893346 0.0022639751454812005 -0.37932321396000385 163 168 177
0.8311625393293434 -0.000684629306683372 -0.3785828822785982 94 97 95
0.8629844273092265 -0.0003188421490944408 -0.37959087579244744 160 170 166
0.8629844273092265 -0.0003188421490944408 -0.37959087579244744 160 170 166
0.8313133534173439 -0.008806180707004323 -0.3791183503575156 101 104 104
0.8307557543183524 -0.010188507434532661 -0.3786264618027392 123 126 127
0.8313719706513312 -0.01091531053683641 -0.3788991646795769 182 187 189
0.8313719706513312 -0.01091531053683641 -0.3788991646795769 182 187 189
0.8324113812467678 -0.027062265264207998 -0.37885107350897207 179 180 182
0.8319894592504592 -0.029952648801409267 -0.3783017248594629 176 179 180
0.832677433606148 -0.0324427543210224 -0.3782322427635703 97 93 95
0.9952885216774777 -0.036244385732984524 -0.3706114229119961 55 61 61
0.8306615472632498 -0.03473210428235766 -0.37868829204346544 174 180 179
0.8318418954578503 -0.035764406784911745 -0.37849910691285754 170 175 173
0.9213072725986768 0.06727432225715287 -0.38223588733953595 188 194 195
0.9630586567970192 0.04009272481670546 -0.3805179355974687 181 181 177
0.9018282892133351 0.03206719492205735 -0.3823529659704763 181 187 187
0.9674476711114881 0.036413091433068624 -0.37988913061292384 40 43 44
0.9568879655782285 0.032154276993381865 -0.38060428055582884 179 179 179
0.9308231643724654 0.010277194940779425 -0.3820546215990252 177 180 179
0.9910332564679615 0.012643451997654804 -0.37968721457012017 180 180 180
