ply
format ascii 1.0
element vertex 676
property float x
property float y
property float z
property uchar red
property uchar green
property uchar blue
end_header
0.8305550770097514 0.11105287202549077 -0.38841047297657694 191 191 193
0.8327563282946027 0.06248545474252403 -0.38517024730388055 177 169 171
0.8322433248482561 0.04333713874467387 -0.38445448761801126 187 186 188
0.8322433248482561 0.04333713874467387 -0.38445448761801126 187 186 188
0.9638729819807327 0.039871580271411286 -0.38140606096673946 178 184 178
0.9062427590954331 0.034762873097651616 -0.3817340857248413 29 30 26
0.887893705700136 0.02823456330575195 -0.3826111221372256 31 32 28
0.9586666518703411 -0.03344150511748704 -0.3820653822060822 40 50 53
0.9097761341105801 -0.03742555550365292 -0.3810161596876808 172 183 181
0.9718231534341734 -0.04292620451287161 -0.3809369439157671 45 56 56
0.9826803522766898 -0.05706629647514489 -0.3806335105244606 40 46 47
0.8666750607053869 -0.05561392150336047 -0.3822917252056029 175 181 183
0.8666750607053869 -0.05561392150336047 -0.3822917252056029 175 181 183
0.9416858023935482 -0.0986909909366196 -0.3833481814604797 28 35 32
0.8321682199710231 0.07186622284576324 -0.3838752353695108 187 182 184
0.919161552702927 0.015748961769082158 -0.38175613996664726 30 31 34
0.9714713241710515 -0.011351433650040014 -0.3794520146972515 177 180 181
0.9714713241710515 -0.011351433650040014 -0.3794520146972515 177 180 181
0.8330376203148944 -0.03595169581589302 -0.3835389738794242 168 172 171
0.9262534655947441 -0.06146741903365634 -0.38022324490384624 162 168 166
0.9930880101854357 0.06508731216508049 -0.3819407086432346 202 208 208
0.910013889637261 0.05037591750726061 -0.38319684159038614 190 196 196
0.890090217698925 0.04549990080403757 -0.38503211531965076 34 37 40
0.8899795927897474 0.045448829011892386 -0.38473275236465687 30 33 34
0.890090217698925 0.04549990080403757 -0.38503211531965076 34 37 40
0.890090217698925 0.04549990080403757 -0.38503211531965076 34 37 40
0.872967786003125 0.01279796093133005 -0.3837145013150582 25 28 27
0.8315898625900919 0.12101589102281497 -0.3817837188744876 153 149 152
0.8592649053946962 0.06186727319122776 -0.38149896137138983 187 187 189
0.8594337155605302 0.06206151855904501 -0.3822823943471161 193 196 198
0.9825609608594413 0.01646399149087555 -0.38126612203342064 62 67 69
0.904248664961228 -0.01697775643985264 -0.38021630209921536 25 31 29
0.904248664961228 -0.01697775643985264 -0.38021630209921536 25 31 29
0.9639927063247353 -0.02214973000730687 -0.3847721527994321 48 47 51
0.9639927063247353 -0.02214973000730687 -0.3847721527994321 48 47 51
0.8944628249611744 -0.0285367835493078 -0.38364651226649804 174 177 178
0.9513322998523891 -0.03370645883167444 -0.3820218025262584 46 52 53
0.9513192198113285 -0.03369277748392036 -0.3819998158633702 44 50 50
0.8713292173613597 -0.056946757148699255 -0.38073158463064377 29 29 33
0.8321343269185497 0.14037447155335803 -0.38725264273469634 155 154 154
0.8319121737494077 0.13076747795827326 -0.38554889409256193 186 185 181
0.8325143655630876 0.12077449972664342 -0.38719942690570186 204 203 203
0.8325143655630876 0.12077449972664342 -0.38719942690570186 204 203 203
0.9423772675488358 -0.00608937017572528 -0.3838302884838148 178 184 183
0.8587592884432564 0.0762350623397505 -0.38694554413739324 31 34 33
0.8983546288319855 0.034754266167752616 -0.3814964023397826 39 37 35
0.8983546288319855 0.034754266167752616 -0.3814964023397826 39 37 35
0.8323711392663149 0.011780336556777857 -0.38348555647195215 138 138 138
0.8330024953929411 -0.007903209253361486 -0.3844796707213896 136 135 133
0.9524068302616332 -0.0180350027520426 -0.3791195115818102 175 183 182
0.9524068302616332 -0.0180350027520426 -0.3791195115818102 175 183 182
0.8992124771587754 -0.019358504266424662 -0.38334561897184577 167 173 173
0.8971249490374136 -0.03149960770556643 -0.3838744132423375 159 168 166
0.8971249490374136 -0.03149960770556643 -0.3838744132423375 159 168 166
0.8323241347269751 -0.03244908687207913 -0.3812376197315434 113 116 117
0.872210300900656 0.06653902643285439 -0.3842172675680227 174 182 183
0.8324958426565239 0.05766653376102496 -0.38317129092162516 184 191 195
0.9597971290445232 0.06911670536103397 -0.3833079071879555 50 58 57
0.8792867423825229 0.019196550006446253 -0.38396911622037433 189 195 197
0.9286919343594684 -0.024485403341279483 -0.38180050333381677 27 33 31
0.9286919343594684 -0.024485403341279483 -0.38180050333381677 27 33 31
0.9674495076947368 -0.08603357193032231 -0.37964260878370215 29 36 38
0.9674495076947368 -0.08603357193032231 -0.37964260878370215 29 36 38
0.8325238867370972 0.0835075738984822 -0.38662860225725243 171 169 169
0.9103859051038853 0.05049036732810456 -0.38388093033631315 185 191 191
0.8957570743878162 0.03207441364719553 -0.3840174849395228 36 31 34
0.9300849919843727 0.009295381029198148 -0.37950083838041015 174 180 180
0.9300849919843727 0.009295381029198148 -0.37950083838041015 174 180 180
0.9300849919843727 0.009295381029198148 -0.37950083838041015 174 180 180
0.9381431545032848 -0.04636565731773371 -0.38227803926352516 32 32 34
0.9381431545032848 -0.04636565731773371 -0.38227803926352516 32 32 34
0.9355637545048805 -0.04934801438356131 -0.38240495591208723 165 171 169
0.9355637545048805 -0.04934801438356131 -0.38240495591208723 165 171 169
0.9624912689317606 -0.09219121104305356 -0.38181006936820644 31 32 42
0.9175416624083806 0.11166884659224972 -0.3836897554105212 37 40 43
0.868430264753041 0.07075991531752374 -0.3844353345007926 193 199 201
0.868430264753041 0.07075991531752374 -0.3844353345007926 193 199 201
0.9697966906166782 -0.03351004073813172 -0.3824247135411367 49 49 53
0.9697966906166782 -0.03351004073813172 -0.3824247135411367 49 49 53
0.8332754014201558 -0.03491488181527672 -0.38640828861748083 103 101 105
0.8332754014201558 -0.03491488181527672 -0.38640828861748083 103 101 105
0.8679775671028389 -0.06409358611502688 -0.38717446225536994 25 28 27
0.8679775671028389 -0.06409358611502688 -0.38717446225536994 25 28 27
1.0800083116480994 0.18270130419370775 -0.3894472429876462 83 79 84
1.0853853692264854 0.16896033775003041 -0.3974693103678466 111 108 107
0.8791222032301654 0.11295052025050369 -0.3891191705814092 32 35 34
0.9064003520499577 0.10935642172498214 -0.3839013430075714 42 42 44
0.9933364020665463 0.10327260537491793 -0.3841059045584868 53 64 62
0.8638273886010747 0.0664852232466926 -0.38316737760640407 185 192 193
0.9029718388979776 0.04128988547841606 -0.38406185121690956 25 31 31
0.9939345838167692 0.038389702429064455 -0.3822198903763883 53 64 62
0.8931835728177845 0.03545971036137116 -0.38398263712111186 174 183 182
0.9228701233368454 0.004700955628135117 -0.38265020419244744 172 183 181
0.8669179494061803 -0.055836550218673286 -0.38359196450965066 170 172 171
1.0893982047474449 0.1428353888772365 -0.38218186703039275 134 134 133
0.8646983549756642 0.10163100767920057 -0.3864192058486011 26 31 29
0.8646983549756642 0.10163100767920057 -0.3864192058486011 26 31 29
1.087922756936619 0.11589751548836849 -0.3837257751627812 147 150 150
0.8612815793972632 0.07321575224955781 -0.39510808308388357 36 39 40
0.9853279887102819 0.074923218733729 -0.380237868216144 55 67 66
0.8604251150063108 0.06266659749907388 -0.3850427168940025 181 183 182
1.0766149624191215 0.07438202290108817 -0.3806397406052206 93 94 98
1.0766149624191215 0.07438202290108817 -0.3806397406052206 93 94 98
0.8301507737374988 0.05416634585246661 -0.3836765245077085 190 193 196
1.0905407347248646 0.06522275557150761 -0.3866840555099497 97 103 105
0.9786868046739787 0.05145662174149303 -0.38252527027598254 56 65 65
1.080342349582931 0.05445706430725777 -0.3838659918533617 132 135 138
1.0876536347702603 0.04423016879109576 -0.3824503228188335 102 108 109
0.957881272202343 0.03998409579438773 -0.3818220394451951 59 53 56
1.080475247486861 0.030825610579447986 -0.3871292318858871 150 158 157
1.0830443269101775 0.01634189822278193 -0.38572104933854634 107 107 108
1.0856416804613407 0.003959570588128153 -0.38520052662501186 149 155 155
0.9057883740582653 -0.08318869395545152 -0.3817484557661715 22 26 21
0.8903213020580666 -0.09697637320294672 -0.3851990790812829 33 34 37
1.0695398909865217 0.1690439831083903 -0.3838511433921585 95 92 91
1.0655808175693804 0.1642444499580591 -0.3822611069229637 120 121 117
1.0824855631625132 0.1370068205622846 -0.3827210443870753 113 110 106
1.0744826043531248 0.13406801588723977 -0.3828820540665705 150 151 150
1.0782110346765832 0.10552453939133036 -0.3899834794952387 125 124 126
1.096326164542156 0.10104999097669189 -0.3863735340406173 133 139 137
1.096326164542156 0.10104999097669189 -0.3863735340406173 133 139 137
0.8322744852392346 0.07201586015478195 -0.3837251828282692 196 196 198
0.8322744852392346 0.07201586015478195 -0.3837251828282692 196 196 198
0.9375863794611567 0.07823546268723275 -0.3825318362362082 45 46 49
0.9375863794611567 0.07823546268723275 -0.3825318362362082 45 46 49
0.983394018169255 0.07870904692881966 -0.3833774445481075 59 65 67
0.9859118602130036 0.06431479308047346 -0.3815356936227418 70 67 70
0.9859118602130036 0.06431479308047346 -0.3815356936227418 70 67 70
1.0864382580448773 0.05481267698617862 -0.3838625103171976 121 127 127
0.9302330486736751 0.03743029380224244 -0.38614785343730634 27 33 31
1.0900253733637004 0.025040900732137505 -0.3895979526673336 155 163 161
0.8325945793322598 0.020335787812954635 -0.3828018912551402 169 170 172
1.102330895154539 0.01677989841904445 -0.3847376588336437 114 121 115
0.8736874432530465 0.013059337172083837 -0.3856280445228572 30 33 32
0.9686225851282287 -0.033470025823297014 -0.3805942310551266 49 53 57
0.8328264689718924 -0.03480992557466138 -0.38333120528950226 121 123 129
0.8328264689718924 -0.03480992557466138 -0.38333120528950226 121 123 129
0.9472771687168647 -0.06771024250515735 -0.3797161064848377 33 36 36
0.9170067469121882 -0.07421751892965957 -0.3817646028175247 24 30 30
0.9170067469121882 -0.07421751892965957 -0.3817646028175247 24 30 30
0.9568116563293547 -0.08891898254090123 -0.3832296123774336 192 198 198
0.906543655424967 0.09108216507304183 -0.38392213532438824 45 44 44
0.9061253417065304 0.0907784828194918 -0.3829183090293107 49 45 46
1.0882123801744812 0.0776625276757652 -0.38870793435062057 115 115 116
1.0993593165159052 0.048096422503862944 -0.3872739636860445 110 113 116
0.9613346891312057 0.04309915091178571 -0.381222091957191 47 48 48
1.0920317376551518 0.027803285359671675 -0.38557003368379494 106 106 105
1.0935188383769643 0.028037583741253508 -0.38722610262550106 104 109 113
1.079513576068685 0.02112136448673308 -0.38268628948367506 124 124 126
1.0815559061127145 0.007085727262662221 -0.3838745983535829 105 106 106
1.0815559061127145 0.007085727262662221 -0.3838745983535829 105 106 106
1.0993555295686346 -0.00047735463611897356 -0.39112562679188334 103 103 103
0.8691437523318642 0.0008835463348883446 -0.38548914567296894 50 49 56
0.9830931948430406 -0.05727093294790561 -0.3809191082653966 54 60 61
0.8963838186759133 -0.07803098661094644 -0.3839509748548781 31 31 33
1.0978980942136831 0.08878643055459161 -0.386483900656199 72 72 76
0.9933671261250144 0.07427597063385309 -0.380772402273262 59 59 61
1.08263708102237 0.035712617945300514 -0.3855701090399903 106 109 110
1.08263708102237 0.035712617945300514 -0.3855701090399903 106 109 110
1.0924424217344206 0.03542911459905756 -0.3863802028762608 114 116 119
0.9349545165935825 0.013115768960137822 -0.38182863991497873 193 200 206
0.9349545165935825 0.013115768960137822 -0.38182863991497873 193 200 206
0.920603580251178 -0.0012549695730422112 -0.38176176860624755 29 35 35
1.0010088309689267 -0.06469966316269656 -0.38116281452666334 55 58 64
1.0010088309689267 -0.06469966316269656 -0.38116281452666334 55 58 64
0.9048133588596323 0.09188390066906946 -0.3841259301471952 47 56 61
0.9626561774750134 -0.018242464704832304 -0.3821776301459577 192 199 203
0.8892400378919058 -0.033885850599125675 -0.3836698712652078 39 39 40
0.9277474666772662 -0.05043437713363273 -0.3826024909556614 54 52 56
0.9277518393406718 -0.050447584530983657 -0.38257007171393725 54 52 56
0.8722332663700613 -0.05737488195121729 -0.3837104528493219 50 49 56
0.8723199469939165 -0.057373815451119026 -0.38398948982322945 26 23 26
0.8320314567982484 0.12011595188861032 -0.3855831017916273 199 199 201
0.8320314567982484 0.12011595188861032 -0.3855831017916273 199 199 201
0.8917852516455677 0.0941013018489166 -0.38353178841052965 189 195 195
0.9933594825161149 0.07428425680798241 -0.38075140857779544 59 59 61
0.93167278047242 0.009676873516472109 -0.3827363936850634 182 188 188
0.93167278047242 0.009676873516472109 -0.3827363936850634 182 188 188
0.93167278047242 0.009676873516472109 -0.3827363936850634 182 188 188
0.9596175136334489 -0.05547530976002825 -0.38071943598974944 27 33 33
0.9913393776104857 0.0017934807226737848 -0.37962199374109595 202 205 204
0.832797166697377 -0.02532224702040994 -0.38300523107897017 175 181 183
0.832797166697377 -0.02532224702040994 -0.38300523107897017 175 181 183
0.9267976917493522 -0.061551346667276394 -0.38109740087700883 191 197 195
0.9637239218291003 -0.08090646582751626 -0.38051725081779936 200 203 204
0.9282881596510059 -0.08906341436843032 -0.3797337507620403 30 36 34
0.8837680342700717 0.08658104998600757 -0.38221543921382484 185 188 187
0.9216448677518826 0.06678971990714194 -0.3819527126854419 182 186 185
0.9216448677518826 0.06678971990714194 -0.3819527126854419 182 186 185
0.8566137324774438 0.05897144825786134 -0.3829997086435071 41 41 37
0.920641499186976 -0.0012054428449739185 -0.381759694717673 29 35 35
0.9300375494573114 -0.060981422750181584 -0.38141605711236887 173 183 180
0.8896391801051714 0.0452467052815842 -0.3836427117588578 29 32 34
0.8896391801051714 0.0452467052815842 -0.3836427117588578 29 32 34
0.8913284646616504 0.03962299042180685 -0.38350632469411955 180 183 182
0.8332564425766474 0.008442566446384216 -0.38331038952636837 115 111 112
0.9660346383008388 -0.02246832086121294 -0.381235701303589 176 184 181
0.9660346383008388 -0.02246832086121294 -0.381235701303589 176 184 181
0.8326052798442871 -0.037675439693058185 -0.38271037941962827 119 118 118
0.9950286446653092 -0.04962442765550924 -0.37865849504396654 32 38 38
0.8968997458714499 0.06890713047781892 -0.3829264698785414 17 21 16
0.8968997458714499 0.06890713047781892 -0.3829264698785414 17 21 16
0.8318340041858825 0.051961317654961925 -0.38369332252634314 117 115 112
0.9300465549036134 -0.0021481534485376856 -0.3811234188006322 33 39 39
0.8939714868112653 -0.028476113736368297 -0.38201561241964993 174 180 178
0.8958080523114288 0.10604691421310322 -0.3847153552327517 178 182 182
0.8323021548024397 0.091569842284872 -0.3858565909368598 114 114 114
0.8337447961549166 0.0902870453518883 -0.38547881754494084 185 186 186
0.8324552497407156 0.06058202159335196 -0.38590935120517517 186 192 192
0.8324552497407156 0.06058202159335196 -0.38590935120517517 186 192 192
0.8991079456572164 0.035044730715905824 -0.3829466136700344 34 35 33
0.9697728614377684 0.03640972834211892 -0.3832337187085033 43 51 52
0.919743525787514 0.01590347425683523 -0.3822985488789789 34 40 42
0.9232119608083739 0.008676439358266574 -0.38270800553718687 43 46 49
0.8327647303206654 -0.033740992133835704 -0.3825729690251762 170 176 176
0.8327647303206654 -0.033740992133835704 -0.3825729690251762 170 176 176
0.9924439831659728 0.07142500489132421 -0.380564070308053 182 182 182
0.9422487933018965 -0.0061435226682421675 -0.3833173502031383 176 184 181
0.9714547660501963 -0.01116490025342096 -0.37956709220775053 179 183 182
0.9471401763729821 -0.01124220973835609 -0.38084759938576745 186 194 191
0.8685648320543168 0.07085327986961269 -0.3851277654046241 178 184 184
0.8322036685091361 0.028049934016816543 -0.3847555125866729 104 105 107
0.8572049297359197 0.015395785091829099 -0.38395557531173186 28 31 30
0.8592154211959732 -0.0013092770366901186 -0.38598698256631686 21 27 26
0.9508108385718123 -0.015002688849913504 -0.3808706542785389 42 49 53
0.9513438008471299 -0.015101118468737408 -0.3817863192256407 42 49 55
0.8997422056462071 -0.019470975161638687 -0.3847611067128004 162 168 166
0.8319689148056919 -0.03260374532160614 -0.3820040522248238 92 93 93
0.8689165081855245 -0.05841228053486966 -0.3819541623938835 153 159 158
0.8689165081855245 -0.05841228053486966 -0.3819541623938835 153 159 158
0.860803670339231 -0.06190846122224564 -0.38310050787529504 156 162 162
0.962313581625135 0.10356430017992392 -0.3840781566355098 59 58 55
0.9683327581332595 0.10174043090711678 -0.38588745337815544 42 48 50
0.9683327581332595 0.10174043090711678 -0.38588745337815544 42 48 50
0.9552070710863622 0.09381741492863552 -0.38717714655389485 34 40 42
0.9552070710863622 0.09381741492863552 -0.38717714655389485 34 40 42
1.0036576234728758 0.07250256540409401 -0.3866816832554939 62 70 71
1.0011234231546846 0.06053437714430339 -0.38272124062372803 61 67 69
0.983085517651013 0.009077371104781832 -0.3821170093504302 46 53 55
0.9207107548262774 0.008611684231236025 -0.3836777897257955 26 32 31
0.8333876442765656 0.007858259321633258 -0.387722363622161 179 182 185
0.8331222684866153 -0.014964650897575585 -0.38476905376479176 177 180 183
0.933052738551045 -0.051873502200551765 -0.38259753114581024 169 172 171
0.9477372099248269 -0.07360300881680021 -0.38119514706899243 167 169 168
0.9987367008940421 -0.16321443325959034 -0.3899545905293823 19 18 16
0.8322739489351038 0.11074426953057143 -0.3863457855228506 185 184 192
0.8322739489351038 0.11074426953057143 -0.3863457855228506 185 184 192
1.0944247392485207 0.13574096268800087 -0.38643031466613864 156 156 158
0.8323555133860124 0.08887935697445057 -0.38604518578547153 132 131 135
0.926666629206693 0.0751780134880016 -0.38348220600460087 178 189 189
0.8306524487430288 0.06617197292038239 -0.3861687712877757 185 188 189
0.9422669786627289 0.0565646969304228 -0.3845954863465845 178 189 185
0.9422669786627289 0.0565646969304228 -0.3845954863465845 178 189 185
0.8899602529613823 0.04533824313214609 -0.3844276600284104 23 29 29
0.950977415392846 0.04697804542051108 -0.38187345863363725 33 36 37
0.8611601063703722 0.005149673711211112 -0.3842197686938455 177 183 183
0.8959609514147546 -0.018600985446679166 -0.3829750783773376 162 170 169
0.8354244210884612 -0.027955002799223538 -0.38495128476615303 173 173 173
0.8898910281746988 0.10810133999317194 -0.3848760201079407 35 41 41
0.9589732371848427 0.09474040705964996 -0.382992529829609 43 33 25
0.9786420736244261 0.08196618600853332 -0.3818681409672583 193 199 199
0.9786420736244261 0.08196618600853332 -0.3818681409672583 193 199 199
0.9790055330874634 -0.042463334230842406 -0.3811020955099786 186 190 189
0.9680349851253471 0.0910233144152238 -0.3810600622273358 57 65 67
0.9680349851253471 0.0910233144152238 -0.3810600622273358 57 65 67
0.9589541626432663 0.06863177994581807 -0.3818105173744812 36 44 43
0.9102021184299889 0.050452682879108986 -0.38333146048478234 196 201 206
0.9618598692583425 0.03201013442085721 -0.3814954164616773 55 62 63
0.8880092426396499 0.028257750834868117 -0.3819215746749646 43 45 50
0.9223238716215659 0.06699493530640806 -0.3830163841922825 184 190 189
0.9223238716215659 0.06699493530640806 -0.3830163841922825 184 190 189
0.869161411681242 0.00552602054678323 -0.38255311748111026 194 199 204
0.869314730822811 0.005550369014485283 -0.3829913800723299 168 174 174
0.9662509498378572 -0.02257690516073653 -0.3812908439204316 190 201 201
0.9662509498378572 -0.02257690516073653 -0.3812908439204316 190 201 201
0.9596951156147696 -0.0234328156959593 -0.3828739583898216 193 201 200
1.0016068237238611 -0.035410661550324275 -0.37879897614178676 43 49 49
0.9346592486020798 -0.05712304365953257 -0.3814804747893939 31 32 39
0.9346592486020798 -0.05712304365953257 -0.3814804747893939 31 32 39
0.9581660168833188 0.04001726435552811 -0.3823741311050567 62 57 61
0.8543463917729391 -0.012828679451509815 -0.38397510410867514 37 37 39
0.9731190079913352 -0.0736060891103705 -0.3809245759296741 189 189 189
1.079206209114893 0.08565239124256034 -0.38683546085097004 158 161 164
1.0776094988320195 0.05380247367126871 -0.3861103833157687 153 159 159
0.9644599403608962 0.039940230792505506 -0.3820906387840662 185 191 189
0.9214808275659252 -0.001196958445493523 -0.3833064680893999 31 34 35
0.8638970756807607 0.07432943289093608 -0.3839934037514606 175 186 186
0.8638970756807607 0.07432943289093608 -0.3839934037514606 175 186 186
0.8638970756807607 0.07432943289093608 -0.3839934037514606 175 186 186
0.9658466550574883 0.03219944034205631 -0.38163953161245057 182 190 189
0.9688121057774965 0.028739391268944394 -0.38137700095399313 57 63 63
0.9541235590831388 -0.01807142641650383 -0.3816829665324077 186 190 192
0.8329455464393531 -0.014971284691631058 -0.38406734586219277 172 174 173
0.8324611630599068 -0.017402248701976843 -0.3836391934126761 171 174 177
0.9303728006860608 -0.04895256770837253 -0.3815927479086192 182 196 196
0.9303728006860608 -0.04895256770837253 -0.3815927479086192 182 196 196
0.9927674109392006 -0.06191913497431758 -0.3799472955210885 189 192 194
0.9927179554126841 -0.061872636791182004 -0.3798732725607155 192 199 199
0.8319306267814952 0.11004860469248193 -0.38450400992739703 182 182 184
0.8319306267814952 0.11004860469248193 -0.38450400992739703 182 182 184
0.9894077677183768 0.07047012210485368 -0.380962505735551 77 70 79
0.9894077677183768 0.07047012210485368 -0.380962505735551 77 70 79
0.8329476218902523 0.02478798363697147 -0.38427213771789465 138 137 137
0.8680965647203376 0.0010335453405902653 -0.3832567599275247 36 33 36
0.8323202852444752 -0.00025725027096262456 -0.3833539445747603 101 101 103
0.8330109170256775 -0.03501061507045973 -0.3835032986406081 119 123 124
0.8330109170256775 -0.03501061507045973 -0.3835032986406081 119 123 124
0.9652735230860039 0.1067299946587377 -0.38377585259151453 182 182 182
0.8328292484824096 0.09857302978052802 -0.38471305892912827 133 133 135
0.8328292484824096 0.09857302978052802 -0.38471305892912827 133 133 135
0.8328665071782849 0.012659791619128433 -0.384744713357332 149 155 156
0.8328665071782849 0.012659791619128433 -0.384744713357332 149 155 156
0.8331688143183107 0.008384207383498933 -0.38321754101086924 108 108 110
0.8967034286291433 -0.03142958356265001 -0.3830447453728191 157 165 163
0.8967034286291433 -0.03142958356265001 -0.3830447453728191 157 165 163
0.8329600859002205 -0.032416298436983355 -0.3835656317755179 122 122 124
0.8930760491430176 -0.09313689352002544 -0.3841139348792673 149 155 154
0.9020279110582579 0.10505744924657437 -0.3829952180946332 186 186 182
0.9020279110582579 0.10505744924657437 -0.3829952180946332 186 186 182
0.9020279110582579 0.10505744924657437 -0.3829952180946332 186 186 182
0.9062784757630282 0.09091671157909911 -0.3838166490384933 41 44 43
0.9859713057734645 0.06424124434067954 -0.38154751317491314 67 69 72
0.9859068211103473 0.06427064094693379 -0.3813944710991302 67 69 72
0.9587094058103631 -0.022543213570566194 -0.38076492253259436 175 181 179
0.9366320359179736 -0.05895053133877378 -0.38112138823702696 29 35 35
0.9107865583602778 0.0876577344108662 -0.38518624444842736 185 191 189
0.9107865583602778 0.0876577344108662 -0.38518624444842736 185 191 189
0.9790485771779366 0.08759384093602011 -0.38363612910818357 72 75 76
0.8729639698003434 0.004147354187490754 -0.3849838736082641 167 175 174
0.9392663544811618 -0.0026036195968799736 -0.3846644188448398 45 51 56
0.8641463734102073 -5.742576994755075e-05 -0.38267006369289863 140 153 152
0.8641463734102073 -5.742576994755075e-05 -0.38267006369289863 140 153 152
0.9657211190469853 -0.019232113770456586 -0.38147423329823205 50 50 52
0.9657211190469853 -0.019232113770456586 -0.38147423329823205 50 50 52
0.8905893028573445 -0.01694285324483351 -0.3844077862802577 25 28 29
0.8904518449291975 -0.016942975943923674 -0.3841060391971762 23 26 25
0.8341695993226794 -0.03278193634542508 -0.3848136390891316 97 97 99
0.8340458383641933 -0.03269630510489781 -0.38406720131866123 89 86 87
0.8798393716136153 -0.07424165689563937 -0.383459906350946 25 23 24
0.8320021777752404 0.09568834436703447 -0.3844136186180331 147 147 149
0.8320021777752404 0.09568834436703447 -0.3844136186180331 147 147 149
0.884617483653452 0.08124208175565792 -0.383647511280123 31 34 35
0.884617483653452 0.08124208175565792 -0.383647511280123 31 34 35
0.9158821623199381 0.08166275383674446 -0.3830908428062356 182 188 187
0.8324926432190412 0.07491945386987153 -0.38510237455757207 187 190 192
0.9637174466140969 0.03196065537138801 -0.38262417038321195 42 48 48
0.9106975733295692 0.019288381117633556 -0.38444941253256176 25 28 26
0.9106975733295692 0.019288381117633556 -0.38444941253256176 25 28 26
0.8797336725805197 0.019190566048738058 -0.38539483689782084 166 177 175
0.9385288082571569 0.016036289733089112 -0.38389085426212793 33 36 37
0.9385288082571569 0.016036289733089112 -0.38389085426212793 33 36 37
0.9893056062353918 0.008599614485120163 -0.3821383853883741 54 64 67
0.9236325547743434 0.008685622892394834 -0.38348641200671557 36 34 36
0.9867823436502539 0.002122676397375543 -0.38207426320704596 55 57 63
0.9867823436502539 0.002122676397375543 -0.38207426320704596 55 57 63
0.9315377661474924 -0.0021463752576923456 -0.38332919213478434 38 40 41
0.9679512982263441 -0.016298194452271906 -0.38187497161783407 37 44 45
0.9679512982263441 -0.016298194452271906 -0.38187497161783407 37 44 45
0.8640623253510028 -0.05833092934762142 -0.3817143714029773 162 165 165
0.9968537729753061 0.06420110513120525 -0.38219136622963273 184 190 190
0.832583723152145 0.04897435837955614 -0.38572243790456784 117 116 119
0.832583723152145 0.04897435837955614 -0.38572243790456784 117 116 119
0.9735452052988972 0.025206588830505475 -0.383201321437467 177 184 182
0.9270587982939774 -0.0018229706896927174 -0.3823905157568831 29 28 35
0.832621868379068 -0.0023619853436758495 -0.38504802518619907 179 183 183
0.832123522679937 -0.003646226820609961 -0.3847614985796221 119 119 120
0.832123522679937 -0.003646226820609961 -0.3847614985796221 119 119 120
0.8325576960354463 -0.00736354521026158 -0.38489068735208215 120 120 122
0.9108162033606847 -0.011776124051571534 -0.38405428031651695 167 173 173
0.9679011451739084 -0.016271013921972173 -0.3817917589790934 28 34 36
0.99542012431537 -0.05896729889415143 -0.3812756220342672 178 178 178
0.9580373628254855 0.10590635322810403 -0.3824889197234213 43 31 23
0.9617625268434603 0.04313633178980704 -0.3821911123063766 33 33 35
0.8792024948489102 0.025218858383214936 -0.3840970613262391 29 35 33
0.8999256914327869 -0.02595729914009261 -0.38331987240723636 183 190 190
0.8999256914327869 -0.02595729914009261 -0.38331987240723636 183 190 190
0.8542673316556068 -0.03727320508009962 -0.3836648577505678 30 35 34
0.898282081661083 0.1001366821781569 -0.3848588547534757 37 37 39
0.898282081661083 0.1001366821781569 -0.3848588547534757 37 37 39
1.0803988638585162 0.1098590113240689 -0.3896039233697287 167 175 172
1.102372461053731 0.1077730105090506 -0.3888555518093899 130 134 135
1.0944934919306348 0.09502547002039444 -0.3843264282459902 141 149 148
1.0945182928916397 0.09503449173101294 -0.3843815668039861 144 152 149
1.0801578716806952 0.08239090117826878 -0.3879150006522737 160 169 168
0.8607180767368883 0.06592647327969965 -0.38347904842456276 48 35 35
0.8607180767368883 0.06592647327969965 -0.38347904842456276 48 35 35
0.9997738549587875 0.06002181842277985 -0.38083841439080957 67 75 76
1.0951034245926983 0.05903139667335844 -0.38533974870372756 150 153 154
1.1050334020274637 0.0593991571786025 -0.3918012011474447 133 139 137
0.9034766773956857 0.04155337666485267 -0.38472224125121574 31 34 35
1.0763907926651641 0.0408754484869043 -0.38461642810897456 158 167 166
1.1056612965775166 0.03195439233188415 -0.38675685925610087 110 110 110
1.1056612965775166 0.03195439233188415 -0.38675685925610087 110 110 110
1.0995924517257105 0.028519271309982906 -0.3833736860167437 121 127 125
1.1018445375343802 0.02716983024984096 -0.38835249830472013 93 98 98
1.1058881348668317 0.020112070078851758 -0.3865961274604847 92 90 86
1.088712212879614 0.0131543160354865 -0.3862145080470125 102 105 106
1.1068415964563425 0.009911815444302263 -0.3871383342714463 90 91 88
0.9660265664007135 -0.019432960576519397 -0.3822808496179732 50 55 60
0.9657936327172987 -0.019398631067889586 -0.38181947657009896 50 55 60
0.9923528042271494 -0.06194942676998755 -0.3795829030751893 195 203 202
0.9300403679358341 -0.057824837561924504 -0.3823263948607744 172 172 172
0.9486213171179227 -0.07395688964155751 -0.38262777454774777 194 194 194
0.9486213171179227 -0.07395688964155751 -0.38262777454774777 194 194 194
0.9176363828238954 -0.07468237454284073 -0.38301998411517096 25 28 27
0.9176363828238954 -0.07468237454284073 -0.38301998411517096 25 28 27
0.9065966365942153 0.10935026287801615 -0.3840418451842249 42 41 43
1.1021256685645033 0.0942881229953027 -0.3859448576474084 101 106 102
1.0801375178077566 0.08890668180125764 -0.3869533295770728 133 141 141
1.0801375178077566 0.08890668180125764 -0.3869533295770728 133 141 141
0.9835174734420667 0.009073069194568175 -0.38273384235972063 52 62 60
0.9890267310782734 0.008531265178293343 -0.3816252906631583 63 68 71
0.8684791602107836 0.008854225664995052 -0.3835643745875537 187 192 197
0.859682717207714 0.0035684184076458154 -0.3832969680571338 174 178 180
0.8929916041439756 -0.08155384846968328 -0.38427483249709277 178 181 182
1.0966800330931092 0.07615204039269347 -0.38471845366215535 138 144 144
0.8958321999287838 0.03583921578148947 -0.3828637208553226 197 201 206
0.9519849931358833 -0.0774936775077061 -0.3823061146930237 40 45 52
0.8979155857647714 -0.08539500891955673 -0.38492084479610145 31 30 34
1.0962919055233884 0.10286404121061998 -0.3869859553117822 140 146 144
1.095228426084904 0.08570272043851747 -0.38644307516275284 102 105 105
1.0820550962241842 0.08516666251467654 -0.38734005734151666 121 127 127
1.092073913142229 0.07082741408958584 -0.3875386668057912 145 153 150
1.0779364106694462 0.06089099539055923 -0.38664561932227814 166 177 175
1.1015321643805127 0.05977931059733333 -0.3860913737738696 101 104 105
1.0908119038926103 0.03928818151878214 -0.38574681944932043 97 103 103
1.0943996265076519 0.03807745550931039 -0.3856013374157202 138 146 144
1.0960142162670354 0.018704844508152622 -0.38529674666144786 126 130 126
0.9573293678647499 -0.020484976625269033 -0.3828933305399295 180 183 184
0.8997059132084573 -0.02592785829340615 -0.38262512292093576 195 200 205
0.8997059132084573 -0.02592785829340615 -0.38262512292093576 195 200 205
0.8318391375048121 0.10792473701134242 -0.38516617062706354 197 197 199
0.8323249901135856 0.07174977249579881 -0.38442764447443767 193 192 194
0.872229659000415 0.06653638012191233 -0.3840137674770676 184 190 192
0.9025107829081501 0.03184814946452314 -0.3830608701079499 178 186 187
0.9311086797357364 -0.002001551870535407 -0.3826798159336339 40 41 42
0.8342901897242642 -0.020462084757986516 -0.3843536894002413 128 128 132
0.8320109048784051 -0.0204306761311787 -0.38448097026723604 135 133 137
0.8729479381539 -0.053948095851840495 -0.38385104757769245 182 185 186
0.9540783686586504 0.10863790008860519 -0.38394935841487 41 49 50
0.9787316256349061 0.08220815971399055 -0.3820244821049548 183 183 183
0.8322460689259308 0.05009042302965907 -0.3849513651176406 183 184 187
0.8340216205182274 0.04765123100450251 -0.3846181996125008 178 184 184
0.9612431492830524 0.043156582766937575 -0.38110082170301585 52 62 60
0.9295429106731871 0.03732656559682596 -0.3845403875184906 32 38 36
0.9295429106731871 0.03732656559682596 -0.3845403875184906 32 38 36
0.9306912110048261 0.009375098377068312 -0.38197853086063005 179 185 185
0.9306912110048261 0.009375098377068312 -0.38197853086063005 179 185 185
0.970754223167373 -0.09650836853297913 -0.3825020418702884 41 43 47
0.8324110101026243 0.12295497235384469 -0.3868097065861015 181 180 182
0.9154357333369944 0.05588466716377221 -0.38226805519665424 173 176 175
0.8575358398781047 0.015361010370516855 -0.3848841674263953 33 33 36
0.8647466463422947 -7.342590016878924e-05 -0.38441699742738167 169 175 175
0.8647466463422947 -7.342590016878924e-05 -0.38441699742738167 169 175 175
0.9684908810223024 -0.016138316485899487 -0.3825937983562071 46 56 59
0.8334343949452624 -0.01596907138516803 -0.3861524228328484 171 174 176
0.8336792271229281 -0.03399233752176988 -0.386039767982184 165 171 172
0.8314455957399784 0.1319106661399905 -0.38307978848402097 160 155 159
0.8297617734151828 0.09725533977474568 -0.3840869341107008 197 200 201
0.9475370552805645 0.08760012881651563 -0.38302135901654955 183 189 187
0.8322368913126643 0.028116934904722075 -0.38480306157147626 119 118 120
0.9727835386538679 -0.011232068912261566 -0.38157667800603473 183 189 187
0.910999569170753 -0.011834116314246352 -0.3842597179979606 174 180 180
0.950435935816374 -0.03334795589394739 -0.3799638922167759 45 52 56
0.950435935816374 -0.03334795589394739 -0.3799638922167759 45 52 56
0.9894300239068052 -0.05291127229239144 -0.37955020239594056 42 48 49
0.9894300239068052 -0.05291127229239144 -0.37955020239594056 42 48 49
0.8609182092942246 -0.05393282030875687 -0.38380091566431934 160 168 167
0.8794651823794747 -0.06833759751384577 -0.3820487401899048 180 180 182
0.9586751690847338 -0.08455114994546868 -0.3813196004865865 59 53 56
0.9586751690847338 -0.08455114994546868 -0.3813196004865865 59 53 56
0.8325484944772984 0.10057599830807643 -0.3859507980709752 195 197 198
0.8541781077072249 0.08796871887472044 -0.38523597400718895 31 35 33
0.9476331703041957 0.08767054114279665 -0.38330127536699105 183 191 189
0.864283230025193 0.07459427276714689 -0.3851981884496074 181 185 187
1.0812900109165373 0.06982855579075492 -0.385989781877226 87 89 92
0.9464891911364101 0.019474724680398098 -0.379317157561963 23 29 29
0.9930995785207429 0.012297395279046278 -0.3823088135175543 176 182 182
0.8902788451122818 -0.016831223350107515 -0.38338955315878703 21 27 27
0.8968881019889026 -0.03147541767410776 -0.38362495787235207 161 167 167
0.8968881019889026 -0.03147541767410776 -0.38362495787235207 161 167 167
0.8543843026837918 -0.037344817329161686 -0.38437920243870727 28 32 27
0.9103522862194636 0.08747718138488575 -0.38409320298190064 197 202 204
0.8571314083161605 0.059309550409432886 -0.38406278310099273 41 44 47
0.8895589287482691 0.031037927458790637 -0.3834693555624793 83 65 63
0.8895589287482691 0.031037927458790637 -0.3834693555624793 83 65 63
0.9234160411946708 0.008839446556637516 -0.38305593095337453 49 44 46
0.8326686484646292 -0.012929353127912553 -0.384843195183917 160 156 161
0.9973351495915473 -0.049938457096977244 -0.3821853728140852 38 46 45
0.9306552215063322 -0.04913102520739353 -0.382279090708792 181 187 185
0.9306552215063322 -0.04913102520739353 -0.382279090708792 181 187 185
0.9275715379262627 -0.05035621613472049 -0.3825668040263187 50 47 46
0.9275753425673129 -0.05036338410100008 -0.38258472301817015 46 48 54
0.8581084627811059 -0.05753384642121949 -0.38395924055642644 35 35 37
0.9002635906179005 -0.08098719258710343 -0.38265345560116915 178 178 178
1.0881493507699955 0.14050020213706313 -0.3856758225557963 147 152 152
0.959350678986765 0.0985075886339527 -0.3839832914211306 50 55 55
1.0770244730111147 0.10582186086156233 -0.3858868750776315 162 168 168
0.9221001531615469 0.06694923017341077 -0.38262424115395066 184 192 189
0.9221001531615469 0.06694923017341077 -0.38262424115395066 184 192 189
0.9556347535738248 0.043305517654689527 -0.38295979520744217 190 198 195
0.9556347535738248 0.043305517654689527 -0.38295979520744217 190 198 195
1.1005017280970137 0.029376984014152258 -0.3870976800585384 97 96 100
0.9531366005168022 0.030045784660829123 -0.3838090842462526 41 47 47
0.9101875782314306 0.024852379982235103 -0.3826269019504709 191 197 197
0.9867426672962963 0.001761010639152049 -0.382469329623432 63 61 65
0.9312762810795021 0.0012872700180126008 -0.38282947562221925 48 40 45
0.9421418709546089 -0.006057335199762852 -0.3830052321701549 184 192 189
0.9486852007719125 -0.011397147595011788 -0.3837828116227951 190 196 194
0.9905797010570215 -0.05268269164005468 -0.38027269938596997 42 50 51
0.986359300994426 -0.0532308836570576 -0.38176803094276673 190 196 194
0.986359300994426 -0.0532308836570576 -0.38176803094276673 190 196 194
0.8669923836701238 -0.05595082257176065 -0.38423933203226784 185 185 187
0.8669923836701238 -0.05595082257176065 -0.38423933203226784 185 185 187
0.9419164269562665 -0.06847467489027935 -0.38161824553088175 183 189 187
1.0838125847259539 0.12087091321635596 -0.38796869577885834 153 157 157
1.098891586109591 0.08704523529165205 -0.38792200303020036 132 141 140
0.9517076394610506 0.047198919165519146 -0.3832595514179927 51 50 54
0.9517076394610506 0.047198919165519146 -0.3832595514179927 51 50 54
0.9898632891728226 -0.06089745383028196 -0.3807726740500309 54 49 55
1.100618197850255 0.0603263887223319 -0.3829935857133491 127 131 126
1.085013784744457 0.049881831722075484 -0.38624111050229876 159 165 164
1.0937276962966875 0.03310283526281853 -0.38353415883759895 132 139 136
1.0937276962966875 0.03310283526281853 -0.38353415883759895 132 139 136
0.906571296345626 0.028455541212117023 -0.3827833441864335 37 37 37
0.8641644819491978 0.008190789026901924 -0.3827462622349725 52 51 55
1.0845795676280658 0.09432825154189171 -0.3859700716328451 120 126 126
1.0845795676280658 0.09432825154189171 -0.3859700716328451 120 126 126
1.0932873841194977 0.06294341327682232 -0.3864993691031303 136 142 140
1.0769769465415977 0.059749108201703593 -0.39033294790072703 188 195 189
1.1050537944777994 0.05743427212575429 -0.38745737435990896 128 133 128
1.0933636159245979 0.037962533963452366 -0.3863829011295754 142 152 151
1.0940600820662512 0.03174945663073084 -0.3856653786420685 129 137 134
0.9687535992161537 -0.016269457188611364 -0.38303646828622706 40 46 48
0.9547903104243085 -0.018180649092788017 -0.3829777093838204 187 198 196
0.9547903104243085 -0.018180649092788017 -0.3829777093838204 187 198 196
0.8321678886625776 0.09139894009803348 -0.3854398110015878 133 130 132
0.8845186537817803 0.08712467519536748 -0.38399651277554325 182 188 187
0.8845186537817803 0.08712467519536748 -0.38399651277554325 182 188 187
0.9684037189992983 0.09116257371185264 -0.38148679564859284 46 49 52
0.864111579877838 0.07449873820859793 -0.38467357139187813 178 184 186
0.8640515853924259 0.07447120886484367 -0.3843945918642048 184 190 190
0.9795913995204311 0.056527217732639225 -0.3831206739121072 188 191 190
0.9788096098180307 0.05636846328905905 -0.3817725121499885 188 191 190
0.9029990496560996 0.04142146164392287 -0.3838914129468518 22 28 26
0.96430398162937 0.039902113534550476 -0.3816551622775688 180 186 184
0.8955152639997546 0.03943504865861194 -0.3837791658668077 34 30 30
0.9690879171653227 0.02868942806425758 -0.38161687771279657 43 51 52
0.8847884029858649 0.024725393513160124 -0.38314766205946876 178 186 185
0.8331586070782426 0.012773733633073445 -0.38658381654982277 124 126 127
0.8331586070782426 0.012773733633073445 -0.38658381654982277 124 126 127
0.9655427096352234 -0.01914892471784077 -0.3812286121104604 42 41 43
0.9658172658045346 -0.01918791733931864 -0.3817823118743164 42 41 43
0.9852532574102943 -0.0611383778953847 -0.3798802730057794 171 179 178
0.9852532574102943 -0.0611383778953847 -0.3798802730057794 171 179 178
0.8645286554227168 -0.06095163750909838 -0.3807911230801254 28 29 34
0.834308638812158 0.10997769190203956 -0.3876343419022192 191 191 193
0.8733416995367546 0.0753816932599793 -0.38570815790930274 27 30 29
0.8733416995367546 0.0753816932599793 -0.38570815790930274 27 30 29
1.088478361694769 0.03965894577091369 -0.38731147174004726 96 96 100
0.8327833874305566 0.03867403806542605 -0.38592702438710264 182 184 187
0.8339631036462999 0.028332229339736233 -0.386408331208302 115 115 120
0.8331529277288273 -0.021394621068944703 -0.38478315424219667 177 176 176
0.8358046127706764 -0.023566824362461703 -0.38511959907939647 172 172 172
0.8336571825515593 -0.030281236168903155 -0.384960881262359 176 176 178
0.8325443225767228 -0.0328054716784066 -0.3844877428143164 110 109 113
0.8325443225767228 -0.0328054716784066 -0.3844877428143164 110 109 113
0.8333261020329356 -0.034018218231768683 -0.3855287075476634 176 176 180
0.8333261020329356 -0.034018218231768683 -0.3855287075476634 176 176 180
0.9928953122450763 -0.06209490128799778 -0.38044796698494404 172 175 176
0.902934124128198 0.10561875211877479 -0.38515005802416785 192 198 198
0.902934124128198 0.10561875211877479 -0.38515005802416785 192 198 198
0.972747487194059 0.08780797022483883 -0.38250937708701466 193 201 202
0.972747487194059 0.08780797022483883 -0.38250937708701466 193 201 202
0.8327610048472827 0.0038808170144012987 -0.38444289086424643 165 161 165
0.8796043618299875 -0.011928161363752311 -0.38405883241059074 31 31 33
0.8796043618299875 -0.011928161363752311 -0.38405883241059074 31 31 33
1.093244405696606 0.11764302271713412 -0.3927880271576963 114 114 116
1.0931170950797442 0.09413715238336508 -0.38513797085419066 105 108 107
0.8724329106372889 0.06670629414450667 -0.38450451197907703 197 200 205
0.8724329106372889 0.06670629414450667 -0.38450451197907703 197 200 205
0.9941379382073456 0.07462732999814023 -0.3821182505553616 72 68 61
0.9941379382073456 0.07462732999814023 -0.3821182505553616 72 68 61
1.0912518924166648 0.07017651513077293 -0.38493323121396894 149 157 158
1.0817868392927008 0.06815039451094476 -0.3766539601374106 153 164 164
0.8545339661399126 0.04950296535988137 -0.3864773805325765 38 39 42
1.0818091993899552 0.05804599503612526 -0.3859148811492936 157 165 166
0.8918109991684129 0.031474715359704405 -0.3836012379678853 189 195 195
1.0911557636521703 0.037467097269481484 -0.38217381506547315 146 154 152
1.0771184174570365 0.036879526617932354 -0.385049125700505 171 179 178
1.0721751366373458 0.03154541313431049 -0.3842522107719225 188 194 192
1.092549664327718 0.03197930907664042 -0.3865693205228844 103 109 109
1.0795409111800263 0.02323097429953648 -0.3899559270786903 107 107 107
0.8545837853709557 -0.012838357107843654 -0.3851492515159697 32 32 36
1.0732133479009296 -0.026324968617875446 -0.3828309101290213 147 153 153
0.8792717294815071 -0.04321627362406221 -0.38260333277726083 184 187 188
0.8854623289502985 -0.07423178081442798 -0.38311814762904295 188 188 190
0.9577080581525422 0.10554855933786463 -0.3818817090145 56 48 41
1.097309584646856 0.11754813976228719 -0.38478615197381055 137 144 140
1.0772189497840035 0.10510842074308725 -0.3834154118363564 130 136 138
0.9475923818355624 0.08180876268066793 -0.3828404027764705 44 51 54
0.9792217069561421 0.08228006470607374 -0.3826053977468959 196 202 204
0.9792217069561421 0.08228006470607374 -0.3826053977468959 196 202 204
1.0818255199880236 0.09262556583093713 -0.38499920296372664 157 165 166
1.0747549268663814 0.0802463076986412 -0.3853012977031633 125 128 129
1.0980721234916977 0.06836108376040272 -0.3882954211560092 126 134 135
1.082993256422933 0.04702580367823152 -0.38053550348345977 98 101 102
0.8989679790004917 0.006777295544999116 -0.3858537741448072 25 31 31
0.8989679790004917 0.006777295544999116 -0.3858537741448072 25 31 31
0.8989679790004917 0.006777295544999116 -0.3858537741448072 25 31 31
1.099824279448357 -0.007038701396166215 -0.38109798713874127 126 132 129
1.086040921994301 -0.01886962573446516 -0.3854461498685442 147 154 155
0.9302708072034701 -0.024320927258295388 -0.38516394598667547 27 33 33
1.078924869032151 -0.031523699486697525 -0.38733349572513587 85 85 87
0.899229585785487 -0.02995141261446167 -0.3822468021281284 40 39 43
0.899229585785487 -0.02995141261446167 -0.3822468021281284 40 39 43
0.8720003679437722 -0.057303985538933254 -0.3827387750848878 41 37 43
0.8720003679437722 -0.057303985538933254 -0.3827387750848878 41 37 43
1.0981354896493012 0.08891987120797244 -0.38702101627379387 81 80 83
1.0808413175896552 0.08017763372469296 -0.3860209770770735 105 106 106
1.0815722863680761 0.07526373038426173 -0.3862376323761329 100 106 108
1.0815722863680761 0.07526373038426173 -0.3862376323761329 100 106 108
1.0881382699134623 0.05504688836720226 -0.3859329916822227 124 131 130
0.9028889700266264 0.03187053531709885 -0.38318906685292387 191 196 201
1.1008392896811054 0.03519392306281895 -0.38538320161625644 134 146 144
1.0840212625677115 0.03091396051488574 -0.38416112598077995 165 176 175
1.1026934140587006 0.016751980994841015 -0.3855341790336617 130 138 135
0.9730341580908195 -0.011321059795877934 -0.3818766593834764 194 201 201
0.9730341580908195 -0.011321059795877934 -0.3818766593834764 194 201 201
0.9684721951530525 -0.08664329433208481 -0.38106878882718287 40 44 49
0.9684721951530525 -0.08664329433208481 -0.38106878882718287 40 44 49
0.9609732005987082 0.10279373198308313 -0.3817684746731198 47 45 47
0.9160703305948463 0.08169862061895067 -0.38338487170881974 198 204 206
0.8976063598377416 0.06902309732748692 -0.38424303030004975 28 31 30
0.9678857951673853 -0.016256410544326257 -0.38146984059836453 51 61 64
0.9678857951673853 -0.016256410544326257 -0.38146984059836453 51 61 64
0.8914917087365579 0.09386910225675436 -0.3825215709541478 181 188 184
0.9021036159133408 0.09478553803324527 -0.3829078246141276 182 189 186
0.9105053705591035 0.08765116728386084 -0.38447405688939623 197 202 204
0.8635837430846 0.07406036901765649 -0.38238792564110075 199 202 206
0.8620327876555615 0.06283673202605773 -0.37960833066544314 199 202 205
0.9600965920600844 0.006645140417584371 -0.38297370995604957 34 42 41
0.9596428942223062 0.006590918598210618 -0.3821870271436908 22 28 26
0.9689950466688146 -0.03349847302667157 -0.3809883311073117 40 45 50
0.9967859164149399 -0.049837427111946414 -0.380883671063245 50 56 56
0.8748685618548229 -0.048347930785002914 -0.38482778834818193 29 29 29
0.8748685618548229 -0.048347930785002914 -0.38482778834818193 29 29 29
0.9547390120450232 -0.0807497136481975 -0.38129944393021165 196 199 200
0.9547390120450232 -0.0807497136481975 -0.38129944393021165 196 199 200
0.9579785845525772 0.0995643367018439 -0.38384847561961594 42 36 40
0.9579785845525772 0.0995643367018439 -0.38384847561961594 42 36 40
0.8675348322761881 0.07373573866681371 -0.3841714708509596 36 31 27
1.0845621804013361 0.08933691323520637 -0.38830137336005094 151 159 158
0.9258549455899774 0.06682438271411603 -0.38360601753364415 181 187 185
0.9258549455899774 0.06682438271411603 -0.38360601753364415 181 187 185
0.9937121099397728 0.07174638376498771 -0.38257818141248834 182 188 186
0.9066987099079372 0.02842392528751953 -0.38274152095350183 31 31 30
0.9994512441041412 0.014475616526329834 -0.3817150873694232 43 53 56
0.9312781924635465 0.009228364794857604 -0.3830438473927728 174 180 180
0.9312781924635465 0.009228364794857604 -0.3830438473927728 174 180 180
0.9312781924635465 0.009228364794857604 -0.3830438473927728 174 180 180
0.9619079555220122 -0.022183794826935076 -0.38080432292992883 41 35 39
0.9619079555220122 -0.022183794826935076 -0.38080432292992883 41 35 39
0.9793963383219835 -0.036831580191333396 -0.38119718144614856 28 34 32
0.9330852618577694 -0.05188016728898767 -0.3824757726419854 169 172 171
0.8609811318876331 -0.054080536809321525 -0.3843403828959005 167 170 169
0.9309069437404998 -0.06132793488318452 -0.38296355731930964 167 170 169
0.8580049058042248 -0.057666777742885166 -0.3836374755039417 30 30 30
0.9817019715361421 0.07789238926037335 -0.3805543061213568 39 42 43
0.9817019715361421 0.07789238926037335 -0.3805543061213568 39 42 43
0.8746924979488212 0.061151468350010105 -0.38531569187292614 32 35 36
0.8746924979488212 0.061151468350010105 -0.38531569187292614 32 35 36
0.8958071982358092 0.03203496113995189 -0.38357437536380606 44 40 44
0.8793386395100915 0.02533459858486087 -0.38443255841262775 35 37 33
0.8852478593419203 -0.037558560963672945 -0.38308187845388947 186 187 186
0.9380018179799119 -0.04634026332857923 -0.3816024172133838 40 40 41
