ply
format ascii 1.0
element vertex 678
property float x
property float y
property float z
property uchar red
property uchar green
property uchar blue
end_header
0.875101152373581 -0.00025735227176181273 -0.387981314035843 27 30 31
0.8731504024445974 -0.001773408540055128 -0.3808521334385621 27 30 31
1.0719576112205416 -0.0334188711497216 -0.37968840029754414 152 158 157
1.071568029922919 -0.03552582277039443 -0.37935803662274215 151 157 158
0.8326086173352404 -0.03265457377582295 -0.3804091138008422 132 134 136
1.0698972863797642 -0.051294861821729605 -0.379408226534267 119 123 124
1.0705840899927102 -0.05806095171042957 -0.37766890637114503 146 153 153
1.008280655709519 -0.15394982232844212 -0.38124505477996345 29 32 31
0.9904722827325769 0.07636551851119257 -0.373778426057554 66 72 76
1.003709142410748 -0.0118831362445149 -0.37987688742866704 67 77 82
0.8348949821160438 0.06331406315294177 -0.3951692741960761 184 190 192
0.8347452004901489 0.05260070920670836 -0.39470277821463917 169 175 174
0.8316808521682695 0.1018116800230691 -0.38177654412308454 199 200 204
0.8948215282023748 0.04275140186945318 -0.3796924021631474 180 189 189
0.885002806550697 0.018473394143387552 -0.38110868056343117 34 37 38
0.8312709564092636 0.017607833275937308 -0.3783363397637425 188 188 188
0.8939957033124752 -0.018629160629635065 -0.37647691809613515 179 182 181
0.8312559307375028 -0.020624417764945457 -0.3799196606658821 135 133 137
0.8322656885285157 0.09074841717321493 -0.3829583807500645 132 132 134
0.832293700378909 0.09100390045657143 -0.38434595479419736 114 114 114
0.831491645750654 0.07077377512506744 -0.38351002317626065 137 137 138
0.8298720506682595 0.06810475635986878 -0.3848401799803246 192 195 196
0.8320468217302265 0.027690039420233972 -0.3817178266520587 118 117 119
0.8548519968276335 -0.014284068591514888 -0.3805219284323389 25 25 25
0.8346917373143204 -0.027754934339782517 -0.37956943803448784 171 168 169
0.8883788969869097 -0.03404844676062492 -0.379739781451316 39 38 45
0.8331417154462437 -0.03425740668527117 -0.383307834665334 170 176 176
0.884363043982955 -0.04313663111443746 -0.3778403560014925 25 30 33
0.884363043982955 -0.04313663111443746 -0.3778403560014925 25 30 33
0.8586323754506104 -0.04841419889999154 -0.3795173101083507 27 27 27
0.9726383081764863 0.08155942530354808 -0.3813866616786282 42 47 52
0.9785240996975186 0.055609795996798925 -0.379958957418009 195 195 195
0.987784278822294 -0.14689270441601168 -0.3812506108361023 38 41 42
0.8307020819720171 0.07573371248424085 -0.3863235603882611 193 196 199
0.8434581199436086 0.06596592366820975 -0.3837372573428528 193 193 193
1.076421086670202 0.03023591514778771 -0.3825759963569462 145 147 147
0.9205290907424016 -0.0016106101345630488 -0.3799696983090713 29 35 35
1.0712795551838692 -0.009699174319095685 -0.3812593131579818 146 149 150
1.072946896790918 -0.020488905696387633 -0.38107479995217447 150 156 155
0.8320486552501188 -0.027996437982614267 -0.3815210190540811 134 138 141
0.8320486552501188 -0.027996437982614267 -0.3815210190540811 134 138 141
0.8309036654122471 0.0806472199389692 -0.38642774754813797 183 186 189
0.8330963440474703 0.060788498524905206 -0.3875600971137087 186 192 192
0.8330963440474703 0.060788498524905206 -0.3875600971137087 186 192 192
0.9475264047766219 0.0503400157084617 -0.3812666533463069 182 185 184
0.8333353246916977 -0.017856621758349924 -0.38678677943226186 171 176 178
0.8327509898195435 -0.03865190068156294 -0.3852060943561272 95 96 100
0.8302655950614443 0.08140036642090764 -0.3831882862169847 189 188 188
0.9130981724388404 -0.042235717648517954 -0.3734282614049659 169 175 175
0.9824608935928841 -0.14897413450051092 -0.37930424456354334 18 20 19
0.9628607025732667 0.14109003436323658 -0.39093840554253856 197 200 199
0.8849213088491285 0.055547365104440236 -0.38161375114395113 34 40 42
0.951043090049642 0.04511908055955023 -0.3810819023705858 41 38 35
0.915932099766513 -0.012180099760284906 -0.3796612649196988 32 35 37
0.9873709122784844 0.0020103151187651352 -0.38160205757901433 52 52 56
0.9873709122784844 0.0020103151187651352 -0.38160205757901433 52 52 56
1.0154367618708933 -0.05698828597180074 -0.37302246890738183 193 196 197
0.9753942664589033 -0.15570032991962332 -0.3733209112906683 26 29 28
0.9709550883992979 0.09195113232014494 -0.38416577917299033 62 58 61
0.9923144931926339 0.07100109747813746 -0.38364724578124176 77 70 79
0.9598489327460384 0.037150414526828095 -0.3829935083577177 56 58 59
0.9040352090560526 0.10615586870545785 -0.3860306362516432 180 183 182
0.8330435996586556 0.08634549573601333 -0.38748132579163364 183 186 187
0.8330435996586556 0.08634549573601333 -0.38748132579163364 183 186 187
0.8740818824251513 0.07563264682349276 -0.38626687711910795 24 30 30
0.9992311642193669 0.07188328815040347 -0.3830508365249663 76 79 82
0.8345954733990559 0.06305917023665247 -0.3866980517089069 181 183 182
1.00230111426994 0.060507815965131835 -0.38285569680640646 73 80 84
0.9528984798646104 0.047320691418244444 -0.3839318786348338 47 52 57
0.9572025120050057 0.04344812734746228 -0.38375874104601915 179 185 185
0.9825697542143873 0.02582021427376745 -0.38497968047809056 60 71 69
0.8566523913042889 0.026640721464660403 -0.3892627532417297 22 28 26
0.9693785300410483 -0.016585848306645962 -0.3830559507055476 46 56 59
0.8347063332922631 -0.012766488647890917 -0.38443250084422503 193 193 196
0.891647903154406 -0.01722167613642221 -0.3859239360803781 23 29 29
0.8345868090646299 -0.03321010506421211 -0.3861184864661525 90 91 91
0.8802234564472133 -0.03767669931190365 -0.3862016676213196 22 28 26
0.8322712973954013 -0.03780529108732841 -0.38605356524824525 169 176 179
0.9282584728639869 -0.058105556394528864 -0.3830553004070511 47 46 50
0.9374750525044852 -0.059370891182243236 -0.38185123408446503 29 35 38
1.0054864438663897 -0.0756096372718474 -0.3822233519769949 44 46 51
0.8865374859580661 -0.06959727150647223 -0.38503684131661503 24 27 26
0.8968671321762802 -0.08250655754764889 -0.3836636378654929 25 29 24
0.9050611153642905 -0.09548048603812816 -0.3829242293290361 24 30 32
0.8645610680482234 -9.884826299914201e-05 -0.3824708295833334 188 191 192
0.83262729351852 -0.00026820640402363036 -0.3833064463798236 134 131 135
0.8310944412577015 -0.009537851655177338 -0.3837259282139862 193 193 195
0.8795873049998985 -0.07377429809902186 -0.38132181019758193 25 31 33
0.9940405437970188 -0.1491306612192239 -0.375943328487451 21 24 23
0.8321475461951816 0.049501270965367 -0.3837190291698041 183 184 187
1.0019862578721954 0.049652403176567224 -0.37834564432278317 63 76 76
0.8339145355109718 0.04705715569926797 -0.3833586807428632 178 184 184
0.9544675750052465 0.042456286613593415 -0.37963871068655963 179 185 185
0.8329733944953677 0.03695610569824792 -0.3834574567207861 117 117 117
0.930157138170015 0.008753935399024667 -0.3799138365124259 179 185 185
0.930157138170015 0.008753935399024667 -0.3799138365124259 179 185 185
0.8350708951738082 0.009808934089610363 -0.38444252989683003 172 180 181
0.8596064438437916 0.0029024207345627927 -0.38245831755895365 170 178 177
0.8611321331644303 0.07368986165645335 -0.38243518798145065 37 32 24
0.9959857096342564 0.07044595946388216 -0.37867839434103534 48 43 43
0.9961509213080886 0.07051961494255184 -0.37886576774896535 81 84 85
0.9959857096342564 0.07044595946388216 -0.37867839434103534 48 43 43
0.8717245193317246 0.0656975713387078 -0.38090340861202376 178 182 183
0.924404371771522 0.0656288118474698 -0.3793465068225211 181 184 183
0.8304777119308681 0.049583342463749354 -0.3829151674570037 184 187 186
0.9056978499166708 0.027794497225715097 -0.3795101669304468 34 39 37
0.9835807212758658 0.004716756410798789 -0.37701931562186664 176 183 182
0.9247477071465567 -0.056988094568414846 -0.3754336707808358 45 45 51
0.934014768569727 -0.058508461408078194 -0.3747549299108707 29 35 35
0.9257833999528698 -0.061363081195427736 -0.37659371536336717 172 180 179
0.9400123964053145 -0.06818293460112776 -0.37672704360880765 175 181 181
0.906492386215577 0.10871306953956461 -0.382729279315109 42 41 43
1.0939114617427583 0.08937630364422276 -0.37978174478760945 107 106 108
1.0939114617427583 0.08937630364422276 -0.37978174478760945 107 106 108
1.0895558999762063 0.034510230196897425 -0.37899012477514715 161 167 168
0.8891035674550858 0.03041334830189788 -0.38093926538702727 83 65 63
1.0899756070472835 0.01570314840935967 -0.37990364964038076 85 88 89
1.09164593491836 0.013448725402399294 -0.37978472158051135 157 163 163
1.0835980195232022 0.0125183200218309 -0.3792393566139393 94 97 100
0.8849758614329034 0.018402501282776075 -0.3808758251144822 34 37 38
0.8976627346666751 0.006146185988398526 -0.3814537461942582 25 28 27
0.8976627346666751 0.006146185988398526 -0.3814537461942582 25 28 27
0.8976627346666751 0.006146185988398526 -0.3814537461942582 25 28 27
0.9529131808569915 -0.03314854071226399 -0.3774450535699283 37 36 42
0.9855880136735679 -0.1489557622251519 -0.37898732551993 32 32 32
0.8790863648737796 0.08087000315772007 -0.3828593259188953 193 198 203
0.87323135970649 0.07467334593109846 -0.38326610534110744 32 35 36
0.8609205696339876 0.06525911468624371 -0.3820783142094165 56 45 45
0.937029819508038 0.05896242815924891 -0.3797420346301973 34 35 35
0.9159015680560156 0.04947191463032858 -0.3804539831154105 29 35 37
0.8896149968023254 0.04470064486969021 -0.38155132227992034 34 37 40
0.8724391493879744 0.0038855013938239066 -0.3812824307873225 189 195 195
0.8791503097298436 -0.012252712615105292 -0.38094587416540826 31 31 33
0.8637091053699592 -0.02497775709419074 -0.3813805511803325 28 31 30
0.8846682334140253 -0.037702353362156216 -0.3797076022645299 186 187 186
0.8789328799727553 -0.0433379526958078 -0.3802051075928398 186 186 186
0.9875211632381521 -0.06067310720342618 -0.3757727383395876 48 44 49
0.9835977860389932 -0.06368850518061171 -0.3755629197779069 38 44 54
0.9260864916683132 -0.05747616832142659 -0.3779428082272802 46 45 50
0.9356196646144704 -0.05910709223970548 -0.37748286034075307 28 34 33
0.8972418519982029 -0.05570015148162136 -0.37941244330166285 22 25 24
0.8972418519982029 -0.05570015148162136 -0.37941244330166285 22 25 24
0.8882598671093197 -0.07724598988578266 -0.37886395208351753 29 32 35
0.8647740052272959 -0.08888717345547409 -0.380468704768426 21 25 24
0.8647740052272959 -0.08888717345547409 -0.380468704768426 21 25 24
0.9796465243864707 -0.14996039783159873 -0.37808022050050555 30 31 31
0.8905364470779662 0.029569868378138645 -0.38824214570176346 58 42 39
0.8905364470779662 0.029569868378138645 -0.38824214570176346 58 42 39
0.8624652840616784 0.010393689480541332 -0.39146607203908207 192 194 200
0.8625622338190271 0.0036414697359784137 -0.39087421981536924 192 195 198
0.861736246369528 0.002057353638385697 -0.3922586010714735 188 191 194
0.861736246369528 0.002057353638385697 -0.3922586010714735 188 191 194
0.9202971682153606 -0.013729592124784628 -0.3921357824736636 34 35 37
0.887853309035144 -0.013783060089531176 -0.3924039562883339 192 194 200
0.9026375851519483 -0.027947178388868447 -0.3918409328600353 186 191 192
0.9026375851519483 -0.027947178388868447 -0.3918409328600353 186 191 192
0.8698910051482607 -0.05869183972220197 -0.395533681584452 185 185 187
0.9143597508381797 -0.0712916067311808 -0.39393463649085486 29 32 31
0.8888557070875891 -0.07753473985128466 -0.39511163072155403 185 188 189
0.8553976440116718 0.08741035489510492 -0.38773293474121817 35 38 37
1.0865172179053322 0.10582967224858125 -0.39215191681429856 153 161 159
1.0758694481846816 0.10174996841311575 -0.3906471652335809 196 199 196
0.8627757851118629 0.073299929736389 -0.3909532097853221 45 34 34
0.9509993696769122 0.08136705447437821 -0.3908353342153831 44 51 54
1.1029022295845388 0.09575606990751291 -0.39457761527513585 144 152 149
0.9835292867015802 0.08204894065012455 -0.39112933491699253 196 202 204
1.0930556817067405 0.09330781829945711 -0.39279284882773813 116 119 120
1.0018683002641426 0.07784804806528198 -0.38999684625706466 62 64 69
1.1103753053218597 0.08704999014757735 -0.3964123452851303 137 145 142
1.1011823217456491 0.08213125306775168 -0.39696815853319406 153 161 158
0.8803987123117061 0.05461438874042212 -0.3889895150386578 197 200 203
0.9899530930575787 0.06342936023671521 -0.38986701109288463 74 68 69
0.9506338511527248 0.05560853193457017 -0.38860064201303796 40 49 50
1.101212100638189 0.04086151813525887 -0.3958794090479809 141 152 151
1.0981748365518076 0.03901563242795666 -0.3971040435743407 150 161 159
1.0981748365518076 0.03901563242795666 -0.3971040435743407 150 161 159
1.1022551565979857 0.031384481112988964 -0.398267837156452 103 109 109
1.1142671164983478 0.031189992122498508 -0.39717367893973415 119 123 117
1.084995505832656 0.02879141481896509 -0.39563646954396514 168 179 177
1.098751616050388 0.028553761767610597 -0.3943727179009349 104 107 108
1.093579962976251 0.017605100286974814 -0.3960797950457617 154 162 159
1.0960319995475956 0.01578153208012825 -0.3980177643023613 158 165 164
1.098726288692485 0.014205457154001079 -0.3949151288397989 109 112 111
0.866158202413679 0.0066072609725082105 -0.39076440817723046 49 48 57
1.113952688001115 0.008416686404768461 -0.39595618427066614 96 96 92
1.0913352874368827 0.007725023770703805 -0.39643065342157596 111 114 113
0.9017853652286091 0.005273532271692317 -0.39471879749536937 25 31 31
1.101766818315644 -0.0027178433301847005 -0.39727233291491026 157 163 163
1.0939976107072493 -0.005727966956001792 -0.3987964865143313 114 114 110
1.0961586682527082 -0.022954765204152853 -0.3951209997306311 100 103 102
1.0961586682527082 -0.022954765204152853 -0.3951209997306311 100 103 102
0.8952156119035032 -0.021471465319602177 -0.3920597966981961 47 41 40
1.0881661900803419 -0.032222196757842964 -0.3963157622370698 142 150 151
0.9956913033558566 -0.048767533934891014 -0.3920292286635461 49 56 60
0.8608844257722285 -0.06060621966636365 -0.3963010974340171 32 31 38
0.870008688603453 -0.06681484473956117 -0.39521568116239236 26 26 26
0.9067840349547706 -0.08474142400657321 -0.3931845262449456 42 41 40
0.8744105265847428 0.07368796921187758 -0.38885130153166203 29 35 35
1.0125850130517353 0.080977519012322 -0.38877585700880035 198 205 205
0.8918676457400407 0.04407398016479479 -0.39059207672949964 35 38 39
0.9589864372759488 0.04223395502017737 -0.39033622353989816 196 202 203
0.9835161466405898 0.018603123988303518 -0.3906972120501642 195 203 202
1.1027648837726212 0.017206146573770623 -0.3940765681836674 136 144 141
0.8680082038669343 0.01222504029413863 -0.390698255128024 31 34 37
1.1056375160793959 0.003552335874762175 -0.39996499954130627 98 101 102
0.8601605710298711 -0.0028484793883447176 -0.39134193149724117 35 38 41
1.080429045880836 -0.005791418250646708 -0.3964465072303303 193 198 196
1.0933249778187515 -0.009033295856874474 -0.39769619362931985 103 105 111
1.0933249778187515 -0.009033295856874474 -0.39769619362931985 103 105 111
1.0964976919507556 -0.011756207943389784 -0.3983655072321302 153 161 160
1.1078793428505986 -0.013623866433379539 -0.3981840741454716 132 138 138
0.977655475103406 -0.013103470996024411 -0.3913728453003821 194 201 201
0.9417520081334508 -0.06545092182410842 -0.39355063482263636 32 35 36
1.0036865649322357 -0.15751019410516806 -0.40194666095961484 26 26 26
0.9951972100222128 -0.16495888247530047 -0.40000908345661107 34 33 33
1.0948386631866847 0.0931589248453829 -0.3983583199930222 123 127 128
1.1050438812144756 0.08894395041334908 -0.39561119076477125 83 88 87
1.086949699268648 0.08017092735920933 -0.3971115524256445 169 177 177
0.8807799456271725 0.04871513864696718 -0.3912977643770305 33 33 35
0.8807799456271725 0.04871513864696718 -0.3912977643770305 33 33 35
0.9505374500665795 0.055307280440873616 -0.38894081435480526 42 49 50
1.0857478714212945 0.07096893829367658 -0.3949781608261925 164 172 171
0.955481717731566 0.0464825778275721 -0.3917174781303607 51 50 54
1.079481677766078 0.05390439933404277 -0.39472758785317624 190 195 194
1.1054693622040657 0.04721667247851313 -0.39529218630368423 112 120 119
0.9666714353279988 0.034415418770565816 -0.391174465004915 47 53 53
0.855260682704821 0.024433813156266405 -0.3873591745320469 37 40 41
0.9699047683900246 0.031046440938391765 -0.3900940225023683 190 200 203
1.095171903243186 0.03760269043922275 -0.3919066955336631 100 104 107
1.0976072191231516 0.032362746866588875 -0.3959377695961428 148 156 155
0.8813687961561475 0.017771529233355628 -0.3912882264061129 197 200 203
1.1001937229343264 0.03130826064795284 -0.39852754937012547 151 160 159
0.9516563055493305 0.01867082806839166 -0.3916912199496533 46 51 54
1.110317350535783 0.02574008245318751 -0.3958386962686913 128 136 135
1.1147914503175067 0.02197316284923582 -0.39740017642806497 98 105 100
0.9885962608111041 -0.0028451952534124204 -0.39038648248290425 58 70 69
1.1017573615914775 -0.00266748322819231 -0.39814012105829116 154 162 159
0.887686775925213 -0.013843097119121983 -0.39198541206043114 192 194 200
1.1055772605522718 -0.018172782926903837 -0.39925921421479565 145 151 151
1.1063868405825517 -0.019778593881103056 -0.3983060849518768 102 107 108
1.113312021986089 -0.0200769673801474 -0.3979992759646282 101 105 101
1.0818000126509382 -0.03129994895471046 -0.39634723556204576 136 139 138
1.0884010330337748 -0.0321957361263866 -0.39754902069422193 176 186 189
1.0844651062809196 -0.03547045978079465 -0.39702971172734497 165 173 174
1.1101939709955768 -0.04933825427164301 -0.39792483363687875 124 130 130
0.9427157136692391 -0.04900962448596909 -0.3928587804880127 48 47 51
1.0941739335273448 -0.06232180065267912 -0.39904372283358974 88 88 91
0.9656500192418898 -0.058451561745082634 -0.3934782625476873 35 43 42
1.0056842454202561 -0.06508404468023343 -0.3937044118871302 187 198 196
1.0056842454202561 -0.06508404468023343 -0.3937044118871302 187 198 196
1.0925511402047698 -0.07049618789972092 -0.39665342611425425 87 88 90
0.8672705577646654 -0.06443621761135403 -0.39378680041712405 37 36 41
0.8884926355051256 -0.07749165557605646 -0.39416585961466316 185 188 189
0.8888715946351244 -0.0457025884588862 -0.394157787033833 33 36 39
0.8888715946351244 -0.0457025884588862 -0.394157787033833 33 36 39
0.9207676169597853 -0.07157694503458817 -0.3935670261198357 181 187 189
0.8885274701480216 -0.07154180037445453 -0.3933805536017713 30 35 36
0.9147370735387348 -0.07736707110433469 -0.3938381211258745 182 188 188
0.9682505267633025 0.09219447700893116 -0.38246084252187645 36 39 38
1.0002964639142624 0.08996736863015005 -0.37943590205333755 75 86 84
0.9816409350478629 0.07985813097641226 -0.3825798120805065 61 69 70
0.8451782434676007 0.05918517947007772 -0.38487362866739844 179 185 183
0.9992908095014729 0.060824129156123084 -0.38055399694876524 70 78 81
0.954635019179629 0.04371481588246055 -0.3819177652976892 181 184 183
0.9588377909286528 -0.08688120666464004 -0.3763922510114143 191 194 193
0.9195167152305812 -0.0011012356663683308 -0.3806366442117919 26 29 28
0.9521281246915035 -0.029878407062338738 -0.37839569254869027 167 173 171
0.9392079395874142 -0.04208651864923531 -0.3779003172430782 169 170 166
0.8680142973783552 -0.05830988707518171 -0.3812330731723723 142 150 147
0.9021379181452504 -0.08066391147464011 -0.3738630379577281 22 22 22
0.8298934438965551 0.12940397544184395 -0.37254832748446143 189 188 188
0.8297737693479128 0.13091120686823596 -0.3763483505787648 178 176 174
0.8299834244181478 0.12138944371202688 -0.3916430683140202 189 188 188
0.8303070373436716 0.09305694738125232 -0.39724960115539265 186 189 189
0.9148430896438785 0.08824253127075102 -0.38326832163916347 26 32 30
0.9094549288877773 0.08249298085025893 -0.38616847245304525 28 31 32
0.9094549288877773 0.08249298085025893 -0.38616847245304525 28 31 32
0.8322405521468293 0.06520881077245456 -0.39991010725881176 183 182 183
0.8322405521468293 0.06520881077245456 -0.39991010725881176 183 182 183
0.9634254260316578 0.04560730615850756 -0.3789748965644254 30 41 41
0.8319304487070388 0.03764143357752655 -0.3995672865752341 178 178 180
0.9910539305436324 0.017572562370481392 -0.3735411112320804 52 62 65
0.9794269277578428 0.013600944632058359 -0.3763313244668562 48 61 60
0.9396721390068584 -0.011195286276418923 -0.3788493717021854 19 27 28
0.9253753812344545 0.07521604860594315 -0.382416073396805 152 163 159
0.832707993288573 0.029950707708174845 -0.3820981875691767 127 127 127
0.8325240062249274 0.027770515611616448 -0.38203905233946045 93 92 93
0.8318285239615654 0.026952441071639008 -0.38194858521462277 164 167 168
0.8307954664740906 -0.0037698650273886125 -0.3817246745623112 80 86 88
0.8778878442653714 -0.012612531818993277 -0.3836596741266671 12 18 16
0.8297157197024901 -0.029839715966941877 -0.3824965488100832 157 163 164
0.9884038343756207 -0.05260210126543826 -0.378031361226853 42 48 50
0.8680112440161081 -0.05828409013423316 -0.38141204684121044 142 150 147
0.8783616077041649 -0.06820819921838563 -0.3808725379609355 142 150 149
0.8783616077041649 -0.06820819921838563 -0.3808725379609355 142 150 149
0.9683798176306166 -0.07674302955582805 -0.37956622176543775 26 35 36
0.8537309419053941 -0.0751011621327117 -0.38074565274555006 16 20 15
0.8911299007961578 -0.08072286888130056 -0.38072591968049097 159 162 165
0.9755693695637228 -0.15823397314580886 -0.3760784319218834 11 18 12
0.8306789125494038 0.07871054824325296 -0.3832012024723186 182 182 182
0.8322331313167766 0.06919618882422388 -0.38195798461934827 134 130 131
0.8308845638082486 0.06484928412222558 -0.38172168194437617 176 176 176
0.9233177297071276 0.06641090944970558 -0.3796761519267517 182 183 179
0.8311638061520271 0.045603705390960224 -0.38235015197556804 124 126 127
0.8317588777247077 0.04381300660672042 -0.3815715686693407 115 111 112
0.8293821055334606 0.03698171043349221 -0.38098276772524764 178 184 184
0.9663327244151303 0.02841468509808395 -0.3779986925211666 59 69 71
0.9092299318322273 0.019704945251246844 -0.3814442302228119 15 18 17
0.977206424183563 0.020196463716003303 -0.3796180781291428 181 182 178
0.8839624630951256 -0.005611464904674265 -0.379272982578764 11 17 15
0.8839624630951256 -0.005611464904674265 -0.379272982578764 11 17 15
0.9725128016647038 -0.0072702147888917025 -0.3785292414816126 55 58 57
0.9725128016647038 -0.0072702147888917025 -0.3785292414816126 55 58 57
0.833060941089221 -0.0129550773230366 -0.37894500708280676 156 162 164
0.9601428531920049 -0.024807031480093084 -0.37958351109213784 40 46 48
0.8295017811718733 -0.023051927626394342 -0.38151302410734245 170 178 177
0.833025688255727 -0.02483889056549824 -0.3800376597761369 110 116 118
0.8294927142554165 -0.02541279844850764 -0.37848446525590457 155 166 166
0.8783023850257868 0.08751611073181428 -0.38489360032531633 30 31 27
0.963957247471415 0.03220245926672997 -0.379426967869782 146 161 158
0.9147267703970632 -0.03679063534316744 -0.3795993072171836 27 31 26
0.9894714946560558 -0.14076042334483235 -0.3721746052730724 40 28 37
0.9976195690143433 -0.1585752254748314 -0.3763850975131398 15 14 16
0.8828632415112809 0.024249862988843095 -0.3801687620201224 167 175 172
0.9405768004775241 0.025152310545448458 -0.3814413790514128 47 55 54
0.933406755367335 0.013183394146279752 -0.3799780817071004 170 173 172
0.9813918517308204 -0.1476951892326327 -0.37934250053362817 20 23 22
0.9987812183334288 -0.15580230016515714 -0.3788435310471044 22 19 21
1.0052233074549286 -0.15767108730983403 -0.38008670803231953 20 26 24
0.9531706209486887 -0.029900090176477354 -0.3800912367679912 183 186 185
0.9673344880839775 -0.03312537243882994 -0.3787834423781162 39 41 44
0.8839627804865844 0.08821775110796709 -0.3862840127127209 195 195 197
0.9104359510111152 0.08875849197790289 -0.387060671803775 181 187 184
0.8842459193074872 0.0830613255516582 -0.38761162917099334 34 34 36
0.9607870359944578 0.0378115666507457 -0.38713089971612263 41 47 47
0.9568515866821979 0.03236936041158179 -0.38067085304729303 179 179 179
0.9803874503154497 0.025702482274142277 -0.384309946123397 54 62 61
0.9382025760060602 0.01635800133317061 -0.38467967933233727 33 36 39
0.9317478457031994 0.009644883976015307 -0.38609150852218127 169 174 174
0.8713610017864114 0.004486844468053768 -0.3822842776593479 176 181 183
0.9767371811130293 -0.03655423359186874 -0.37793152071383296 33 39 39
1.0736907381055858 0.0710056397678915 -0.3835790422684383 123 123 123
0.9631512323289488 -0.019077875575223696 -0.3781960565013873 40 41 41
0.9521303027880682 -0.029929344570811832 -0.37836156806742166 184 187 186
0.9147033741446514 0.08177004839256972 -0.3826987205695449 182 188 188
0.9352932360980903 0.05918513259171932 -0.37888585149958676 34 41 35
0.8944358664477592 0.0357374593656638 -0.38152583366934845 172 178 178
0.9757674708382436 -0.005615246782019763 -0.37662796865892056 184 190 189
0.9757674708382436 -0.005615246782019763 -0.37662796865892056 184 190 189
0.9137383257773005 -0.0057687068962614324 -0.3782644754958521 159 168 165
0.9137383257773005 -0.0057687068962614324 -0.3782644754958521 159 168 165
0.8882625872650488 -0.016479979652019937 -0.3800266581911355 23 26 25
0.9508952726583783 -0.03200637862812502 -0.37606869487085226 35 38 46
0.9687478206252337 -0.04113465010446455 -0.3749251429896844 29 35 36
0.9237407056606701 -0.04881145374741661 -0.3760498277636265 24 27 26
0.9237407056606701 -0.04881145374741661 -0.3760498277636265 24 27 26
0.8706169162506652 -0.05673480911207636 -0.3801112089765686 26 25 25
0.8706169162506652 -0.05673480911207636 -0.3801112089765686 26 25 25
0.9465583665980439 -0.06841673907021732 -0.3797412192602725 21 27 25
0.9158214148533783 -0.07425421602391753 -0.381206359977959 20 23 26
0.876031369689808 0.11204917876785621 -0.3867678640601717 26 29 28
1.0620122718180525 0.08395333083233314 -0.3685025399654634 88 91 92
1.059536493278977 0.07874201882005313 -0.36887463800033443 119 123 122
1.0615723551923304 0.0685484619606847 -0.36941681022227174 119 125 125
0.9891624554386405 0.04759842958027097 -0.3758993206069139 59 70 69
1.0660698462581548 0.0452153852129087 -0.3761436812103279 103 103 104
1.0624177375306891 0.03804039274682251 -0.37056790452225125 120 126 124
0.9563593894064175 0.02941981153474133 -0.37989804722098436 36 39 41
0.9110286736813233 0.020658314050431677 -0.38635147006562987 21 24 23
0.8851268939970868 0.020607031874174748 -0.38688772728683074 23 29 29
0.913445351286728 -0.0424626232916211 -0.3762732550866591 154 160 158
0.8903425528218913 -0.07909984921794178 -0.3675475970939566 24 28 23
0.8493464598611135 0.08181100835382335 -0.39077145164248694 187 187 187
0.9783358049991064 0.07743844533498782 -0.37834432558129427 40 40 41
0.9949177708511563 0.026191174469848418 -0.37657907000293017 58 61 62
0.8336871646687593 0.13708279643806695 -0.38747666563264394 183 179 180
0.8306359793335488 0.11409660509265518 -0.3839932650727248 199 199 201
0.8775401622640697 0.08584143575637704 -0.38140639042840246 27 27 27
0.883314695462071 0.08202436704202022 -0.3839297668222737 29 32 33
0.9077569458044918 0.08010440653485579 -0.3800123500133481 29 29 29
0.8833072710447207 0.055454705087136 -0.38068410205238123 24 27 26
0.8315475584638397 0.040278752691706284 -0.3825543714776981 148 149 150
0.8311545273807528 0.03694114523275512 -0.3834401914062666 195 195 197
0.8314998547579657 0.03590754783785432 -0.38293244273422433 117 114 111
0.8313414347996706 0.03209111203873543 -0.3814825413707606 189 189 189
0.989912831261456 0.03789314775140699 -0.37713960783415934 53 61 60
1.081777259869636 0.0405805613963586 -0.38577468432204 119 123 118
1.0717635248901316 0.036556474427038306 -0.37945321412579425 120 126 124
0.9397581893445309 0.024922125791663696 -0.3800026340575704 26 33 28
0.8844803678030969 0.0195131629297559 -0.38425826518127715 20 23 24
0.9371717664468351 0.016413478115241274 -0.38198725461008914 31 34 33
0.8324204869740293 0.004855103383183775 -0.3827339815680417 132 129 126
0.9307951245716087 0.009912632435322637 -0.38337592780117935 164 170 168
0.9578211627759216 0.006658004295421312 -0.3803081967876518 25 31 29
0.8668630676045884 0.0010097786795675925 -0.38179649321590375 31 31 25
0.988548100896451 -0.001077712770062317 -0.38013538908510497 55 59 59
0.8300700577606837 -0.012320176590304342 -0.38335887586008444 183 186 188
1.075934345141812 -0.0058411338930948855 -0.38506609545324477 132 136 135
0.9410031969391084 -0.011137872601027108 -0.3818199684286177 28 31 30
0.9896532551161735 -0.01996672424226046 -0.3781746154078434 52 63 61
0.9547696387569652 -0.025934919676701085 -0.380366580073852 32 35 38
1.0720543080744687 -0.025706349894707617 -0.3824383979736109 127 130 131
0.8308858790073645 -0.034814415288317885 -0.38285633781782713 174 180 179
0.8308182559394278 -0.0348766259726892 -0.38175383306688426 174 180 179
0.9103383610944258 -0.042427019993475326 -0.38286128286454857 20 23 22
0.9232871854848386 -0.060418521477377175 -0.38152356644016305 32 27 25
0.9815434633995493 -0.06437355393159572 -0.37921290615969583 41 49 49
0.95077755145812 -0.07689382654140105 -0.38058099050540706 29 34 36
0.9932921119720359 -0.08876055185528703 -0.3813687464130246 27 35 34
0.9787728178260465 -0.09760314798672279 -0.37684479565387974 34 42 39
1.0057631068743085 -0.14977512252346104 -0.3754582543637323 19 20 20
0.9882502484966695 -0.1501776161875715 -0.3840505599259609 36 40 35
1.0047313663436703 -0.1523736430035723 -0.377597011015713 26 26 26
0.9884520532968066 -0.15450274001307682 -0.38138793706403523 30 37 31
1.0055682059006936 -0.15769796347249124 -0.3812186557874273 28 34 32
0.9960373791867376 -0.1611169492378293 -0.3848922279737323 13 20 14
0.9960373791867376 -0.1611169492378293 -0.3848922279737323 13 20 14
0.8326296645226181 0.13314031709480165 -0.38182976710144995 202 205 206
0.8309402828304789 0.12539267790809155 -0.38499515972021425 136 132 135
0.8321198432365317 0.12163077755988766 -0.38481171233844297 147 143 146
0.8310567321182171 0.11711129818695556 -0.385290279734167 204 203 205
0.8308253826009432 0.10009001886866163 -0.3842173039588459 186 182 185
0.9015376443244012 0.10552290755403332 -0.38370637813663816 188 188 188
0.8325535565745764 0.08877483617136957 -0.3823434135842658 198 197 199
0.9075353641260809 0.07995389742558029 -0.3796861847761057 29 29 29
0.8309891544935839 0.06493940765186101 -0.3819503917701286 184 184 183
0.9084367349320749 0.05543743870743996 -0.38080526994423214 23 27 26
0.8771704594639675 0.04907402363614185 -0.3808402509132476 25 25 27
0.8771704594639675 0.04907402363614185 -0.3808402509132476 25 25 27
0.9139284479257117 0.05006582606597301 -0.380620845423142 24 27 30
0.9487869092019209 0.04661609317458052 -0.37957600028070954 31 37 37
0.9633212899451203 0.03182869614065939 -0.37840633383769745 177 180 180
0.9389472910069069 0.024489694144568627 -0.3784635255039255 30 36 34
0.9389472910069069 0.024489694144568627 -0.3784635255039255 30 36 34
0.908147075390278 -0.00654800884706313 -0.3785120315476208 25 31 29
0.9141240806244165 -0.011362654440746307 -0.37971932068122766 24 30 30
0.9141240806244165 -0.011362654440746307 -0.37971932068122766 24 30 30
0.976535404725181 -0.011178018612191783 -0.3781043795330106 56 62 62
0.8307876980684693 -0.026055096951779107 -0.3803985034886859 112 114 111
0.9525272810799387 -0.0298701060096272 -0.37898349621218363 167 173 171
0.8295843247190491 -0.03005009054112055 -0.38196534912458124 174 177 179
0.9054707072306989 -0.03384259206505895 -0.3797618190432899 21 24 23
0.9085355954287003 -0.03721191441753013 -0.37912037672945215 167 177 170
0.9814172969103266 -0.04552677662650006 -0.3793614421493377 56 62 64
0.9790151465949765 -0.1536166921451491 -0.3764842929005246 18 18 18
0.8308290222953152 0.11560016130776163 -0.3833975001070848 179 175 172
0.8313019853033132 0.09754022025737645 -0.38427856526934895 181 179 180
0.8316486491593403 0.07875136084686746 -0.38227090624111926 115 110 105
0.8291672539908715 0.07082481461300358 -0.3818220261204679 178 180 177
0.8311028357841211 0.061294499084311616 -0.38232699265208503 177 177 177
0.8304903146513601 0.060604547162062275 -0.38248561639561873 135 135 134
0.8668994414919341 0.00857594734829608 -0.38061511400426695 162 170 169
0.9142143829719558 -0.006258033513404541 -0.37942244558090427 165 171 169
0.8307606903131507 -0.010060168150031941 -0.3806423384953294 108 110 110
0.8308279274554374 -0.027809210651849953 -0.3800343286781839 120 124 124
0.8310803716528059 -0.03061271206047787 -0.3804090463562446 156 163 160
0.8851342332164813 -0.06761914731711825 -0.3816809194897095 21 24 23
0.9948834210123741 -0.1490485200325691 -0.37885382913902904 22 28 26
0.852783249236705 -0.0737343876128797 -0.3804128061360447 24 24 25
0.8315784975013432 0.1001325274228083 -0.38471811228614233 177 177 178
0.8320433336806391 0.07187728079013227 -0.38183307830699287 137 134 130
0.8568628438692417 0.07546746911816826 -0.3830870237004897 25 31 29
0.8305965246192348 0.06900042496004236 -0.38197232065656644 176 175 173
0.8309982996033588 0.04887196814644165 -0.380986597725407 173 175 175
0.8303898384956535 0.04432078609591447 -0.38049911598355285 157 160 161
0.8964316381547266 0.042902149973010284 -0.3799239217782385 34 33 26
0.8326496778415229 0.030901840123508877 -0.38107425541259127 143 143 143
0.8301743823229183 0.02816303677637532 -0.38090015749170403 164 170 170
0.8290061303325038 0.02025703425444055 -0.380129485102034 170 174 173
0.8312823991820696 0.0113386979323609 -0.38059796582636257 116 119 118
0.8311736036460291 0.00860384517259979 -0.38024836063877443 161 169 169
0.8305406482087948 0.007914301739372496 -0.3806939506896605 109 114 116
0.8313683296460949 0.0036480378367185896 -0.3808013007503813 141 140 140
0.8313683296460949 0.0036480378367185896 -0.3808013007503813 141 140 140
0.8305647480421394 0.000582781913924401 -0.3806011237652478 117 123 125
0.8308693575682545 -0.002728119529330109 -0.38041419933592024 160 171 171
0.8305870390171416 -0.003920156090530419 -0.38021995930151964 99 100 96
0.9450315589699558 -0.006192688249802834 -0.37883189401937895 42 49 49
0.8313162531314641 -0.01746496558263608 -0.3805460193731979 165 169 168
0.8306697915754139 -0.01820118590717881 -0.3798343071434831 110 113 112
0.8316311429593989 -0.01827943710779713 -0.3802540387825612 102 105 105
0.9945573140676709 -0.012450896159631502 -0.37689542692863093 68 77 77
0.8338008616029366 -0.028004785733383223 -0.37985828133160865 158 161 160
0.8316905568901276 -0.032328444182053204 -0.38065150535185144 112 116 113
0.831925332884218 -0.0336678374097143 -0.38057784655997434 151 159 158
0.8318643685588185 -0.034816431866007296 -0.38060195541488934 73 72 72
0.9523831241399469 -0.03248366879387894 -0.3791164177865157 45 44 46
0.8304818369506235 -0.037187436052311645 -0.38023509338113853 161 171 173
0.8682453156690826 -0.058341736474594556 -0.38088349375317604 143 153 149
0.8879085635326688 -0.07706716478230664 -0.3811029071697378 18 21 20
0.8852432327991235 0.10558509623181814 -0.3825927943449396 32 35 36
0.8904922996693755 0.10300405756562059 -0.3810431912564619 198 201 202
0.8853431022487626 0.09789505269590724 -0.3785279263364351 30 33 32
0.8977249600259408 0.10273428777317324 -0.38183627049105934 197 201 204
0.8977249600259408 0.10273428777317324 -0.38183627049105934 197 201 204
0.8933444092455206 0.0976411697146105 -0.3826174978091433 31 34 33
0.8933444092455206 0.0976411697146105 -0.3826174978091433 31 34 33
0.8866623487412932 0.09144430875071782 -0.3803901038191579 198 201 202
0.8835509913667444 0.08845172240213725 -0.38203491920446914 39 41 43
0.8835509913667444 0.08845172240213725 -0.38203491920446914 39 41 43
0.8796143552942527 0.0847453628219102 -0.38104449238639165 196 202 204
0.8796143552942527 0.0847453628219102 -0.38104449238639165 196 202 204
0.8566544521270091 0.07204390749347372 -0.3805141290170224 53 37 34
0.9230255218376991 0.10014507156242206 -0.3818971076671655 27 33 33
0.8746013255457065 0.07943656027523138 -0.38239122870155706 199 199 201
0.8746013255457065 0.07943656027523138 -0.38239122870155706 199 199 201
0.8594146661242297 0.0723226610994557 -0.3808705335234048 197 200 203
0.8626850031012754 0.07144265582164933 -0.3803768621427859 44 44 46
0.868770821490945 0.07343653462756189 -0.38279689808619777 29 35 37
0.868770821490945 0.07343653462756189 -0.38279689808619777 29 35 37
0.9480369757934011 0.10561577716959644 -0.38117381887909846 49 60 60
0.8598003766913875 0.0684375772141357 -0.3810380578372631 45 37 42
0.8637530318550755 0.06867676665890778 -0.3813359646794154 196 198 204
0.8561746915644503 0.06373358132591228 -0.37975113965245605 49 41 45
0.8561746915644503 0.06373358132591228 -0.37975113965245605 49 41 45
0.8635924795664259 0.06469645391831483 -0.38147184960589214 44 45 49
0.9497377478338515 0.09887545753541453 -0.3814219148184534 199 202 203
0.9497377478338515 0.09887545753541453 -0.3814219148184534 199 202 203
0.8553988340688182 0.060514277953877905 -0.37986654652850504 198 198 200
0.8583816572892378 0.06156931008151068 -0.37953697786266 199 199 203
0.8676175798660859 0.06459822266427251 -0.3812780887735269 195 198 201
0.9052101838970767 0.07960192183915439 -0.3817116069539996 30 33 32
0.8523633403948117 0.05734793848894872 -0.37991149653506356 45 45 45
0.9524725352532825 0.09706254685049734 -0.38250525843173544 60 57 59
0.9524725352532825 0.09706254685049734 -0.38250525843173544 60 57 59
0.9108926056289076 0.07950238994235274 -0.38134943608681254 195 201 203
0.9536322646635642 0.09597833839675074 -0.382412027338707 58 66 67
0.8705956593306018 0.05997851704843422 -0.38710381434502406 30 33 34
0.9523561127122673 0.09162642427918362 -0.37979037909821006 65 72 72
0.9215126480166669 0.07302871363359408 -0.38178647605031846 195 201 203
0.9311977430491745 0.07509809584440566 -0.3848102930772813 198 204 204
0.9254713252196058 0.07237238652911838 -0.3814744115131783 49 49 52
0.9254713252196058 0.07237238652911838 -0.3814744115131783 49 49 52
0.9296778386927547 0.07322132730103173 -0.38197027884076307 193 199 200
0.967563027347002 0.08551070496788474 -0.3823765820858555 196 202 202
0.8749792378204332 0.048863444403814786 -0.38333447664935216 29 32 33
0.9253493430658258 0.06484197109773449 -0.38057105084090215 38 42 45
0.9253493430658258 0.06484197109773449 -0.38057105084090215 38 42 45
0.9299691295536057 0.06183547183083987 -0.3831260204300265 32 38 36
0.8854954099053467 0.044002322289407814 -0.38310898233599777 31 34 33
0.9059002556170398 0.04904508034018534 -0.38312473059125657 194 199 200
0.9059002556170398 0.04904508034018534 -0.38312473059125657 194 199 200
0.9332265331540028 0.058105504029677665 -0.38266974325391345 52 60 61
0.9332265331540028 0.058105504029677665 -0.38266974325391345 52 60 61
0.8869714836147289 0.03826432909017897 -0.38213277509255666 192 195 196
0.8908072341156772 0.038051985095331066 -0.38175015001477547 45 45 49
0.8984646253414407 0.039986875101897634 -0.3829345599689009 27 33 31
0.9920741890161899 0.06942912794909158 -0.38183376556254284 94 99 104
0.8884997508296522 0.03430345579213891 -0.3821772875458025 192 197 197
0.8917452818583592 0.034503834327215106 -0.383025614417762 190 196 198
0.8945155447535192 0.03368643992376972 -0.38179102416882105 44 47 50
0.9427055325040078 0.04922765099932647 -0.3822540205368313 198 203 203
0.8866221877929702 0.02998164724081858 -0.3806703748469478 191 194 194
0.8527636580200851 0.014415073513531216 -0.3812948899846828 35 35 37
0.9239687515915398 0.03557975435521314 -0.38240371054058275 30 36 34
0.8742087960975546 0.018023925930709395 -0.3810064346648311 191 194 195
0.8564487520603952 0.010928360235672093 -0.38258476026091703 190 190 192
0.8805597423176234 0.018052419899976694 -0.38218011717716244 32 32 32
0.8715681570516772 0.014847706328645172 -0.3823085908230081 27 30 29
0.8715681570516772 0.014847706328645172 -0.3823085908230081 27 30 29
0.9056623380136809 0.02349249934232581 -0.3820355526550587 190 196 194
0.9112677309410835 0.023814024587341595 -0.3810457474301773 36 40 39
0.859785416593408 0.0071724996454864826 -0.38064793442252876 39 38 40
0.8639272271698861 0.007798434962501654 -0.3815529171315115 190 190 190
0.8562772960750044 0.00412454623036338 -0.37995425599691246 192 192 194
0.8562772960750044 0.00412454623036338 -0.37995425599691246 192 192 194
0.8670235713479644 0.006575316085213709 -0.38081773672007835 50 46 44
0.8670235713479644 0.006575316085213709 -0.38081773672007835 50 46 44
0.855414490610375 0.002817504315320134 -0.3811385911843425 188 188 190
0.8552854648713247 0.0025571322278852447 -0.3812524542709083 187 187 189
0.8552854648713247 0.0025571322278852447 -0.3812524542709083 187 187 189
0.9112077419672833 0.018298066669690596 -0.38135800764953887 190 196 196
0.9112077419672833 0.018298066669690596 -0.38135800764953887 190 196 196
0.9348606260836697 0.02391455332324061 -0.37902581928586004 49 57 56
0.8569475704351237 0.0002865693420229863 -0.3817438782370506 39 30 40
0.8569475704351237 0.0002865693420229863 -0.3817438782370506 39 30 40
0.9847572564176222 0.036089245545834064 -0.376581072716889 80 86 86
0.9632651825513948 0.0270312177797484 -0.38006843572917737 68 75 79
0.9724792897845643 0.018460007394252142 -0.37910312635272775 201 204 203
0.9185238371086468 0.0004442160311575554 -0.3809446902793896 48 37 43
0.8744854535245257 -0.013225495168610784 -0.3825718824570276 24 27 28
0.9258928152872746 9.249659675060992e-05 -0.38101896176720745 55 49 55
0.9163517055946427 -0.002472887220875854 -0.3815653518087024 33 36 35
0.9052096051314402 -0.007228402375955607 -0.3811570711865756 32 35 34
0.9256675561594101 -0.003424343710844864 -0.3804962852427803 45 45 48
0.8858524043048608 -0.017838002757421645 -0.38281155805569544 29 30 26
0.9052346659043787 -0.012710415678746135 -0.38123462744667896 187 190 189
0.9052346659043787 -0.012710415678746135 -0.38123462744667896 187 190 189
0.9434961817408491 -0.006382252543555163 -0.3806674327715263 41 47 47
0.9014804068964859 -0.017973418881028533 -0.3842383911808533 28 31 32
0.887306283400953 -0.02340988433755559 -0.38230020719147 184 184 184
0.9654165896340515 -0.006905847934777427 -0.3781537021967071 56 59 62
0.8894324488628403 -0.029042337054023426 -0.38057319422501107 186 187 185
0.871285758750781 -0.04705294565183507 -0.3810474207156391 25 23 24
0.871285758750781 -0.04705294565183507 -0.3810474207156391 25 23 24
0.9713908439691147 -0.0377021116986966 -0.376131411625804 48 48 50
0.9161122983566217 -0.05319935837497714 -0.37421320127985747 181 180 182
0.9532584735000718 0.10772510031981718 -0.38447850566768826 46 54 53
0.9566976455734244 0.10443386177437192 -0.382605942256801 61 62 59
0.9547701615628835 0.1008281578113795 -0.38460078717751756 196 202 200
0.9547701615628835 0.1008281578113795 -0.38460078717751756 196 202 200
0.9599842343334057 0.10187920812485632 -0.3828896065193731 63 61 65
0.9599842343334057 0.10187920812485632 -0.3828896065193731 63 61 65
1.0869629684102566 0.10661137315130738 -0.38380154495552427 78 81 80
1.0881130509112513 0.10489711829692933 -0.3875885711463567 92 98 98
1.0831139940892616 0.09466109566186034 -0.38635769807332637 118 124 122
1.072091152105598 0.08798427050496027 -0.38273990314370165 125 131 131
1.0716530401968705 0.08459359157887152 -0.3856075580368591 100 99 101
1.0926133900919721 0.08616896989522652 -0.3852985498912011 64 64 63
1.0818716671658222 0.0808393267465634 -0.3834403143619598 114 120 120
1.0769086707796527 0.07463863599449219 -0.3828901639905188 124 130 130
1.0728837168217682 0.07140607762044596 -0.38679397598492304 111 111 115
1.0785751813616504 0.07202604932451791 -0.3840838774214958 121 127 125
1.0771169897759025 0.06775143474873828 -0.3854886377765555 90 96 98
1.0851408238381826 0.053876155816765366 -0.3839298514923486 109 112 111
1.0777710861778096 0.04379447009292657 -0.38307816279437895 117 122 122
0.997091163339715 0.02712193274767077 -0.3803060532137258 81 92 92
1.075419032982021 0.037724376940618226 -0.3839315199136051 130 132 134
1.075659128716453 0.034001006604604755 -0.38553211998890186 135 135 137
1.0760773926413387 0.030019379222101034 -0.38318954691185786 107 107 107
1.0694810951956568 0.022566528501742095 -0.38421618508107214 124 120 121
1.0730491449601804 0.01888701205029583 -0.3839244156541608 129 129 131
0.9872079519339295 -0.05746269253655346 -0.38001987639504914 202 205 206
0.9590067821987899 -0.0801326667572398 -0.3767225976393577 202 202 208
0.9075937206311325 0.08050362773464455 -0.3803164999684165 28 31 32
0.9558326365925172 0.02932288820444467 -0.37902233313292505 51 56 58
0.9754745141035339 0.019857322460401016 -0.37710037662917034 176 179 180
0.8317402252183185 0.11063490004920105 -0.38618633902271776 148 145 142
0.8313337283387687 0.10731460772971686 -0.38433457296098894 189 188 190
0.8308792466627526 0.08482408177697189 -0.3861974614089876 134 131 128
0.8323742358665491 0.08364322240705828 -0.38783511784462554 181 181 180
0.8316531540719472 0.08089385191702804 -0.38488460248186795 177 177 173
0.8323216881425135 0.06297777900032239 -0.38536220345648753 121 120 116
0.8323216881425135 0.06297777900032239 -0.38536220345648753 121 120 116
0.8313409424495374 0.033471771210846823 -0.38178052296568493 171 174 173
0.832885527980906 0.031178197911730713 -0.3825457735075202 127 134 129
0.8319835175812673 -0.0018467440265543535 -0.380942148298572 125 125 127
0.8301926805665242 -0.0032317104495254772 -0.37998467225858557 181 181 185
0.8303574049178153 -0.003990664964046865 -0.3790723859242576 101 100 102
0.8328467328721549 -0.013547421551646168 -0.3803263718814142 175 174 178
0.8310698230843883 0.0911493537569283 -0.3802675828163548 186 184 186
0.831774488863152 0.08489122032915165 -0.3799598420716146 141 137 138
0.8653210887776751 0.07110051669419325 -0.3773514997432439 37 36 36
0.8322348685076464 0.052765115300997 -0.37897408511839603 120 116 113
0.9175131089486385 0.06130634966769907 -0.3675494260302121 181 189 186
0.9175131089486385 0.06130634966769907 -0.3675494260302121 181 189 186
0.8310383598857463 0.047141872214415334 -0.37859307786084695 124 120 118
0.8803408467159776 0.04664387087611001 -0.3718231460007118 182 188 190
0.8288422525268321 0.022235107082222053 -0.37704646596147057 186 188 189
0.8749694088606309 0.022500823277929103 -0.3722280568129903 24 29 25
0.8805863657934877 0.022477559540995833 -0.3726173635270466 180 188 187
0.9031875233819636 0.02185435234378426 -0.3682289295087977 181 189 188
0.9127997703407122 0.00978409673841301 -0.3630892594579676 176 184 181
0.9225868239022771 -0.004686418776723571 -0.35477158051398006 41 44 43
0.8296240010781069 -0.008449641687828755 -0.3729237296448708 173 179 181
0.8303883836948232 -0.009086384182538444 -0.37219602984034184 111 110 111
0.8736756077884527 -0.012554610611286416 -0.36689657818803295 24 24 24
0.9144798532730322 -0.02450694477335864 -0.35523399880215983 23 29 27
0.8909609182768436 -0.02575971314941251 -0.3620536857636967 172 178 178
0.8909609182768436 -0.02575971314941251 -0.3620536857636967 172 178 178
0.831900801364257 -0.02763355459649631 -0.3715947514057233 113 107 109
0.831900801364257 -0.02763355459649631 -0.3715947514057233 113 107 109
0.8318132268481891 -0.03215115987332083 -0.3724594486937005 95 89 94
0.8301317741045475 -0.03231455866628169 -0.3715632388436161 96 94 96
0.8307456302110299 -0.03321472173874278 -0.3709757500915353 166 169 170
0.8504982372663532 -0.03647108612448843 -0.3695876501371452 23 26 25
0.8726682671996799 -0.041753412477336084 -0.36393705149423594 173 173 173
0.8726682671996799 -0.041753412477336084 -0.36393705149423594 173 173 173
0.7715642854599755 0.10462861887978916 -0.3969102792249268 21 20 14
0.9728307530222461 -0.01873702422016529 -0.390582581290978 56 58 60
0.9178798407295842 -0.07665889578321483 -0.3956192564776886 145 153 150
0.9595917636243165 -0.07945991641099666 -0.392424583783383 32 32 34
0.9877752027120285 -0.07536657859667988 -0.3904672467681571 29 37 38
0.773475387153374 0.12794608704558152 -0.39726472669896773 51 51 47
0.7691224551890478 0.12235873320839367 -0.40697774952467514 57 58 54
0.7698532955991274 0.11226787833670747 -0.40725172486259476 57 60 59
0.7611051863358312 0.1039824563751195 -0.40451261235692715 37 38 34
0.7751698534556022 0.10656256747980393 -0.40295036622370023 61 62 58
