ply
format ascii 1.0
element vertex 677
property float x
property float y
property float z
property uchar red
property uchar green
property uchar blue
end_header
0.9555271665308065 -0.018590879715551966 -0.3838104085757227 187 198 196
0.8320505471604642 0.09109345780967965 -0.3849379652946854 114 114 114
0.8833399070237747 0.08599194926205024 -0.37967367940213675 182 188 187
0.8833399070237747 0.08599194926205024 -0.37967367940213675 182 188 187
0.9651812763942273 0.0896501300078606 -0.3754634721876642 46 49 52
0.864091733614924 0.07429974630488322 -0.3844962403515684 175 183 181
0.8640418932227188 0.07423863875378126 -0.3840822192334493 199 202 206
0.9795335103741639 0.05628020922177249 -0.3827512189272621 178 184 182
0.9780011583305749 0.056027262174376154 -0.38021226966942684 188 191 190
0.9017298997153576 0.04091859818247833 -0.37990748253662504 22 28 26
0.9616079667397568 0.03936755015997493 -0.37640606007168737 180 186 184
0.8944000922143526 0.038963885593483204 -0.3799863446235083 34 30 30
0.9663390659350217 0.02833576142073836 -0.37639586511536827 43 51 52
0.8839433756394218 0.02442596134869911 -0.3798210507405683 178 186 185
0.8330077583433583 0.012552497179614102 -0.38432197467570645 124 126 127
0.8330077583433583 0.012552497179614102 -0.38432197467570645 124 126 127
0.9632614279952747 -0.01883031259021642 -0.3767176572294419 42 41 43
0.9663332499778847 -0.019479433192825406 -0.3823332723542592 56 57 60
0.9846030045536418 -0.06096964011577094 -0.37850118363773283 171 179 178
0.9846030045536418 -0.06096964011577094 -0.37850118363773283 171 179 178
0.8643587758825495 -0.06080324207568524 -0.3792126953890267 28 29 34
0.8343312655014592 0.10923737028681571 -0.38572540991610105 191 191 193
0.8731055648319306 0.07481457130703012 -0.3837188477769192 27 30 29
0.8731055648319306 0.07481457130703012 -0.3837188477769192 27 30 29
1.0860513410798904 0.039179673679512396 -0.3842560610892392 96 96 100
0.8328018212395656 0.03835380890539895 -0.3841268500023422 182 184 187
0.8339727539377995 0.02806971766446283 -0.3846150036346252 115 115 120
0.8331588768162288 -0.02138855834036717 -0.3830787164209196 170 173 174
0.8357949324258038 -0.023548964389311405 -0.38340614041709464 172 172 172
0.8336588903169191 -0.03022910506192319 -0.38326800029132535 176 176 178
0.8326021031079217 -0.03284527642514184 -0.3833429647100837 106 104 108
0.8326021031079217 -0.03284527642514184 -0.3833429647100837 106 104 108
0.8333292152540769 -0.0339468256518113 -0.383839781949435 176 176 180
0.8333292152540769 -0.0339468256518113 -0.383839781949435 176 176 180
0.9916127429163102 -0.06174818692387478 -0.3780275327330892 172 175 176
0.9028226795539143 0.10503265820275186 -0.3839723519666156 192 198 198
0.9028226795539143 0.10503265820275186 -0.3839723519666156 192 198 198
0.9723447470174466 0.08723352172397168 -0.38127137997402283 193 201 202
0.9723447470174466 0.08723352172397168 -0.38127137997402283 193 201 202
0.8328523846708582 0.003691138572133971 -0.38330607876930856 165 161 165
0.87950895281033 -0.012083293839259022 -0.3828729500732654 31 31 33
0.87950895281033 -0.012083293839259022 -0.3828729500732654 31 31 33
1.0937705135550653 0.11736485396493625 -0.39314134569324216 114 114 116
1.093015909406782 0.09362254008784554 -0.38482764047432055 105 108 107
0.8724410498178915 0.06629557897532112 -0.38369181641589917 192 198 200
0.8724410498178915 0.06629557897532112 -0.38369181641589917 192 198 200
0.9945164404655314 0.07436836169446502 -0.3823490863272818 72 68 61
0.9945164404655314 0.07436836169446502 -0.3823490863272818 72 68 61
1.0904614193420727 0.06950021164045643 -0.3838955543252427 149 157 158
1.0811122144718617 0.06751102634632886 -0.37572889518023617 153 164 164
0.8549199796126926 0.049419952215711535 -0.3870948084242157 38 39 42
1.0807859056187106 0.05735205745659225 -0.38458612761623295 157 165 166
0.891512700714939 0.030981676728142022 -0.3817466209741119 189 195 195
1.0893887644922065 0.03672620310547667 -0.38012426397658655 146 154 152
1.0755393141560483 0.03617136265929835 -0.38308965417615426 171 179 178
1.0705147272756337 0.03085411341223795 -0.38217255982365833 188 194 192
1.0905749322610059 0.031240648722309992 -0.3842844073440786 103 109 109
1.0774999605126203 0.022541186191466875 -0.3874737258665539 107 107 107
0.8549369400856902 -0.013103723193165375 -0.3859776547848072 32 32 36
1.0697955380212611 -0.026614404180157782 -0.37881829023254737 147 153 153
0.8783234342524967 -0.04319857559822834 -0.3789937441545788 184 187 188
0.8839636188270575 -0.07366524056496566 -0.3780974834335733 188 188 190
0.957475345588051 0.10473976862759313 -0.38055294292544467 50 40 40
1.1081752164378869 0.12120943545385335 -0.39592444505001295 137 144 140
1.087107017119812 0.10825766984172464 -0.39412988101609125 130 136 138
0.9531014727118492 0.08418106116338926 -0.3927854161076015 44 51 54
0.9856594701247945 0.08463357918068348 -0.3925773460035093 196 202 204
0.9856594701247945 0.08463357918068348 -0.3925773460035093 196 202 204
1.0914735222043364 0.0952417328667765 -0.3953518208624609 157 165 166
1.0838419565144721 0.08238419126265577 -0.39526978679826913 125 128 129
1.1074497167265327 0.07002545947447122 -0.3979740280499446 126 134 135
1.0913373215716071 0.047983064358475304 -0.3893245270059911 117 124 123
0.9019746179923103 0.00676571013967044 -0.3930876904883749 25 31 31
0.9019746179923103 0.00676571013967044 -0.3930876904883749 25 31 31
0.9019746179923103 0.00676571013967044 -0.3930876904883749 25 31 31
1.1070554492325335 -0.007569148856467407 -0.3883483513828709 126 132 129
1.0926849836313126 -0.019641492541268818 -0.39246617199760553 147 154 155
0.9335021652129424 -0.02502794442740657 -0.3915079445787198 27 33 33
1.0851078433401555 -0.03253768049585719 -0.3940401423585801 85 85 87
0.9017497846543714 -0.0307221725824499 -0.388163927631301 40 39 43
0.9017497846543714 -0.0307221725824499 -0.388163927631301 40 39 43
0.8737067049542332 -0.058426337366058165 -0.38758580222861017 41 37 43
0.8737067049542332 -0.058426337366058165 -0.38758580222861017 41 37 43
1.0987326422720574 0.08868476439112734 -0.38746988578931585 81 82 86
1.081669747467683 0.0799720651339311 -0.3867141832864058 105 106 106
1.0824092084729884 0.074990091350289 -0.3868069761864567 100 106 108
1.0824092084729884 0.074990091350289 -0.3868069761864567 100 106 108
1.0888775462591764 0.05476163720102142 -0.3865267394418901 124 131 130
0.903578551661951 0.03175498411364946 -0.38451676562474246 191 196 201
1.1014632352681757 0.03475726175685593 -0.38569744750269597 134 146 144
1.0846846788700242 0.03049459001147231 -0.3845442132994793 165 176 175
1.1032382955787932 0.016269934228949845 -0.3857698689060438 130 138 135
0.9737027856230702 -0.01173262174899237 -0.38262674560449966 194 201 201
0.9737027856230702 -0.01173262174899237 -0.38262674560449966 194 201 201
0.968878987662427 -0.087243711776883 -0.3814396567407802 40 44 49
0.968878987662427 -0.087243711776883 -0.3814396567407802 40 44 49
0.9604835677964468 0.10203195087381929 -0.38011022185233123 47 45 47
0.9157858471731143 0.08106834063044076 -0.381769232624162 198 204 206
0.897375679940138 0.06844171610869206 -0.38258395092057085 28 31 30
0.9667145567783259 -0.016730401847951965 -0.37873833387165856 48 54 56
0.9667145567783259 -0.016730401847951965 -0.37873833387165856 48 54 56
0.8901855102602139 0.09252715186717389 -0.3783219786575466 181 188 184
0.9007328032527294 0.09348628493915562 -0.3788762888118618 182 189 186
0.9105180051689516 0.08743114352431161 -0.3843015346612905 195 201 203
0.8627940826021256 0.07310455136640531 -0.3789401548328223 199 202 206
0.861380124312895 0.06208138384063582 -0.3766879398550389 199 202 205
0.9599786935107882 0.006432415174114199 -0.38254517078963174 26 32 30
0.9612958486585143 0.006431874129999566 -0.3850798083587999 22 28 26
0.9718883311274161 -0.03424104039089673 -0.3859127093003501 40 45 50
0.9978347599246781 -0.050326899538754015 -0.3821268635550577 55 62 66
0.8756875000197802 -0.049019581089702786 -0.38751904699147205 29 29 29
0.8756875000197802 -0.049019581089702786 -0.38751904699147205 29 29 29
0.9546873098383569 -0.0808516942633997 -0.38098968221033286 186 189 188
0.9546873098383569 -0.0808516942633997 -0.38098968221033286 186 189 188
0.9573322477370166 0.09884386901335157 -0.3821381137060749 42 36 40
0.9573322477370166 0.09884386901335157 -0.3821381137060749 42 36 40
0.8676545999883806 0.07366241095699853 -0.38457956804682136 33 34 36
1.0828046520784367 0.0884458450098111 -0.3859709749681183 151 159 158
0.9259554149301956 0.066712450940776 -0.38371622179559806 181 187 185
0.9259554149301956 0.066712450940776 -0.38371622179559806 181 187 185
0.9928858546967474 0.0711368159074361 -0.3808829977286891 182 188 186
0.906632987388598 0.028150463084708126 -0.38222421668787315 31 31 30
0.9989463040587873 0.014150866138488635 -0.3806784699806924 43 53 56
0.9311890741793648 0.008964309299049155 -0.3825694522857206 174 180 180
0.9311890741793648 0.008964309299049155 -0.3825694522857206 174 180 180
0.9311890741793648 0.008964309299049155 -0.3825694522857206 174 180 180
0.9618734001325528 -0.02244657107963279 -0.3805548413975044 41 35 39
0.9618734001325528 -0.02244657107963279 -0.3805548413975044 41 35 39
0.979420826322162 -0.037113058465174785 -0.3810924517560279 28 34 32
0.9332922777229505 -0.052217319060064195 -0.38284328624744257 169 172 171
0.8611877972659557 -0.054479549135726384 -0.3852645221101354 167 170 169
0.931167183352659 -0.06170748412846629 -0.3834904042960462 167 170 169
0.8582127151587177 -0.058087975934025995 -0.3846290093927066 30 30 30
0.9811260002982808 0.077241808773001 -0.37913864846145895 39 42 43
0.9811260002982808 0.077241808773001 -0.37913864846145895 39 42 43
0.8747084041592176 0.060875318877686026 -0.3848592110095008 32 35 36
0.8747084041592176 0.060875318877686026 -0.3848592110095008 32 35 36
0.8957112487295327 0.03172450819036447 -0.3828512643453406 44 40 44
0.8793017334039347 0.025069075863393245 -0.38387270165372706 35 37 33
0.8851181831284314 -0.037745072187886176 -0.38235560943032154 186 187 186
0.9375296644810027 -0.04650082964060887 -0.38025848665683476 40 40 41
0.9539234513876363 0.10769161772537773 -0.3827037772331726 47 55 56
1.0864540288938782 0.07906044277139751 -0.38932443519458076 162 172 172
0.8549154128446549 0.026249149691102543 -0.3836997658652447 37 40 41
1.0913669107910655 0.033105615570384835 -0.3876513506763757 148 156 155
0.880681176748222 0.019507339767566353 -0.38699757850445177 197 200 203
1.0843568528902325 0.01592130598846285 -0.38706673243097683 108 112 113
1.1023010699835265 0.014535724026659216 -0.3871794377957367 95 102 103
1.0951761195417138 0.014315483244304905 -0.39068826663008194 153 165 165
1.0826615011099487 -0.005146699288381188 -0.3871301312939803 170 176 174
1.0887759322801767 -0.013093968703444654 -0.3907734115779371 118 121 124
1.0007771442556168 -0.050330414290120175 -0.38659880385437706 53 64 64
0.9553836536443435 -0.07829658176258232 -0.388111452981171 43 48 55
0.8682031950232346 0.069905544140396 -0.38200291451651464 202 202 206
0.8610434684070575 0.06537293337856064 -0.3826705697075307 56 45 45
0.9566905333160467 -0.03376657874985744 -0.3776727131209068 44 54 57
0.9098502968139313 -0.03751230951767499 -0.3797345181986022 186 190 191
0.8635205385296197 0.06367893342557789 -0.38431653854404324 203 203 207
0.9462391304433131 0.02446171362649431 -0.37960184000321695 203 203 203
0.9308066486202731 0.008961245817856062 -0.38170533152585856 201 204 205
0.9223418551251933 0.004373330256230892 -0.3808979767567729 197 203 201
0.9535472719607214 -0.03043869336609939 -0.37949345576535454 197 201 200
0.9275395419950686 -0.050429963982217926 -0.38120381408845977 60 66 68
0.9275395419950686 -0.050429963982217926 -0.38120381408845977 60 66 68
0.9658557405714722 -0.08410344488791292 -0.38008364433236025 58 56 63
0.9658557405714722 -0.08410344488791292 -0.38008364433236025 58 56 63
0.9654972513313818 -0.08903930293610106 -0.37950894409118446 55 58 62
0.8922316430996406 0.042292638090380426 -0.3822251986398764 47 39 37
0.8922316430996406 0.042292638090380426 -0.3822251986398764 47 39 37
0.9618436293450328 0.0348395062034868 -0.38097948575132523 38 38 42
0.9419540104436033 0.019617989603355725 -0.38285801408595177 190 196 194
0.9419540104436033 0.019617989603355725 -0.38285801408595177 190 196 194
0.9946363606648917 -0.05897632084614608 -0.37984851876760234 186 189 190
1.0803263597209964 0.10196596252515187 -0.37213852616051485 95 95 92
0.8552884768898764 0.0562097244512159 -0.3764285952363556 43 42 44
1.0904325082637945 0.08440246803321595 -0.3747772429592946 130 136 134
1.082338031675968 0.07027232039933332 -0.3760420002144884 148 154 154
1.0892547254548324 0.05576565974551998 -0.3728691983490753 106 109 108
1.0902046504916847 0.049831304164404545 -0.3736816460011645 107 114 108
1.0881988731696364 0.04615577885518368 -0.37563963936625927 103 106 107
1.0672721963977254 0.029276452949563478 -0.3759713010189702 118 118 120
0.8708736037861788 0.006310354852031534 -0.3796248414150611 49 47 52
0.9182757499936847 0.006677231257680329 -0.3768332917542287 41 44 47
1.0824403877776532 0.012501159939978867 -0.3740287982939035 107 113 114
0.9809503540322257 0.0028626888247693777 -0.37335584778056324 190 203 202
0.9809503540322257 0.0028626888247693777 -0.37335584778056324 190 203 202
0.9815389857294359 -0.0005375531128965633 -0.3736679461300017 72 67 67
0.9815389857294359 -0.0005375531128965633 -0.3736679461300017 72 67 67
1.0874221734321339 0.0015888336574620256 -0.37612660426026784 149 157 156
1.0854317788483652 -0.007519925196412824 -0.37553967418754564 115 118 118
0.8891455615759553 -0.018256982093294426 -0.37876414818775733 36 39 42
1.0950387712569563 -0.02457814930837735 -0.3750051269151315 111 116 114
1.0929078177497606 -0.02636079009234042 -0.37780629188188725 137 145 144
0.8841822732748214 -0.03848829661411657 -0.37907397459094805 189 195 197
0.8841822732748214 -0.03848829661411657 -0.37907397459094805 189 195 197
0.8734606655107242 -0.04907480378562113 -0.37887148954268 31 34 35
0.8734606655107242 -0.04907480378562113 -0.37887148954268 31 34 35
0.9514688279078526 0.08750727710565907 -0.3683753358901335 56 49 39
0.917262916436756 0.061892938022550394 -0.3704570126241448 193 199 201
0.917262916436756 0.061892938022550394 -0.3704570126241448 193 199 201
0.9763433475506971 0.06144619906417816 -0.3666740202223903 192 194 193
0.9015748647227309 0.04180081463846383 -0.36949523639292864 39 39 40
0.9015748647227309 0.04180081463846383 -0.36949523639292864 39 39 40
0.9405684769692233 -0.01393920669035359 -0.3672739726215631 189 195 195
0.8880478430779485 0.09676046952422716 -0.3747898891696793 37 37 37
0.9341163572772943 0.10509329177996249 -0.371706603594032 42 48 52
0.913119278437949 0.05299226126923418 -0.3755572129230915 203 203 203
0.913119278437949 0.05299226126923418 -0.3755572129230915 203 203 203
0.9468204750436426 0.043666311978624694 -0.37363033870711476 56 55 57
0.9627549227006501 0.03249003080394889 -0.37053995505238907 63 66 67
0.934190054024563 -0.04722064262644789 -0.37347769224640687 51 56 61
0.8697793951708752 0.06282830997592725 -0.37607775883540145 186 185 185
0.8787463160656794 0.05465545101796866 -0.38220523384204275 184 187 188
0.8787463160656794 0.05465545101796866 -0.38220523384204275 184 187 188
0.8539927630780179 0.04719372958991083 -0.38136322997772587 39 39 43
0.9965218308987723 0.05745017326412048 -0.3763490408984215 60 63 64
0.9387378762318845 0.04749249293459069 -0.3785353677314124 35 37 39
0.9452814621023963 0.02324297288731301 -0.3783001918123464 182 188 186
0.9351311949819486 -0.004256536895711554 -0.3763578284630047 40 40 42
0.8649042279986662 -0.06435190010379543 -0.37535815446562454 22 28 28
0.8649042279986662 -0.06435190010379543 -0.37535815446562454 22 28 28
0.8728320302638677 0.10367268660927753 -0.3726345624052886 28 31 32
0.9676465275479078 0.10907804825341823 -0.38778382124691335 191 194 193
0.959222890039285 0.10036132526610696 -0.3780894081243331 63 58 63
0.9736515019932575 0.05291338268343787 -0.37353414779364863 207 207 207
0.9286656455536735 0.007591500248824637 -0.3768420434330217 202 205 206
0.9286656455536735 0.007591500248824637 -0.3768420434330217 202 205 206
0.9318085771899048 -0.05015739335760563 -0.3740587078245022 191 198 194
0.8686737730002336 -0.055112508567430614 -0.3689978252012907 191 193 199
0.8650660903168057 0.06626247644626011 -0.39142696577971914 186 189 190
0.87645009148393 0.0633892298637472 -0.39156552743760964 30 31 31
0.9966514036755916 0.07593799787223829 -0.3862694929186381 52 48 51
0.9966514036755916 0.07593799787223829 -0.3862694929186381 52 48 51
0.897244386871496 0.04445307944279571 -0.3875703922055453 178 186 185
0.897244386871496 0.04445307944279571 -0.3875703922055453 178 186 185
0.9580350069279818 0.044428528982934555 -0.3874740637481691 184 187 186
0.8893512064063219 0.02877316602724037 -0.38627645037056696 35 35 35
0.8893512064063219 0.02877316602724037 -0.38627645037056696 35 35 35
0.9635137484872167 0.035472811519527844 -0.3844940247388356 39 45 47
0.9376639323870098 0.015340884877544073 -0.3821109683845358 45 44 51
0.929454292395253 -0.0031644741097393236 -0.37993239774105647 38 41 42
0.8341965925705233 0.13653719974678813 -0.41456081120838656 195 194 194
0.8335114749070385 0.12053319878954978 -0.4051167584692516 192 191 191
0.9388012710728958 0.08246024123520879 -0.40064723322161105 46 39 33
0.8560081279602783 0.04878638458368129 -0.3884827243218063 29 32 33
0.9959623148936431 0.07520447681007604 -0.38046598367201634 182 185 184
0.8314241119622242 0.04115595388550796 -0.3773253267545701 171 174 177
0.9647639424274583 0.040422550924578235 -0.3832887040789064 148 159 155
0.969180005771796 0.029014823308875694 -0.38230504987127445 49 57 58
0.9343110794393256 0.013096345489292175 -0.3811678690234179 138 156 152
0.9996720944934596 0.00012850526855747287 -0.38215377685428903 53 66 63
0.8318431239302959 -0.013267922874163212 -0.3811332111026389 122 122 126
0.8337174115441839 0.003281531750732478 -0.3821175188681965 185 187 187
0.8327717487527758 0.12614133069416955 -0.37751413437163195 194 190 191
0.8876200270327192 0.02811512808798847 -0.3824286746884467 14 21 14
0.9724979126552807 -0.010927393448343287 -0.3818900784074732 152 165 162
0.9566505811397173 -0.020367724387309088 -0.3821162320219751 150 165 162
0.8939511272557267 -0.028598711738294137 -0.3826048869282224 136 149 146
0.831825592521255 -0.038097138994810584 -0.38264368497324025 90 88 83
0.9270705714943609 -0.05736770061855759 -0.38229577380557805 30 29 30
0.9270705714943609 -0.05736770061855759 -0.38229577380557805 30 29 30
0.9270705714943609 -0.05736770061855759 -0.38229577380557805 30 29 30
0.9587376203171003 -0.07755916885886181 -0.38173055091688296 26 32 34
0.9546493340889695 0.099183669081579 -0.3842793190597486 185 188 187
0.8843631154672522 0.0877312602606844 -0.38494539622829077 181 188 188
0.8843631154672522 0.0877312602606844 -0.38494539622829077 181 188 188
0.863692288392209 0.07497282504356827 -0.3852490551872044 177 183 183
0.863692288392209 0.07497282504356827 -0.3852490551872044 177 183 183
0.984144253039633 0.06200767937567517 -0.38267978811704073 58 66 67
0.9523212334564634 0.030261369960180976 -0.3827625701587394 35 41 41
0.9523212334564634 0.030261369960180976 -0.3827625701587394 35 41 41
0.8663983730306495 -0.05576228903583986 -0.3832167162635133 161 161 161
0.8663983730306495 -0.05576228903583986 -0.3832167162635133 161 161 161
0.8340372086835608 0.0925208309278451 -0.39091479438476184 185 184 184
0.9072027106489396 0.0948110497805656 -0.39127753568581897 26 32 34
0.9574153323612979 0.09710743893201618 -0.3927173149331494 23 29 30
0.9574153323612979 0.09710743893201618 -0.3927173149331494 23 29 30
0.874153600805409 0.07725020632221646 -0.3900210482319234 19 22 21
0.874153600805409 0.07725020632221646 -0.3900210482319234 19 22 21
0.9360246359846237 0.0738342384532944 -0.38836407022199115 151 164 159
0.833728000474328 0.028805420576471428 -0.387375965239136 93 92 93
0.833019171032926 0.02743568305576576 -0.3872682569232586 164 167 168
0.9434882899105201 0.020687861177341477 -0.3870137382646055 142 157 154
0.9032870122884712 0.03211952655994111 -0.38590720769485887 167 175 172
0.8336185468866929 -0.032798085225229076 -0.3845646230467891 102 98 100
0.8336185468866929 -0.032798085225229076 -0.3845646230467891 102 98 100
0.864765489896931 0.10237371472454355 -0.38865248169984656 21 27 25
0.8919191245816315 -0.02257689995232397 -0.38496520875849866 157 163 161
0.8998300289279121 -0.025954697137285217 -0.38440284295813437 157 163 161
0.8998300289279121 -0.025954697137285217 -0.38440284295813437 157 163 161
0.8312318715619924 0.036774689461583535 -0.3692355372149563 191 190 190
0.8303188188959159 -0.005409657348814925 -0.3711796430917245 183 183 187
0.8545648626988295 -0.005386475534529718 -0.3668302756256346 26 30 27
0.8694666257838225 -0.05742501784545136 -0.37493984433579935 35 35 37
0.8694666257838225 -0.05742501784545136 -0.37493984433579935 35 35 37
0.8578843674821022 -0.057698544219103344 -0.38561576659983754 24 25 25
0.8587246769077863 -0.058116592599586486 -0.37408232218728 29 29 25
0.8678424180295474 0.0673104359813574 -0.3866903450920441 33 33 29
0.8296597577332248 0.04778919063073582 -0.38412811501719674 176 182 182
0.951907997223673 0.0477445211477799 -0.38472003580268055 39 47 48
0.9519243097623371 0.04774464427282 -0.384729103208685 34 42 41
0.8303059762763356 0.03139773176268543 -0.38633098056086135 170 178 177
0.9097174127140062 0.02504166137339693 -0.3829106100589644 168 176 173
1.0040061640314064 0.026161275144932616 -0.3820062651772559 70 81 81
0.9227186973434929 0.012841270844923817 -0.38343330468053033 164 170 168
0.8321167338825362 0.0014687042515521627 -0.3840808985094303 155 155 155
0.8318032082352946 -1.7104830056027907e-05 -0.38363575413718387 121 121 123
0.9020491588587775 -0.08066324745444933 -0.3810062353364795 32 32 31
0.8294690610618014 0.12512435941860373 -0.38803095991570374 194 194 194
0.9602594482600557 0.10299835259416384 -0.3817861717988335 51 53 55
0.8982305873678947 0.006586433201832272 -0.38655266712922187 18 21 20
0.9916372905644222 0.001842245192132852 -0.38138082961670794 184 190 188
0.9515419455425301 -0.014873511477466347 -0.3832780891204446 34 39 42
0.8904038763599895 -0.016830027548113552 -0.38555475487319246 20 23 22
0.8607506615563205 -0.05408982789739862 -0.3855494399502835 160 160 160
0.8892513868915664 -0.07804873648854885 -0.3851942453137077 22 22 22
0.8320386198893053 0.10156116904836145 -0.38776737673364875 186 186 190
0.8894517951494267 0.10857688814900841 -0.3854601190279152 29 32 33
0.959441404704609 0.09932270997343606 -0.38508488257619783 43 46 47
0.8673333918576036 0.07004395819233988 -0.3821176400144113 159 170 170
0.8673333918576036 0.07004395819233988 -0.3821176400144113 159 170 170
0.9828635961591722 0.07982734257863693 -0.38427802207419726 43 47 45
0.9584812542669453 0.0688842482516099 -0.3821391743513411 22 30 27
0.9902329147597922 0.07143246376944608 -0.3833844786454812 56 57 57
0.832298196279095 0.054391435897709076 -0.38703491822147573 179 181 182
0.8316711241051236 0.02837999673559092 -0.38567793026326147 105 104 106
0.9367474439875163 -0.0023952837380170093 -0.38091712537146577 29 33 28
0.9367474439875163 -0.0023952837380170093 -0.38091712537146577 29 33 28
0.8984785018824826 -0.019180484615613353 -0.3828621646058557 161 167 165
0.9509647853011829 -0.02595629568894269 -0.38210094766520203 35 38 39
0.9832441978304106 -0.060748705125500964 -0.3779699696272764 168 176 173
0.9831409708420271 -0.06073007395190064 -0.3777908772713887 169 175 173
0.9831409708420271 -0.06073007395190064 -0.3777908772713887 169 175 173
0.8712315127597786 -0.05695068965572557 -0.3820861974116009 30 28 29
0.8712315127597786 -0.05695068965572557 -0.3820861974116009 30 28 29
0.9225553412387731 -0.06015826405740336 -0.38009815099316896 37 33 36
0.9225553412387731 -0.06015826405740336 -0.38009815099316896 37 33 36
0.8967326455351076 -0.08508947884475809 -0.38339807338469983 19 20 16
0.9089362087810811 -0.011663966417025795 -0.38066221892559327 171 177 177
0.8632208894708284 -0.05830091024525072 -0.3810538022665166 141 152 150
0.8598236412113345 -0.061536142319820956 -0.3810804044236595 161 169 168
0.8598236412113345 -0.061536142319820956 -0.3810804044236595 161 169 168
0.9702764622176714 -0.07276915199395838 -0.3775826484230151 171 177 175
0.9702764622176714 -0.07276915199395838 -0.3775826484230151 171 177 175
0.9456766094984083 -0.07288387564293643 -0.37823181756229307 167 170 171
0.9456766094984083 -0.07288387564293643 -0.37823181756229307 167 170 171
0.8301039698246064 0.13509752717257542 -0.37848236155990883 132 124 126
0.8305405146496094 0.13360878491028755 -0.3797696239215665 193 189 190
0.939926752284077 0.11277291005246115 -0.38348262418780155 25 31 31
0.9980739703655648 0.059664945243499745 -0.3791801462994161 57 60 62
0.8327201470271629 0.008256173208606355 -0.38229698004261004 99 99 95
0.9190455956053645 0.00847023086719227 -0.3813482995420648 16 22 20
0.9611428426550072 -0.025054206523746368 -0.38150237141133714 30 38 39
0.988672125647275 -0.05281520418957342 -0.37899482848210614 40 49 49
0.8684627739582689 -0.058357075618050425 -0.3826140254198054 142 150 147
0.8683860837990304 -0.058344423034703656 -0.3827921223435839 166 173 173
0.8686418435877121 -0.05848275793635261 -0.3819320372093616 139 149 146
0.9637951731452619 -0.018980893104931333 -0.3795191836231122 56 58 60
0.8877286542128693 -0.033660158426690345 -0.38134720494358093 16 22 23
0.8877286542128693 -0.033660158426690345 -0.38134720494358093 16 22 23
0.9586361080847088 -0.08703857150231491 -0.377025270402961 173 179 177
0.9261333682824905 -0.08845595960745768 -0.3762997524877925 16 22 20
0.9809117543320987 0.05756991729701088 -0.38596476870375385 159 167 164
0.8604713036189398 0.005394619979366764 -0.3852276655159852 179 182 183
0.8992593855823223 -0.025804480165592877 -0.38346244093944754 168 174 174
0.8992593855823223 -0.025804480165592877 -0.38346244093944754 168 174 174
0.9033270813281373 -0.031340712197286416 -0.38311347913309207 22 26 21
0.9495450961562435 0.09927371449048172 -0.3694775681489809 38 34 28
0.9591278026670369 0.08517951192602839 -0.368292714842159 36 39 38
0.9591278026670369 0.08517951192602839 -0.368292714842159 36 39 38
0.9837996112276475 0.05890372771525566 -0.3656291675898477 168 174 168
0.9827734209053093 0.039890489511444534 -0.3664191001058245 51 62 60
0.9217403407729483 0.034197684795888916 -0.3699220581084527 15 21 19
0.945610032482097 0.029731564708124717 -0.36769891258885806 32 38 40
0.945610032482097 0.029731564708124717 -0.36769891258885806 32 38 40
0.9736034873442432 0.0036396850972681798 -0.3655183351094879 154 167 164
0.9231114412031035 -0.0032511924659019216 -0.3680018175741226 43 44 46
0.9219216012726273 -0.04731819793864892 -0.3653211789891499 136 147 145
0.9219216012726273 -0.04731819793864892 -0.3653211789891499 136 147 145
0.8310419217536815 0.13270475978794294 -0.38533653652990496 120 114 116
0.8630574717092303 0.07373911341458456 -0.3827087666186229 175 175 175
0.8329905962510572 0.06988106053418017 -0.383919752823262 125 121 122
0.9392945362151828 0.08114322092781331 -0.3801349945223679 177 177 173
0.9392945362151828 0.08114322092781331 -0.3801349945223679 177 177 173
0.8316424592073783 0.06170316200392599 -0.3837232867963067 177 177 177
0.8316424592073783 0.06170316200392599 -0.3837232867963067 177 177 177
0.8319866781730384 0.04029337414258992 -0.3828272384435965 148 149 150
0.8318137065133036 -0.01220030385361557 -0.3824016529480584 162 166 167
0.8318137065133036 -0.01220030385361557 -0.3824016529480584 162 166 167
0.8322851309466578 -0.01598934913551316 -0.38210249806809077 155 162 164
0.8325386959974523 -0.030023415867325234 -0.38174552622811725 158 161 162
0.8601796589020495 -0.05741300450251918 -0.3810338594870075 25 26 20
0.9664553653417574 -0.07629417217023411 -0.3772176238820125 26 35 36
0.8297484739921762 0.1289440712681372 -0.3953351373174014 193 192 192
0.9479516263253014 0.08852018830149509 -0.38481774965816606 184 191 185
0.9479516263253014 0.08852018830149509 -0.38481774965816606 184 191 185
0.8317526808681935 0.047407655562088896 -0.3852891195042007 112 110 112
0.955523221850303 0.033146328198359304 -0.38422120841425356 51 51 53
0.8322790352005166 0.02078452461860932 -0.3843993340672606 107 106 110
0.8322790352005166 0.02078452461860932 -0.3843993340672606 107 106 110
0.8320674795806975 0.012829277015237187 -0.384418689917245 154 153 159
0.8320674795806975 0.012829277015237187 -0.384418689917245 154 153 159
0.8318149613910062 0.010334638881856557 -0.3844588625710143 174 176 182
0.831962584082765 0.003965502370046735 -0.38399218930123213 140 140 141
0.9583007578846228 -0.02317463351480235 -0.38099241752237584 180 186 184
0.9583007578846228 -0.02317463351480235 -0.38099241752237584 180 186 184
0.8318370576889397 -0.01727333508474655 -0.3834913714718713 162 162 164
0.8312152656044017 -0.02029331672875354 -0.38394997208999515 122 120 122
0.9091834318059281 -0.03714171112041208 -0.3806774372507622 156 162 160
0.9998855307559578 -0.0646649372010117 -0.3799053222742939 42 43 48
0.8599014064098967 -0.053548552663987295 -0.38191668866466244 156 159 158
0.8987752575345599 -0.08025697107285652 -0.38020066436141164 161 162 158
0.9215763923538031 0.07652327509824056 -0.385888847027648 27 33 31
0.8949359955538299 0.0322857950385559 -0.3835905078371273 34 31 34
0.8333031479698084 -0.01396820771741613 -0.3832919835462752 128 128 130
0.8317802842067723 -0.01732265830221918 -0.3837402140252307 159 162 163
0.967681441704269 -0.03332656018602902 -0.37961061167579224 39 41 44
0.967681441704269 -0.03332656018602902 -0.37961061167579224 39 41 44
0.8318679847225495 -0.03145001073971451 -0.3835903919611524 119 120 122
0.8310760871412485 -0.03192714567149938 -0.38333211690020375 174 181 185
0.8319137486311067 -0.03664413359086259 -0.3834273643242734 116 119 120
0.9811591176158474 -0.06432878944928623 -0.3790046563183282 31 34 37
0.9294319544072488 -0.06086185673164138 -0.3810548175592153 155 160 160
0.8328046868515478 0.05298334886452926 -0.39183669824163464 127 126 128
0.8330287677039332 0.04969016405547243 -0.3918567328364441 124 121 125
0.9469473323293954 0.025289215626105702 -0.382040494803075 187 195 193
0.8749680343466265 0.012630273515834262 -0.3916670501902887 25 28 27
0.954672378670382 -0.007418031636107996 -0.3950688955905434 29 35 33
0.9453377639100301 -0.039304176191542146 -0.3902871993661411 24 27 26
0.9453377639100301 -0.039304176191542146 -0.3902871993661411 24 27 26
1.000172641996004 -0.06151895783306264 -0.38838074387015264 190 190 194
0.9082416781348049 0.08703486922076026 -0.3804682409730291 181 187 184
0.936889435792643 0.016380629394345248 -0.3817057447849357 33 36 39
0.9192341081037132 0.016332241361527014 -0.3827898389576829 29 32 33
0.8835866263086893 -0.03675166509628978 -0.3795721249343266 167 170 169
0.832983276758088 0.08961877251668286 -0.3826149275838217 189 189 191
0.8836658425700522 0.0869798413711889 -0.38298721406052577 182 188 190
0.8782739424277126 0.08145575346640924 -0.3835049415477024 183 186 187
0.9328654981424734 0.07184240763357903 -0.38178472085410464 180 188 185
0.9149885392554716 0.05607553260622017 -0.38201780368631627 176 184 183
0.9149885392554716 0.05607553260622017 -0.38201780368631627 176 184 183
0.879070773931201 -0.037381446014677876 -0.3841550229349232 20 22 21
0.879070773931201 -0.037381446014677876 -0.3841550229349232 20 22 21
0.9357132380596278 -0.057772339523482256 -0.38494682170612154 29 28 35
0.9357132380596278 -0.057772339523482256 -0.38494682170612154 29 28 35
0.9374343458299855 -0.05957874712082083 -0.3837752330902755 23 23 23
0.926038455137247 0.07529340709288768 -0.3834031024841361 179 188 187
0.9518164766129933 0.03024345566949133 -0.3825893547447806 33 39 39
0.9518164766129933 0.03024345566949133 -0.3825893547447806 33 39 39
0.8343683413444143 0.010508037689877146 -0.3839815055714949 172 175 176
0.8322447473819142 -0.001958377024140438 -0.38481111314430777 163 166 165
0.9539258291795625 -0.029970611982816982 -0.38174454939610264 184 187 186
0.8332430756855176 -0.025039157968865782 -0.38536766334681305 160 164 163
0.8706392108881907 0.06973254329647802 -0.3827294795468553 34 35 35
0.8605802392736747 -0.06171506520785474 -0.38416968789550904 160 160 161
0.8313618008647526 0.08466461369701672 -0.3859123173339156 161 163 167
0.8812723682677328 0.08847790818472062 -0.39156119766951786 30 33 32
0.8812723682677328 0.08847790818472062 -0.39156119766951786 30 33 32
0.8333443493170228 0.08249897466920096 -0.381632320021602 158 155 156
0.9325076049998309 0.06461372293124905 -0.3959194640189914 191 197 195
0.834055560364294 0.047813036115413494 -0.3861779060970608 192 195 196
0.919946067852912 0.019441063564826458 -0.3926967676094187 186 189 190
0.919946067852912 0.019441063564826458 -0.3926967676094187 186 189 190
0.9432259764568243 0.015717926398767602 -0.3940191533647532 44 50 52
0.9420151223235211 -0.0008563880135572513 -0.39772434115716176 181 187 185
0.9420151223235211 -0.0008563880135572513 -0.39772434115716176 181 187 185
0.8755405710328443 -0.06157583351652873 -0.39716492202933446 32 28 29
0.8755405710328443 -0.06157583351652873 -0.39716492202933446 32 28 29
1.0710595093013962 0.12324604074467167 -0.3766092728419607 121 121 121
0.8888812976431931 0.09249925908975705 -0.3767884630815102 194 194 196
0.9436417122339149 0.08633142418442616 -0.37681114807990185 186 189 188
0.9903403489739662 0.07387742753834321 -0.3772164210621223 67 72 73
0.9903403489739662 0.07387742753834321 -0.3772164210621223 67 72 73
0.9217796417694828 0.07005672601395989 -0.38095761920522586 46 38 29
0.9217796417694828 0.07005672601395989 -0.38095761920522586 46 38 29
0.9383908829379956 0.05586591499735459 -0.3779780906635922 178 186 183
0.9491274707386024 0.04715426283420336 -0.3796701602276745 39 45 47
0.947261944640131 0.0201492990612682 -0.38308222946073206 31 38 37
0.8636723188097688 0.0004007641431592072 -0.38258909795769275 176 179 180
0.8636723188097688 0.0004007641431592072 -0.38258909795769275 176 179 180
0.915809522561323 -0.0058708794749164775 -0.3828852523293196 159 168 165
0.915809522561323 -0.0058708794749164775 -0.3828852523293196 159 168 165
0.9650496493507197 -0.019147487871233847 -0.3815948797337228 49 48 51
0.8743044796941004 -0.048971821134749995 -0.3870575784757723 20 20 20
0.8743044796941004 -0.048971821134749995 -0.3870575784757723 20 20 20
0.8670930672774296 -0.056765375965024435 -0.3879971712056962 167 167 169
0.896978613417654 -0.07959839935137993 -0.3885730370913409 20 22 23
0.831732395063697 0.13928428945495802 -0.39114031676817834 168 162 166
0.8318323274679496 0.13348538994198586 -0.39068592117063944 188 185 185
0.8315408140508429 0.09559075334353037 -0.38442061728708393 172 168 171
0.8315408140508429 0.09559075334353037 -0.38442061728708393 172 168 171
1.0809422358092722 0.09176078800867334 -0.3857231745901133 88 91 92
0.9263824964065783 0.0633092468569683 -0.38324755487144124 177 185 182
0.8949275227799409 0.04357527050622053 -0.38290037126591403 172 181 182
0.8950233470629221 0.043644956267669725 -0.38324769626491373 169 172 175
1.0852946781546613 0.05080280917839631 -0.39571689589982945 103 103 104
0.9636880346683216 0.04012067165735252 -0.3817506580449882 179 185 183
0.9057383943141379 0.028461885356579168 -0.38222541712510233 25 26 22
0.9716793968185596 0.02529650706327279 -0.38087980832121193 181 187 185
0.9716793968185596 0.02529650706327279 -0.38087980832121193 181 187 185
0.9220399499928064 0.01276373609686998 -0.3823405724478565 163 169 167
0.9220399499928064 0.01276373609686998 -0.3823405724478565 163 169 167
0.863783881460583 0.008342131299360593 -0.38329808616285455 32 35 34
0.8332573317810618 -0.0077601740026071245 -0.38357868116030797 104 98 101
0.833349318392002 -0.032448982551037994 -0.3836489396441071 89 84 88
0.8317213097496018 -0.037939640082249045 -0.38382746914209237 88 87 89
0.8317213097496018 -0.037939640082249045 -0.38382746914209237 88 87 89
0.9264278188133541 -0.050077665845559005 -0.38071126230087243 36 38 35
0.9264278188133541 -0.050077665845559005 -0.38071126230087243 36 38 35
0.888094273627474 -0.07726771758483926 -0.3817149436633474 18 21 22
0.8638348679141521 0.10215537742031872 -0.3866336252362765 21 26 24
0.8638348679141521 0.10215537742031872 -0.3866336252362765 21 26 24
0.8636429163102021 0.07035039677984238 -0.38342478867483337 35 31 26
0.8636429163102021 0.07035039677984238 -0.38342478867483337 35 31 26
0.8318204848428208 0.036257245461852654 -0.3838613674217836 117 113 114
0.8925248328299015 0.03568635301759589 -0.38390791250696793 173 181 180
0.9649166886457236 0.03219632403409745 -0.3811237356556882 179 182 181
0.9911031613462322 0.0018393636599039294 -0.3802766100789863 179 185 183
0.8311377276412435 -0.0034063815328026856 -0.3833528485943709 92 92 95
0.8311377276412435 -0.0034063815328026856 -0.3833528485943709 92 92 95
0.8332096745238785 -0.016258969153396828 -0.38356129151633483 166 166 164
0.8335598143369165 0.13742136442408268 -0.38765233750788236 193 192 192
0.8316990211826497 0.09439879845161282 -0.3873281607394897 186 185 189
0.9258955824336407 0.07534482970877737 -0.38319721885037134 178 184 184
0.8317983629497537 0.05023157171125883 -0.38470822841118374 185 185 188
0.8317851970381148 -0.007113952127648332 -0.38306339465204553 102 100 102
0.9544004693004678 0.0900005740586193 -0.3682828409076311 180 185 179
0.9836171853429128 0.039738500816305165 -0.3695605998438858 53 64 62
0.8323325319374842 0.03056265316099457 -0.3776834926199542 182 182 184
0.8323325319374842 0.03056265316099457 -0.3776834926199542 182 182 184
0.8708414443625047 0.007535667723841896 -0.38188167213699464 31 33 28
0.8708414443625047 0.007535667723841896 -0.38188167213699464 31 33 28
0.8595325651257665 0.001396211624259921 -0.3769692107076349 41 33 38
0.8595325651257665 0.001396211624259921 -0.3769692107076349 41 33 38
0.9264243506716697 -0.059538561587453236 -0.37508235319142896 179 179 181
0.9518355371673802 -0.07953509325055791 -0.37719306619677684 171 174 173
0.9518355371673802 -0.07953509325055791 -0.37719306619677684 171 174 173
0.9434694685088874 0.09207147219568576 -0.34735607141841024 193 201 202
0.9321343124236612 0.07987314202709365 -0.34653380010358453 35 43 42
0.8307258456980897 0.13091765086880064 -0.38147838104958265 159 155 156
0.8307258456980897 0.13091765086880064 -0.38147838104958265 159 155 156
0.8306477362920712 0.11607933823566242 -0.3812403191451216 184 182 184
0.8306477362920712 0.11607933823566242 -0.3812403191451216 184 182 184
0.8946102333035255 0.10606651961386422 -0.38376771665601694 182 185 184
0.8325034717300482 0.08255383275941953 -0.38208495568553547 144 137 134
0.9690327469758634 0.09215957983215094 -0.38400397450360624 47 51 48
0.939283838080788 0.08666618635060773 -0.3800675210842675 35 38 37
0.8310540152469946 0.06911794317790675 -0.38303942391635715 186 186 188
0.9953545931010458 0.07558780196868287 -0.3846349604278461 72 73 73
0.8297394950898546 0.052086919739302975 -0.3853223553547809 181 184 185
0.9633322884409726 0.029352610354183836 -0.38563996955147345 37 45 44
0.8605353862732519 0.005433930601158389 -0.38689172056558874 178 181 182
0.9887746021305479 0.002271442658418833 -0.3861742457742419 66 68 69
0.8310164915971755 -0.012784492456327455 -0.3878410707295479 121 120 122
0.964408233515028 -0.018469196310209525 -0.38583602640314674 178 185 182
0.832365365980493 -0.03544695194817221 -0.389238896248543 85 79 84
0.832365365980493 -0.03544695194817221 -0.389238896248543 85 79 84
0.8333817015085266 -0.03843029581729939 -0.3894233061173124 97 93 98
0.9744995684298362 -0.09934287406607172 -0.3899730525230939 38 41 43
0.8917059310589919 -0.09997957518385502 -0.39306610985225593 26 26 26
0.8318450673956822 0.0662642308015765 -0.3856952151066868 176 176 176
0.8881263646488937 0.028454425151393972 -0.3840284141276883 27 30 29
0.8881263646488937 0.028454425151393972 -0.3840284141276883 27 30 29
0.8332763278353655 0.02252805053366314 -0.38413894082980177 169 170 170
0.8320713021233617 0.002757361880636008 -0.3836536606674793 163 168 177
0.8320713021233617 0.002757361880636008 -0.3836536606674793 163 168 177
0.9713824878324568 -0.011012359928397135 -0.3801105045927368 173 179 177
0.8319250569187838 -0.008488119378219713 -0.3834824237891656 101 104 104
0.932261178438916 -0.05178722686272884 -0.3821221659515752 159 160 156
0.9812503767056833 -0.06438292870778868 -0.3790890126000444 38 44 44
0.8955149681631834 0.06800452801542359 -0.3809804664625711 21 25 20
0.9958071100167194 0.06763292464717231 -0.38023881125738196 178 183 181
0.8947873575000034 0.04342203950145758 -0.3824974495271053 169 172 175
0.9018786588121868 0.031877996182178285 -0.382558826857041 164 170 172
0.8873789406480317 0.02827438822109614 -0.38238094462806915 24 25 21
1.0716787205806135 0.03622675071563555 -0.3801183173631154 120 126 124
0.9863252716545584 0.0025196889067916712 -0.3822749407952162 60 65 70
0.9863252716545584 0.0025196889067916712 -0.3822749407952162 60 65 70
0.8317452408758853 -0.010566140034220604 -0.3828912413700796 182 187 189
0.8317452408758853 -0.010566140034220604 -0.3828912413700796 182 187 189
0.8916164324210637 -0.019602193819256743 -0.38180613189196927 33 26 24
0.8916164324210637 -0.019602193819256743 -0.38180613189196927 33 26 24
0.9328765598868053 -0.051798880870915075 -0.383667344012199 154 162 161
0.9997834591548964 -0.064296522470015 -0.38011645672521743 55 61 63
0.9997834591548964 -0.064296522470015 -0.38011645672521743 55 61 63
0.9216295012850901 -0.06322389421503677 -0.38341507994623675 22 25 24
0.8333729700851066 0.09041957833692807 -0.3856344189734213 198 197 199
0.9581635326269073 0.09473546942698563 -0.3827903261100753 48 39 31
0.8633559494507308 0.0745780271708857 -0.38424879350830504 184 187 188
0.8633559494507308 0.0745780271708857 -0.38424879350830504 184 187 188
0.8563356105677162 0.05960954471698399 -0.3846864651279738 35 34 34
0.8311854529059424 0.05590989807791654 -0.384846602298723 126 124 123
0.8311854529059424 0.05590989807791654 -0.384846602298723 126 124 123
0.8318589674203897 0.04809886286653225 -0.3848461635507311 193 192 194
0.8318246569782515 0.04851205112305666 -0.3859122126211732 193 192 194
0.9150697147855867 0.05065221847014188 -0.3829813687647597 24 27 30
0.9150697147855867 0.05065221847014188 -0.3829813687647597 24 27 30
0.8751162519468976 0.015754960579553015 -0.3828595892621303 22 23 19
0.8751162519468976 0.015754960579553015 -0.3828595892621303 22 23 19
0.9367190252703332 0.016106380706691584 -0.3814320151590577 38 41 42
0.9303064184703683 0.009850612794759062 -0.3813420503459797 177 180 179
0.9303064184703683 0.009850612794759062 -0.3813420503459797 177 180 179
0.9303064184703683 0.009850612794759062 -0.3813420503459797 177 180 179
0.8315700929335196 -0.0306154256524163 -0.3814352551342876 176 179 182
0.9653793125920662 -0.08539581611118345 -0.37721136849765763 35 41 41
0.9653793125920662 -0.08539581611118345 -0.37721136849765763 35 41 41
0.9526003296705579 0.0934365563591792 -0.3842414144357443 29 32 33
0.9526003296705579 0.0934365563591792 -0.3842414144357443 29 32 33
0.9489221390533467 0.0841687746238368 -0.3876545911563148 28 34 36
0.9852399076293166 0.07513425078723987 -0.38162704878072384 44 50 50
0.8911346754762224 0.040138023231653684 -0.38522328642951703 170 173 174
0.9486409748812076 -0.015071535224999844 -0.37842462898583523 46 54 55
0.965265914725482 -0.01624992214862571 -0.37880283811012183 35 41 43
0.965265914725482 -0.01624992214862571 -0.37880283811012183 35 41 43
0.9488064688196305 -0.08600764018759818 -0.3707713987507821 188 189 190
0.9012011277239873 0.10441910187792172 -0.38190723451217756 181 180 180
0.9012011277239873 0.10441910187792172 -0.38190723451217756 181 180 180
0.829629198404542 0.047578101608624176 -0.38384509229410047 175 179 174
0.9530970411677527 0.03238654019350289 -0.3801768910919331 56 62 62
0.9530970411677527 0.03238654019350289 -0.3801768910919331 56 62 62
0.8311583388697795 -0.02780773038810854 -0.3804995329271093 120 124 124
0.8311583388697795 -0.02780773038810854 -0.3804995329271093 120 124 124
0.8717277903441931 -0.05351226629821133 -0.3813205980711594 158 164 164
0.9534562321634349 -0.09363502181781659 -0.3782508951385307 28 36 37
0.8675420163241867 0.06610149661687263 -0.38280204384864536 44 42 45
0.9259816324041898 0.07547919204570876 -0.3831749214177161 185 185 184
0.9639209756537611 0.031582397188608384 -0.37935262632951644 193 200 199
0.9270129203389241 -0.02466049753621903 -0.37987501443527194 26 32 30
0.8311479508274032 0.07108128656487485 -0.38442043341245286 142 141 144
0.9971676075359178 0.027571326532339895 -0.3778199483596702 70 73 74
0.9293308097989648 0.0011012798486346852 -0.3801416907479794 49 44 47
0.9023089774931584 0.09625511659978446 -0.3855032692763721 193 196 197
0.9023089774931584 0.09625511659978446 -0.3855032692763721 193 196 197
0.9932905477919021 0.07251543256265335 -0.3829748618880458 180 180 180
0.9932905477919021 0.07251543256265335 -0.3829748618880458 180 180 180
0.9256077347921653 -0.05691647437838226 -0.3798448901272305 38 38 40
0.9637802198923076 -0.08826776540975292 -0.378356449008569 44 47 48
0.8908132421551062 -0.09145522654136475 -0.37963980176889944 170 171 171
0.8312975871607522 0.06961551317358972 -0.38387440026396397 176 175 173
0.831085067803279 0.031080961711536542 -0.3833093812206026 118 118 114
0.8310747708496776 0.030977481813126453 -0.38296079010895184 125 125 125
0.8296999442339437 0.02058055421237004 -0.3821140618793408 170 174 173
0.8318950332482477 -0.004742267198335616 -0.3824153506217474 159 165 165
0.9598677403617889 -0.018174952623730055 -0.37888041217129587 168 175 175
0.9521495188005313 -0.029991589771698492 -0.3789876996944935 167 173 171
0.859889462125706 -0.061475562194577595 -0.3810235003486154 145 153 150
0.8945551413327224 -0.07695164981300114 -0.3801156618958411 16 19 18
0.8877585031590421 -0.07691522699491257 -0.3806206899115623 18 21 20
0.9042488753108003 -0.07794158203438191 -0.3796712643019168 18 22 17
0.8841426369125015 0.0973898162211601 -0.35993575231970004 43 32 25
0.9482024357670832 0.0955449101991118 -0.3606273245431839 59 58 60
0.9568062517652894 0.044043732135198174 -0.36756259061115537 42 51 50
0.9558466697485706 0.03847521598433392 -0.3684246067869682 188 196 195
0.9613624112679008 0.027881210775316006 -0.36986115668299374 48 55 49
0.8898136695221671 -0.026462911171836086 -0.37060435609045933 186 186 186
0.8846449910591788 -0.03180511501638018 -0.3708499897458693 29 30 26
0.8846449910591788 -0.03180511501638018 -0.3708499897458693 29 30 26
0.901117464807109 0.0885353151006437 -0.37569536518533697 36 39 40
0.979581892956091 0.0599883616988937 -0.37710420426888447 65 76 76
0.9084854714435301 0.024444191485100453 -0.3800168736988509 185 191 189
1.0681125971366099 0.02321857272756471 -0.38011429248857365 124 120 121
0.9289460084822616 -0.0023250201148395985 -0.3796699697188959 42 45 44
0.997910154805302 -0.011593585802063102 -0.3748185025891051 66 73 78
0.9645173550915829 -0.022698377810934714 -0.37994199536021356 199 202 202
0.9326775275674835 -0.05235958652586569 -0.38343948299737285 179 179 179
0.9226860742715313 -0.05830480045794286 -0.3829153253159942 175 175 175
0.8741647020319481 -0.06483250797679914 -0.3787093429899331 24 27 26
0.9941431346353311 0.06570951768635219 -0.3885649015587239 189 196 190
0.9941431346353311 0.06570951768635219 -0.3885649015587239 189 196 190
0.9076952790521495 0.048294656130542395 -0.38821172199597215 30 31 30
0.9644371201935471 0.03639827823195852 -0.3872274103009841 43 49 49
0.9684883564917435 0.0331549408023092 -0.3872907541631613 185 196 192
0.9493783464166494 0.0257767954972402 -0.3872074112870109 187 195 193
0.9431773681963126 0.02042813989391839 -0.3872638813072044 182 188 187
0.9431773681963126 0.02042813989391839 -0.3872638813072044 182 188 187
0.8763480877234255 0.016591167316429376 -0.3889531636349383 29 29 29
0.8763480877234255 0.016591167316429376 -0.3889531636349383 29 29 29
