ply
format ascii 1.0
element vertex 677
property float x
property float y
property float z
property uchar red
property uchar green
property uchar blue
end_header
0.8313032021209132 0.13250513359026936 -0.38431695520333453 120 114 116
0.8336892421244428 0.10851969022258959 -0.3832930527714762 191 190 190
0.831447534416271 0.08358365495082554 -0.3839754601034347 181 177 175
0.833300428922809 0.07026241288177097 -0.3841094851476241 125 121 122
0.8319549776512138 0.06212004627026028 -0.38407079567535024 177 177 177
0.8319549776512138 0.06212004627026028 -0.38407079567535024 177 177 177
0.9152045134934412 0.055783360326892566 -0.38202214027993275 173 176 175
0.914518510302591 0.05537036365793181 -0.38064548540525567 178 181 180
0.8979612255574945 0.03467620491558874 -0.38098940266665293 30 31 31
0.9837553286659481 0.005021262476158602 -0.3791893794522978 194 200 200
0.8332074771302115 -0.028394628273873537 -0.3835883152955897 159 162 162
0.8321364114885016 -0.03141599792189346 -0.38352759638133677 99 101 101
0.858768822379979 -0.04839807676650654 -0.38365709297389705 15 21 19
0.8952783708150786 -0.07749978117530688 -0.38184157360553905 21 21 21
0.9013951240610371 -0.0886678274568002 -0.38134441152367327 147 152 148
0.8300228142404099 0.12693474921069783 -0.39136079150788733 193 192 192
0.9023322100758413 0.10528239759938347 -0.3839558595099949 197 201 204
0.9720594629038645 0.08748862534977812 -0.38218435736301004 185 192 187
0.9410885815231592 0.08211770860005578 -0.382924168685456 183 188 187
0.8738351241560706 0.060843170854152626 -0.38450554393864095 20 26 23
0.8321431755258913 0.04722470955822933 -0.38478166123919405 112 110 112
0.969325692570167 0.03623844106358316 -0.3829471594546494 44 55 55
0.8326762045731436 0.02072279404693791 -0.38455786104759426 107 106 110
0.8326762045731436 0.02072279404693791 -0.38455786104759426 107 106 110
0.8322092733062488 0.01028289215022389 -0.3848137605372734 174 176 182
0.8323555084523838 0.003911303760093895 -0.38446952686568037 140 140 141
0.9417335366624837 -0.006238278170788095 -0.3829363375013578 169 175 173
0.9101155104717836 -0.006024526266263129 -0.3835919895958543 21 27 25
0.9098175491397638 -0.005938788338124697 -0.3827853656864288 25 31 29
0.8794709148388117 -0.011928638411517794 -0.38505878397511245 21 24 21
0.8794709148388117 -0.011928638411517794 -0.38505878397511245 21 24 21
0.9595158410568464 -0.023725837633706386 -0.3831036017810852 180 186 184
0.9154495188631675 -0.03723148116137978 -0.38110694746492224 20 23 22
0.9154495188631675 -0.03723148116137978 -0.38110694746492224 20 23 22
0.8735479794386871 -0.048428864205866534 -0.3836718872140244 19 22 21
0.8735479794386871 -0.048428864205866534 -0.3836718872140244 19 22 21
0.8973210585693949 0.0998002315810605 -0.3834726895274816 31 34 33
0.8973210585693949 0.0998002315810605 -0.3834726895274816 31 34 33
0.9210232882940536 0.07569528886125698 -0.38411689278895506 27 33 31
0.894936586063634 0.03205974462166485 -0.3825979987353 30 29 29
0.8301615959927476 0.023952349665685442 -0.38572553811666227 186 189 188
0.8786269017941339 -0.0060433661341420895 -0.38255881361800625 160 166 164
0.9646703892838787 -0.019285636988571497 -0.38070093814495065 39 40 44
0.8335617951591233 -0.013852569765674104 -0.38281675435576923 128 128 130
0.9534241682251777 -0.030121488666142036 -0.3806490618399058 183 186 185
0.8313261682497154 -0.03179751064363317 -0.3830860462865687 174 181 185
0.8587086459980352 -0.04828563712200071 -0.383215421003439 22 23 23
0.9888217694307491 -0.06412825227959462 -0.37938329398212917 34 39 40
0.9815496665953454 -0.06461693783762054 -0.37978543933175535 31 34 37
0.8993969473952849 -0.08072862389621241 -0.3816008846989248 158 161 164
0.8626854598947294 0.09951086331322717 -0.37881254249311275 21 27 25
0.8626854598947294 0.09951086331322717 -0.37881254249311275 21 27 25
0.8318204423769151 0.09567506671660098 -0.38373010670240393 140 142 142
0.8318204423769151 0.09567506671660098 -0.38373010670240393 140 142 142
0.8321531214820254 0.0850003638770924 -0.38488615809557736 186 189 192
0.8320904573929564 0.08118537593051375 -0.38542308103679634 184 189 187
0.8324660464984384 0.053955639639808886 -0.3865871138995221 177 182 180
0.8330399477296652 0.05097579984846865 -0.3872649974885224 136 133 131
0.957882284316507 -0.03051234049372449 -0.3814972080276795 48 47 47
0.957882284316507 -0.03051234049372449 -0.3814972080276795 48 47 47
0.831994426999113 0.08860405197056316 -0.38297398621971424 139 137 137
0.8760197956997181 0.07852450924320292 -0.38632040909231025 33 32 32
0.8760197956997181 0.07852450924320292 -0.38632040909231025 33 32 32
0.8329578796370186 0.056688874365923764 -0.3822825696331611 120 114 116
0.8330838056189664 0.056842634249204105 -0.38372922273514 100 100 96
0.8316798350423187 0.05204527341864026 -0.38247799410635025 127 126 128
0.8319731587918605 0.048930243041543996 -0.3831491832143089 124 121 125
0.8336694779950492 0.03186034981681015 -0.3846880712840948 150 148 150
0.8336694779950492 0.03186034981681015 -0.3846880712840948 150 148 150
0.9320845797252286 0.009335548926650552 -0.3860483529067403 169 174 174
0.8646892730514958 0.00810095568652883 -0.386080181543523 38 40 39
0.950355758708499 -0.014993191786116973 -0.3806760571594767 46 54 55
0.8953561007353102 -0.022777179378546675 -0.3823559330659201 43 38 37
0.9487385391767833 0.08278314569345442 -0.38651922945758505 43 46 49
0.9161478607363331 0.056169884190980755 -0.3844486062448285 175 183 180
0.9161478607363331 0.056169884190980755 -0.3844486062448285 175 183 180
0.9591623906502555 0.03706364091678388 -0.3838758626573309 43 47 42
0.9604527256073151 0.03720019580989363 -0.38627107672646 41 47 47
0.9591711179368859 0.031979570105796024 -0.38450264447368365 182 188 186
0.89183241083041 -0.019479869966939678 -0.3818122656819862 36 34 31
0.9674426710570706 -0.03334852590659957 -0.3793558536354821 39 41 44
0.8601627278590659 -0.05353281752771965 -0.3823876164367092 168 167 167
0.9579775754935499 -0.08618371705591958 -0.37547000461579927 187 190 191
0.9579775754935499 -0.08618371705591958 -0.37547000461579927 187 190 191
0.8954533187918955 0.10601160546583027 -0.38449057542320303 184 187 188
0.931195325062569 0.06722391802094241 -0.384528108758466 34 37 36
0.931195325062569 0.06722391802094241 -0.384528108758466 34 37 36
1.005459941880734 0.05087097660870677 -0.38486946194125704 62 70 71
0.929008572047211 0.03723616595415835 -0.38437408817011204 30 36 34
0.8658502608543748 0.013926374442156384 -0.3831598003310127 32 32 34
0.8658502608543748 0.013926374442156384 -0.3831598003310127 32 32 34
0.9624800430330372 -0.022684466630784664 -0.3827598017224279 38 40 43
0.9624800430330372 -0.022684466630784664 -0.3827598017224279 38 40 43
0.8911624851976129 -0.022444815832111706 -0.38242164860773925 171 177 177
0.9800647955216926 -0.06933151644996699 -0.38273648917394487 202 202 204
0.8318580075197537 0.12247089130993889 -0.38652853469041626 201 202 205
0.832539999479553 0.11206410061153334 -0.38569508596758006 137 133 134
0.8317513908216081 0.09349124995861065 -0.3851884143193506 182 185 188
0.8333736699749015 0.08987028662122627 -0.38384504323225027 189 189 191
0.9060111784896985 0.09070416399478291 -0.3829680568825404 33 33 32
0.8302589417047584 0.08048079175909993 -0.38564003068850256 185 188 189
0.8787772590743567 0.08144070433424624 -0.38420909605896963 183 186 187
1.0739080236913876 0.08611107482535149 -0.38391082006260874 106 103 100
0.9151080623298428 0.05570617113423334 -0.3815682340490976 176 184 183
0.9151080623298428 0.05570617113423334 -0.3815682340490976 176 184 183
0.9094169901875242 0.050204095427320565 -0.381945323212694 175 183 180
0.9094169901875242 0.050204095427320565 -0.381945323212694 175 183 180
0.8329770701400211 0.03108650845623017 -0.3833885250489882 182 182 184
0.8332402472080234 0.028276884943116806 -0.38340890606005706 100 96 99
0.8332402472080234 0.028276884943116806 -0.38340890606005706 100 96 99
0.860161841503662 0.011977683097653541 -0.38299724057630713 167 173 173
0.9351783262955485 -0.05460574595087453 -0.38149692625405957 156 162 162
0.9357808648628045 -0.05905509167676687 -0.380372434653104 23 23 23
0.8970296502212801 -0.055590286120368516 -0.3822534465157004 15 19 14
0.9103855639186887 -0.07456331615418603 -0.3836297551472152 169 169 166
0.9667463563315581 -0.09492528665637813 -0.37712239912041384 37 37 42
0.8530804900020049 0.08697175286779973 -0.38152774859224486 25 29 28
0.8321471758095126 0.07275253619985833 -0.3834850631103258 130 129 129
0.9018788014468739 0.03167912341646855 -0.38173820201166586 167 175 172
0.9512982861806183 0.029762273385814626 -0.3811419274243535 33 39 39
0.8342500742877875 0.010347024761659001 -0.38203136468237253 172 175 176
0.8320864834666684 -0.0020525849663303726 -0.3828619301376947 179 185 188
0.9607330069686162 -0.02217959456149549 -0.37971427514847866 46 42 47
0.9607330069686162 -0.02217959456149549 -0.37971427514847866 46 42 47
0.9529473412884335 -0.030135675550102575 -0.37974980683923365 184 187 186
0.8330246087765053 -0.02500995708629894 -0.38317860266476494 170 176 178
0.922910922032918 -0.06039864168047279 -0.38083684863334294 35 23 30
0.8716210649789112 0.06625879243491269 -0.3828169444259824 191 199 200
0.8316968652455314 0.05200060571808122 -0.3836086313322996 112 111 114
0.8659403226939889 0.013839552195441139 -0.3833680299432573 23 26 25
0.8323024287815137 0.013911702461666692 -0.38278870195039705 169 175 173
0.8319736476869614 0.0717794779724998 -0.38208999560325907 187 187 187
0.8320953321112924 0.07196246528481297 -0.38344409048113864 187 187 187
0.8795663353650958 0.05602123750258501 -0.3867478508504766 176 182 182
0.8795663353650958 0.05602123750258501 -0.3867478508504766 176 182 182
0.8845639823792928 0.019184494161712688 -0.38287154871591594 32 32 34
0.8612112168607307 0.0009226589510044613 -0.38483727173708343 42 34 39
0.8612112168607307 0.0009226589510044613 -0.38483727173708343 42 34 39
0.9216356740577418 -0.04759458766221383 -0.3793088361950848 19 22 21
0.831582013854329 0.12146611882780517 -0.3813846219830399 138 138 141
0.8677678441358605 0.06655272995446779 -0.38391764896697006 44 45 49
0.8313959719962218 0.061314173946915504 -0.3781789040570802 189 187 188
0.8933563728186438 0.03906790606927159 -0.3780363084987251 29 32 33
0.8616593866171339 0.004098217970417145 -0.3740160322345434 190 190 190
0.8845898121776046 -0.00641854591800357 -0.38284709756581015 22 25 24
0.8845898121776046 -0.00641854591800357 -0.38284709756581015 22 25 24
0.8952470300858085 -0.01861341696000043 -0.381985137538817 184 185 181
0.8952470300858085 -0.01861341696000043 -0.381985137538817 184 185 181
0.8730432523309387 -0.05892335339056842 -0.38779440356617634 32 28 29
0.8730432523309387 -0.05892335339056842 -0.38779440356617634 32 28 29
1.0783403337426414 0.125092728580198 -0.38331689295923427 121 121 121
0.8918783908458585 0.09439154127276382 -0.3848894800554779 194 194 196
0.8641210145347429 0.0703120797674233 -0.38397112035523623 37 31 30
0.9933378683530466 0.07403913017558547 -0.38106910744155736 67 72 73
0.9224221922291418 0.06985785728966229 -0.38157063227473276 46 38 29
0.9224221922291418 0.06985785728966229 -0.38157063227473276 46 38 29
0.9403959638888056 0.055819865907902035 -0.38134078037536373 178 186 183
0.9475416971042387 0.019642801566917216 -0.3832074800939416 31 38 37
0.8637859970864002 0.00014964723367818416 -0.38165225075263787 176 179 180
0.8637859970864002 0.00014964723367818416 -0.38165225075263787 176 179 180
0.9153049048814489 -0.006118911378354248 -0.3811337541665546 159 168 165
0.9153049048814489 -0.006118911378354248 -0.3811337541665546 159 168 165
0.9633713194271932 -0.01922684135062684 -0.37853598145229495 49 48 51
0.8732349638702648 -0.04794225355199222 -0.3819292269387593 20 20 20
0.8732349638702648 -0.04794225355199222 -0.3819292269387593 20 20 20
0.8660284777534076 -0.05538205398928518 -0.3822111512454507 167 167 169
1.069573740437175 0.1771584620254848 -0.3832884198915722 63 60 57
0.8599906527453428 0.06531173547927764 -0.3806157830687336 49 41 45
0.8599906527453428 0.06531173547927764 -0.3806157830687336 49 41 45
0.8783370998009774 0.02492859953995478 -0.38185120865098515 31 34 33
0.910264173076081 -0.006213163588401448 -0.3840369596867155 32 35 34
0.9155739015450263 -0.011704593989796844 -0.38134320916562153 34 34 34
0.8894509161017361 -0.016791252466014542 -0.3822111180350463 25 28 27
0.8894509161017361 -0.016791252466014542 -0.3822111180350463 25 28 27
0.9509713258767795 -0.03411267689955833 -0.38190013477605383 41 44 47
0.9509713258767795 -0.03411267689955833 -0.38190013477605383 41 44 47
0.9837943585896086 -0.04919602196161073 -0.3784242179251483 198 201 200
0.9359188535890144 -0.045756642610037056 -0.37892258869336254 34 37 40
0.984506568716666 -0.061307810141297145 -0.379676149291409 199 199 201
0.8320238362009641 0.0713429464030666 -0.38297690105139187 189 191 190
0.8962860546700351 0.06867843693889608 -0.38221265545476385 20 26 24
0.8299635306323169 0.054599671402607464 -0.3848772517442159 182 185 184
0.9562869697484855 0.02891346642910436 -0.3794294389952149 36 39 41
0.9295695858498162 0.009165993408272408 -0.38036840303960257 169 177 174
0.8638456349574035 0.008222923054527115 -0.38245685323697576 32 35 34
0.8326489761406064 -0.001429433549484955 -0.3819582711387651 118 118 118
0.891895197487255 -0.019572280294705622 -0.3820776551073885 40 38 33
0.8329200798376143 -0.02500168756326722 -0.38233596287761124 161 165 166
0.8954574546605806 -0.03116601516070621 -0.3805536568406301 154 162 159
0.8954574546605806 -0.03116601516070621 -0.3805536568406301 154 162 159
0.8333759208408374 -0.03232625143711339 -0.3825849555100191 89 84 88
0.8335305055955189 -0.0353378085627547 -0.3823824441213822 117 116 116
0.8335305055955189 -0.0353378085627547 -0.3823824441213822 117 116 116
0.9152306770704025 -0.042676564755445484 -0.38065278813448433 157 160 159
0.9152306770704025 -0.042676564755445484 -0.38065278813448433 157 160 159
0.831751790619619 -0.03779973171383139 -0.3828654478645292 88 87 89
0.8317503567382839 -0.03780422173037097 -0.38276888103272255 88 87 89
0.9044150062700973 -0.07820541677049396 -0.3797802598450444 19 24 19
0.9044150062700973 -0.07820541677049396 -0.3797802598450444 19 24 19
0.8949485110850627 -0.08142737622277332 -0.3806463946374978 23 23 19
0.8322279896864949 0.12310651883150198 -0.38599258772678985 138 132 136
0.9637064041616802 0.03968488933847697 -0.3813319666216499 179 185 183
0.9021205140577155 0.031646113229834384 -0.3822312422477367 171 180 178
0.8896227176295156 -0.016871821081597568 -0.3824932703521104 29 30 26
0.8319124477172641 0.13128113456547402 -0.38660033101881014 188 185 185
0.9643131068789751 0.1059169338220155 -0.38176563463885815 193 201 202
0.9601347081059589 0.03164327695778888 -0.3791302886097916 49 52 53
0.8319008076132752 0.005287203305583337 -0.3821566661599045 174 176 178
0.8318970198497774 -0.004454336102390414 -0.3824285575939247 178 178 180
0.8581571054869591 -0.04812717758497018 -0.38155627073170684 20 21 18
0.8320507657644907 0.14072302999788083 -0.3877664395619508 163 155 158
0.831782390923135 0.1267737834763146 -0.3863866808150346 149 148 150
0.9913702826213966 0.10278628899367585 -0.3816248744490894 46 54 51
0.9481059223187033 0.08248950872403699 -0.3846453920431021 37 40 40
0.8335627856151817 0.04749935305505397 -0.3835044829671916 194 194 198
0.8319890858161882 0.04606020275803071 -0.3836805897055463 148 147 149
0.8319890858161882 0.04606020275803071 -0.3836805897055463 148 147 149
0.9794261260737742 0.051472922951722615 -0.3839761621033751 54 62 61
0.8317736600023115 0.029192837537474575 -0.3830577432087082 135 135 141
0.8950455697464081 0.02861857189778993 -0.3825469137215359 23 26 25
0.8311955601886751 0.02564846953347958 -0.3825034539561741 145 145 149
0.9473519771344963 0.019802204400520326 -0.3828468343229035 51 56 59
0.8892593015470195 -0.016769856379785352 -0.3815139365777242 20 27 21
0.897961745488045 -0.029540317432919145 -0.3805155892127369 31 27 28
0.897961745488045 -0.029540317432919145 -0.3805155892127369 31 27 28
0.9528749424430927 0.10773197894154861 -0.3814958577258936 34 40 42
0.8322906508807102 0.08364939407415518 -0.38651464832631033 182 181 181
0.8322906508807102 0.08364939407415518 -0.38651464832631033 182 181 181
0.9619108045619476 0.09390039441033057 -0.38028997601161363 180 185 179
0.9913868353586688 0.04092107174771869 -0.38000593196687776 53 64 62
0.8331451289829643 0.031221293778757157 -0.38483802483294116 193 194 197
0.860787493505015 0.001231379763282485 -0.3828435785310104 39 26 23
0.8929365124992561 -0.02787489078209604 -0.3794250632590742 186 186 186
0.9282497368815334 -0.06067500780836685 -0.37878532997259257 179 179 181
0.952293864896633 -0.08000980490569815 -0.37782147049237025 177 183 182
0.952293864896633 -0.08000980490569815 -0.37782147049237025 177 183 182
0.9022289197668549 0.10509697580520892 -0.38338349027179014 183 186 187
0.8915663841070776 0.09421322930050237 -0.3838433188386256 181 184 183
0.951513554152826 0.09195388154402155 -0.3811270095268583 34 40 39
0.9671981799942011 0.09037638312383332 -0.379917133121078 47 51 48
0.9975570101523266 0.08655328093379813 -0.37442553460503225 68 75 79
0.8730671909167852 0.07543640703066172 -0.38525581554884386 29 35 35
0.8730671909167852 0.07543640703066172 -0.38525581554884386 29 35 35
0.87344538126396 0.07587304049265635 -0.3869093541522071 21 27 25
0.9327278560596547 0.07417452492007141 -0.3793180366397725 177 183 183
0.9935774443464552 0.07400202562112942 -0.3812164493285102 69 68 70
0.9962350705779089 0.06993646145484089 -0.37625573555565783 67 73 73
0.9450195243216454 0.049967762129169535 -0.3782565490697816 181 187 185
0.9160264968019296 0.01948823551522114 -0.38357076013885805 190 196 196
0.9799037955125259 0.016117734075799542 -0.37761237063379266 67 72 79
0.8317671289023321 0.1171131255008927 -0.3851110583010575 184 183 185
0.9428042026342063 0.11459347354418159 -0.39025053756338635 32 35 35
0.832025700111968 0.0917010783474688 -0.3855576082710108 127 123 124
0.8309390975316859 0.08399331997897319 -0.38336838149996283 141 141 143
0.9236194427416429 0.06403365930259174 -0.3842771441668553 48 38 37
0.9236194427416429 0.06403365930259174 -0.3842771441668553 48 38 37
0.8330265042957392 0.0542913062406366 -0.38291488080427355 114 113 112
0.8316276396617965 0.05186716586787862 -0.3829829102198808 115 111 113
0.8326005336386306 0.050560399749070464 -0.3832871795454084 137 133 134
0.8318507349622513 0.047684803295567034 -0.3831050268736931 178 177 179
0.8333191489042117 0.03158926428632561 -0.3825879835854697 149 148 149
0.9658852043323125 0.032021927514097916 -0.3819756529380685 176 184 181
0.952051667875106 0.029749748399586058 -0.38228320418552286 32 40 39
0.952051667875106 0.029749748399586058 -0.38228320418552286 32 40 39
0.8320188931918798 0.002830825690728939 -0.3820620436133939 177 176 178
0.9788217082391616 -0.006203302589274182 -0.38112226500575097 179 185 185
0.9788217082391616 -0.006203302589274182 -0.38112226500575097 179 185 185
0.9785280602262453 -0.011482197247050243 -0.3808062866351478 40 50 53
0.831331593877139 -0.012615896212527273 -0.3825932548557378 121 120 122
0.831746798424406 -0.01291571884413103 -0.3815479151976987 151 150 152
0.832311133519914 -0.014832236937712327 -0.3822940779376694 172 178 178
0.9632248251718584 -0.029937201280180438 -0.3799612565387348 184 187 188
0.8336716412909988 -0.034005363723326576 -0.3832712955454825 121 117 120
0.871973162958514 -0.05373443094976607 -0.38249988036525057 165 171 169
0.871973162958514 -0.05373443094976607 -0.38249988036525057 165 171 169
0.9019451433401324 0.0946448103584232 -0.38292410980686015 186 191 189
0.8837633000086439 0.04977517948416191 -0.3812947062730397 172 174 173
0.8605596863759281 0.005199682222377569 -0.3834696858957008 162 170 169
0.8973182310826054 -0.02259592408563969 -0.38084183009377026 154 165 162
0.8324161781933255 -0.03350648272648776 -0.3821631113455205 156 160 161
0.9293921582922255 0.1044922699892455 -0.38644703880372583 24 28 23
0.9408525198025561 0.08181363686438377 -0.3822456799939665 186 186 186
0.9412150400264997 0.056596490999044576 -0.38310539085464285 170 175 173
0.8955005421333343 0.04380964672689206 -0.3836954868650093 169 172 175
1.0738599240745073 0.02410812260737322 -0.38557448632942715 114 117 116
0.8323766643230898 0.0016691320580781445 -0.3834831316461221 172 175 178
0.9872182243012295 0.0024703826688309656 -0.38342065294990335 60 65 70
0.9872182243012295 0.0024703826688309656 -0.38342065294990335 60 65 70
0.9101184300951289 -0.01146021012710583 -0.38295881426374767 160 166 166
0.831955503910925 -0.024956115003582763 -0.38328831012295234 169 175 175
0.833169244064384 -0.026797544277986203 -0.3837737085364441 179 180 182
0.9732416998116843 -0.03720249380761748 -0.3824642330379422 170 177 174
0.9383999316787013 -0.04622458354227666 -0.38320881600275875 26 29 30
0.9835972182587879 -0.05723806231998902 -0.38234616648202346 40 46 47
0.993025469904708 -0.06203576999012879 -0.38098166950606654 177 182 182
1.0082246721016195 -0.15140500766023116 -0.37962032750117963 19 20 20
0.8334454790824816 0.08957323648930296 -0.383405204145389 198 197 199
0.8312461865067927 0.05548636864871294 -0.3830410658520657 118 117 116
0.8312461865067927 0.05548636864871294 -0.3830410658520657 118 117 116
0.9827024110342567 0.06620266662523178 -0.37830651650345576 179 179 180
0.8600288494888658 0.011962184158609925 -0.3824965290851745 169 175 177
0.9601984605046361 -0.018290742394628152 -0.37892381684620824 173 179 177
0.9522199696716616 -0.030150133364452304 -0.3785521181979924 170 177 175
0.8315773277892907 -0.030471770809355155 -0.38102875077911286 176 179 182
0.8334821760713057 -0.03393920879881496 -0.38144331447897695 119 121 122
0.9088457430230412 -0.03728592110343744 -0.37951109730791055 167 177 170
0.8872651169999388 0.09013322862423284 -0.3823609410586978 32 31 31
0.8836202492587444 0.08660477833426813 -0.38232682652860056 186 186 186
0.8329332907545006 0.05661157336367554 -0.38312538270374497 110 109 111
0.8329332907545006 0.05661157336367554 -0.38312538270374497 110 109 111
0.9198073058756039 0.06077956136694702 -0.3815566763262032 40 46 44
0.9628313866794136 0.039464144345170794 -0.38008942453473005 169 172 171
0.9556336637126778 0.10375539958426788 -0.37883005158084176 37 30 25
0.9619403421663422 0.09378899941727474 -0.3805555966185501 189 192 191
0.9516220352891042 0.0918932057150149 -0.3813680723881104 41 52 48
0.9501745450907051 0.09072200605181444 -0.37883078745588666 29 32 33
0.8319458413480402 0.07144152009319839 -0.3822042592200146 192 190 193
0.9659777707969572 0.08942349365574855 -0.3783535100624203 38 40 40
0.8297979056040814 0.0652986262263266 -0.38293623032617075 191 191 193
0.9143919178303985 0.04979653861741324 -0.380395718828943 28 31 32
0.9490172816455246 0.046101160650663484 -0.37908705968542056 34 37 40
0.9892173374766602 0.04021092243973037 -0.3773611643169542 50 58 57
0.9892173374766602 0.04021092243973037 -0.3773611643169542 50 58 57
0.8725939587842423 0.012723778843311275 -0.38201352423942875 23 26 25
0.8311840167446491 0.008403509819275115 -0.38225103009954225 129 129 131
0.8314206128326965 -0.02759613783058702 -0.3821172947597018 107 110 111
0.8323361504628539 -0.034625407303385834 -0.3820099138376061 85 79 84
0.8323361504628539 -0.034625407303385834 -0.3820099138376061 85 79 84
0.8320140412235738 -0.03650838779169051 -0.3826480420264944 109 112 114
0.9814798131539023 -0.04915223828680555 -0.3750336750428741 184 189 187
0.9747076731541312 -0.07253504599361575 -0.3745856828882485 32 40 42
0.8321224549158359 0.11029499421957371 -0.3850695738282427 148 145 142
0.831880492683701 0.09571891717785035 -0.38422085834262715 172 168 171
0.901588998042357 0.10447849969526356 -0.3817806080208035 181 180 180
0.901588998042357 0.10447849969526356 -0.3817806080208035 181 180 180
0.8301397820449432 0.07094977749697493 -0.3840212567592799 194 194 194
0.8300161482561621 0.048251125940528834 -0.3849289169073641 175 179 174
0.8677649432480207 0.008859887953184452 -0.38214764397842516 164 172 172
0.8677649432480207 0.008859887953184452 -0.38214764397842516 164 172 172
0.8314865332255071 -0.02584568678347953 -0.38293488260642355 136 136 138
0.8314505644148084 -0.027613407900357444 -0.3821549027300443 120 124 124
0.8324786496572116 -0.035740453813591075 -0.38266011192793076 170 175 173
0.8332775813983987 -0.03755939948022871 -0.3822372223418183 96 96 96
0.9803962812977836 -0.045740133009917666 -0.3781993944403191 46 49 49
0.9265962637787697 -0.05021142361146071 -0.38084353254180253 41 47 47
0.9265962637787697 -0.05021142361146071 -0.38084353254180253 41 47 47
0.9311623416378385 -0.05166854453105884 -0.3800216084530283 168 176 173
0.8721512605615637 -0.05359963038186362 -0.3825857528204049 158 164 164
0.9537486943453535 -0.09399526377096473 -0.37869146581988733 25 31 33
0.8299971261683903 0.0633461479499928 -0.3848657706987503 198 201 204
0.9853230601457608 0.0638541091763446 -0.38156234770859687 88 90 94
0.8600126056026316 0.004924495416957992 -0.38103435304413613 192 192 193
0.9960650570881131 -0.00091110881609938 -0.3775396273747387 61 72 72
0.9606991543889484 0.03171507195575146 -0.3802280140119799 55 63 62
0.9652141620646266 0.0319492031827867 -0.38120328196452213 193 200 199
0.9020170839401067 0.10493388893705982 -0.38293572850756424 182 181 181
0.8964033234037361 0.06870557949395065 -0.3821694968746569 27 33 31
0.893383312719422 -0.028324753260242534 -0.38099065242394076 187 188 187
0.8320838344254553 0.07167706849758766 -0.38362131169807867 180 179 180
0.8310795574078487 0.07142528270987641 -0.38424557004675375 142 141 144
0.8638476201723304 0.07028693431946871 -0.3828404728229797 41 37 35
0.9981800938061929 0.02786704678961908 -0.3785430915271762 70 73 74
0.9013493416136603 0.09405157439288286 -0.38139011640473097 193 196 197
0.9013493416136603 0.09405157439288286 -0.38139011640473097 193 196 197
0.9601085486221007 0.10217852771816537 -0.3809895077391633 42 37 39
0.9290892577387545 0.07177093414150597 -0.38073663331194385 196 197 192
0.9910451675461885 0.07067720165911484 -0.3793372721837201 180 180 180
0.9910451675461885 0.07067720165911484 -0.3793372721837201 180 180 180
0.8605066641297807 -0.057306242798120535 -0.3821458184236957 25 24 26
0.8317626529388722 0.0656289798821387 -0.38314960269297726 176 176 176
0.8600284383747373 0.06496095526538453 -0.38148948445347186 35 30 20
0.8600284383747373 0.06496095526538453 -0.38148948445347186 35 30 20
0.833369728950378 0.054747994477506126 -0.38446930210811353 115 118 121
0.936212060415312 0.05821466022773059 -0.3793930696939924 43 49 49
0.8869781275683939 0.0277899394784297 -0.380614381940834 27 30 29
0.829747003393753 0.020870794975269055 -0.3819099243218198 170 174 173
0.8319977522226918 0.011862171774566457 -0.3823255869904076 116 119 118
0.8728179625632074 0.012914766433494143 -0.38298663925956133 19 25 23
0.8309744548397733 -0.007886502798373147 -0.38197760566379074 160 170 173
0.8323440125327913 -0.0077192041463330086 -0.38243053196689075 146 146 146
0.8323440125327913 -0.0077192041463330086 -0.38243053196689075 146 146 146
0.8326617404584926 -0.009737880395952962 -0.3824887400392577 110 116 116
0.8318951213687812 -0.017179772051993027 -0.3820282979239319 165 169 168
0.832555767885846 -0.02980993626383186 -0.3818370449911241 155 163 163
0.9828975375682651 -0.06095283446552969 -0.37731857101290045 175 181 180
0.9828975375682651 -0.06095283446552969 -0.37731857101290045 175 181 180
0.8633926116848176 -0.060699999869698255 -0.3811885600708572 25 23 18
0.9530317176414299 0.09266131179415728 -0.38391753898720227 38 45 46
0.8707850296984191 0.007544119602444586 -0.38118416516353043 49 45 46
0.8707850296984191 0.007544119602444586 -0.38118416516353043 49 45 46
0.9536230108210596 0.03243572194240575 -0.3807211175684927 69 64 68
0.9536230108210596 0.03243572194240575 -0.3807211175684927 69 64 68
0.8985298111120115 -0.025943922169880156 -0.38077182304463997 161 169 167
0.8985298111120115 -0.025943922169880156 -0.38077182304463997 161 169 167
0.9613322611040385 -0.018461090274879348 -0.38104043717709896 201 204 203
0.8317091669771286 0.04623640966619614 -0.38064904658808724 160 155 158
0.8663453400929838 0.013808576107575217 -0.3830769845638466 26 28 27
0.8663453400929838 0.013808576107575217 -0.3830769845638466 26 28 27
0.9579817437443892 0.04268632877388114 -0.3762627525238925 70 74 79
0.9073879221080222 0.019306559705797335 -0.37762561441835235 31 37 37
0.9174145132456027 0.01599582479617861 -0.3780659284639879 39 42 45
0.9459871137603594 0.019449155502678252 -0.37954149707231494 48 54 56
0.9459871137603594 0.019449155502678252 -0.37954149707231494 48 54 56
0.9773015252001083 0.01972654616093591 -0.37935911397388933 201 204 203
0.9773015252001083 0.01972654616093591 -0.37935911397388933 201 204 203
0.9625271666107691 -0.02240231436891913 -0.38209520647065054 45 47 55
0.9625271666107691 -0.02240231436891913 -0.38209520647065054 45 47 55
0.9411574389049712 0.08723667517426792 -0.38293442399823124 38 41 40
0.9266063403522664 0.07006288584689 -0.38098270588375366 191 196 196
0.97273282050725 0.05640548165065676 -0.38318244566606635 49 56 54
0.97273282050725 0.05640548165065676 -0.38318244566606635 49 56 54
1.0732976884526844 0.0525971923518107 -0.3769622830847849 116 119 118
1.0725326448952432 0.02354091943464831 -0.3838414324845167 124 120 121
0.920091694265745 -0.0011896946554923204 -0.3808663060342483 33 36 35
0.9204290662339767 -0.0012359293572076935 -0.3816802832409172 29 32 31
0.9204290662339767 -0.0012359293572076935 -0.3816802832409172 29 32 31
0.9593212402113485 -0.01797510943828426 -0.37755157842951015 198 201 200
0.9821820552979176 -0.06157241883244688 -0.3696660953027164 40 40 44
0.9573012630849884 0.04377356457490243 -0.38158790198324205 191 199 198
0.9100203816785392 0.024796317788223606 -0.38294184885931765 185 191 189
0.9097088061360136 0.02479277010066941 -0.38212824042654775 190 196 194
0.8602035608595174 0.0051727670203013205 -0.3815171441207432 192 192 194
0.9578241019699711 0.006212734645141589 -0.37996478108558573 34 40 40
0.9777208297895202 -0.011391184872633246 -0.3795791902556281 52 58 60
0.9777208297895202 -0.011391184872633246 -0.3795791902556281 52 58 60
0.9407066260834135 -0.03733236912003248 -0.3814445189592283 30 36 36
0.9407066260834135 -0.03733236912003248 -0.3814445189592283 30 36 36
0.9399454068306183 -0.04225930584530848 -0.37932290061460716 186 186 186
0.9399454068306183 -0.04225930584530848 -0.37932290061460716 186 186 186
0.9222536434475309 -0.053329314328474015 -0.37928873469068647 177 178 178
0.9832829576614732 -0.060864396813309476 -0.3778243163352428 199 199 201
0.9357119005838965 -0.06353251952384398 -0.38059015902448917 27 30 30
0.9457523410358241 -0.06796241067061348 -0.37788062309796017 30 33 34
0.8320929067043298 0.09179188082263806 -0.3857405657036073 135 131 133
0.9038903795190784 0.09077847357172797 -0.3822499309300667 36 39 40
1.078612558552 0.03884231191876108 -0.3835803201038741 130 132 134
0.8971312525281766 0.006344957852558131 -0.3825603221434437 23 27 22
1.0019277823911947 -0.011864859682625841 -0.37945892774608253 66 73 78
1.0016832780045368 -0.011812261074500775 -0.37924471588413716 66 73 78
0.9225759103712285 -0.048036596011887873 -0.3813549716215428 29 29 31
0.932544383516543 -0.052083032558219985 -0.3823458033677258 179 179 179
0.8734952242650881 -0.0639231592922451 -0.3756653241188168 24 27 26
0.885801333935256 -0.07570969164488285 -0.3743404772504107 24 24 26
0.9521723849786298 -0.0823194431271517 -0.3708388702606406 51 45 47
0.9521723849786298 -0.0823194431271517 -0.3708388702606406 51 45 47
0.964647947855625 0.10597380574054906 -0.3824745589665538 191 194 193
0.8678050634596389 0.07034971565974797 -0.38304028605884477 191 194 197
0.8678050634596389 0.07034971565974797 -0.38304028605884477 191 194 197
0.9891239234469672 0.0630585894752938 -0.38076240973372877 189 196 190
0.9062764416137146 0.04679753391355344 -0.38257477308666193 30 31 30
0.9062764416137146 0.04679753391355344 -0.38257477308666193 30 31 30
0.9609434837009688 0.03493035883167453 -0.380489306212476 43 49 49
0.96486562005791 0.031772361104281666 -0.38053453539420046 185 196 192
0.9461762314345412 0.024590391916836107 -0.38016288453871444 182 188 186
0.9406034813873697 0.019528246016364572 -0.38117657316754794 182 188 187
0.9406034813873697 0.019528246016364572 -0.38117657316754794 182 188 187
0.9647573096515453 -0.019453620015735144 -0.38086615730361556 57 58 60
0.8668061444246663 0.0732253189249633 -0.38229468459485993 39 40 36
0.8946344267792468 0.03919112846353752 -0.3820686238400581 29 34 34
0.9500061497658125 -0.02605006371264475 -0.38029498224244035 43 51 50
0.987423024804743 -0.060363756447528796 -0.37799944062869767 48 46 53
0.9683403532314346 -0.09567466020147833 -0.37951625213318785 33 39 41
0.9740255889454899 0.08271352534223007 -0.38550539096314623 46 50 52
0.9471623569626418 0.08210150500611893 -0.38324571037803146 37 43 45
1.0055975334832155 0.050924819143197284 -0.38536528943077264 62 70 71
0.8891255478553489 0.04509252232071306 -0.38259290066618845 31 34 33
0.9292013845928838 0.03729840246993933 -0.38466741765845786 30 36 34
0.9696943883149294 0.02873357254713031 -0.3831429117088552 61 67 67
0.9730223894510539 0.025121754329012515 -0.3827015207177104 193 199 197
0.9372194621975835 -0.0593641825276177 -0.38326021471501137 28 31 32
0.8915069666605402 0.1020192804047998 -0.3855805488817341 23 29 27
0.9196503453992103 0.008687015251650313 -0.3819261861826155 39 39 41
0.9676036579747429 -0.03374244031748493 -0.3794512406422164 46 47 51
0.9837343531767098 -0.05292559740803865 -0.3784833043408439 199 202 203
0.9062166867108381 0.046835074777572164 -0.3822921153787871 34 35 34
0.9409138046619133 0.019713607217897 -0.3816843869399191 186 191 192
0.8339301103628056 0.13591103403226834 -0.3852057521109735 183 179 180
0.8322458715596651 0.12274720901883246 -0.38548487069010945 122 117 117
0.9484725760334342 -0.043629195427167436 -0.3812040999247478 29 35 33
0.9484725760334342 -0.043629195427167436 -0.3812040999247478 29 35 33
0.934018598150524 -0.057040773765722065 -0.38132683041904347 35 35 37
0.934018598150524 -0.057040773765722065 -0.38132683041904347 35 35 37
0.9292807762613665 -0.0611282078082861 -0.3807780370506057 163 169 163
0.9893387438374889 -0.06456538741095354 -0.3796624824661547 41 44 47
0.9817112110910376 -0.06489530829640755 -0.3795807201876841 45 50 50
0.9210740416874547 -0.06351605059837932 -0.38181224920467877 23 26 25
0.8319863644794454 0.13635805105199242 -0.3860890263100216 166 160 164
0.8323620018443049 0.13168094281519319 -0.387311515672748 194 193 193
0.8299829070701475 0.10978895579885349 -0.3851954419564096 194 193 193
0.8297690764109394 0.09740024173460379 -0.38470069399502627 194 193 193
0.9405704600164336 0.08691714811104699 -0.3818610604119227 33 40 34
0.9405704600164336 0.08691714811104699 -0.3818610604119227 33 40 34
0.9719978509672722 0.08154395044491043 -0.3824703109775733 46 50 52
0.9204788791181461 0.0120827407053046 -0.37801348155408737 176 184 181
0.9347475259357149 0.013071178901563214 -0.38189105152167646 179 190 188
0.9450873850941485 -0.07288586470293679 -0.37676354114467764 187 187 187
0.9821428761683879 0.11617298491692112 -0.38737617490885523 59 59 59
0.8829969813399575 0.054520802468264074 -0.37900376559979176 23 29 27
0.9445401778320897 0.04943664734766206 -0.37753818416366103 183 189 187
0.9445401778320897 0.04943664734766206 -0.37753818416366103 183 189 187
0.9855345628088504 0.025387336296424395 -0.37296492601478287 53 64 62
0.831864123956647 0.010124244517212107 -0.38236382502886734 181 183 184
0.831864123956647 0.010124244517212107 -0.38236382502886734 181 183 184
0.8326150752210436 -0.009951323433553923 -0.3823339656557484 115 115 117
0.8326150752210436 -0.009951323433553923 -0.3823339656557484 115 115 117
0.8921044747669962 -0.01975892142516865 -0.3823949913057282 45 40 38
0.8780311672281594 -0.04298407662870851 -0.3802304402188055 173 173 173
0.8780311672281594 -0.04298407662870851 -0.3802304402188055 173 173 173
0.940768209593179 -0.07389941439068061 -0.3804596926429601 27 30 29
0.940768209593179 -0.07389941439068061 -0.3804596926429601 27 30 29
0.9039705948349662 -0.07804081576045095 -0.378838320698084 23 23 23
0.9039705948349662 -0.07804081576045095 -0.378838320698084 23 23 23
0.8911279968591573 -0.09210594104932582 -0.38015135725790977 164 164 164
0.8301602131570393 0.1250472444075877 -0.38697061055521076 185 181 182
0.875997104041158 0.109440023558179 -0.37943178609615896 26 32 31
0.831760037386785 0.06599359460811129 -0.38138506581051745 144 143 143
0.8314144526826732 0.0514817011478257 -0.381939077845762 114 115 110
0.8314144526826732 0.0514817011478257 -0.381939077845762 114 115 110
0.8466660938882905 0.05919582900303475 -0.38723908940396046 177 180 179
0.8674498282090936 0.06615249001997561 -0.38271962279515637 30 30 30
0.9091949840876798 0.05495483325842044 -0.38097893760666846 29 35 35
0.9689151069795149 -0.07731647514765261 -0.38042566855122545 34 37 40
0.8321453958178808 0.12169763539206468 -0.3854056519452119 178 175 174
0.8322800740117792 0.09953247007957094 -0.3847628345546091 177 177 179
0.8324423464008515 0.07953878771493311 -0.38343413920102576 115 110 105
0.8311205084388051 0.04212816082608248 -0.37965312970827647 169 175 175
0.8311205084388051 0.04212816082608248 -0.37965312970827647 169 175 175
0.9081519752753826 0.08024599169855828 -0.3803184762658032 28 31 32
0.9544300363909258 0.036115690757971 -0.38254477256735736 170 176 176
0.9544300363909258 0.036115690757971 -0.38254477256735736 170 176 176
0.9617712929089324 -0.03044244572021491 -0.3865349143876073 45 53 54
0.9617712929089324 -0.03044244572021491 -0.3865349143876073 45 53 54
0.9438503911773519 -0.06932756126887034 -0.38522098843995956 169 172 171
0.9438503911773519 -0.06932756126887034 -0.38522098843995956 169 172 171
0.9905370547349898 -0.08828503007667649 -0.37795555968459316 21 27 27
0.8324705859356825 0.13383883060465843 -0.38772075174060483 145 140 140
0.8324705859356825 0.13383883060465843 -0.38772075174060483 145 140 140
0.7695241578033176 0.05776467054905786 -0.3907396216300734 64 64 64
0.7652719317034288 0.04105987023137191 -0.3932483625115905 41 38 33
0.7681633543646381 0.019964767325378777 -0.39087724972169524 26 26 23
0.8321525402628969 0.05018756844450428 -0.3845305325029685 173 175 175
0.8789430658220818 0.0559959892623732 -0.38409178534929833 173 176 175
0.8328980314125025 -0.009762040232085921 -0.38361686779454046 122 122 122
0.8327988870137425 -0.021096008688553814 -0.3842210768110701 161 170 170
0.9350945461117582 0.013281136794581398 -0.3824056107763636 170 173 172
0.9289196656185938 0.009200983939102708 -0.37969657791928146 171 178 173
0.8889940031131124 -0.03386977603546238 -0.3838385638271506 21 24 23
0.9652226176265606 -0.019252789461194117 -0.3810090757087477 56 58 60
0.9098726483774098 -0.0737283524726518 -0.3812446487546087 145 153 150
0.9945848127347933 -0.05889973203674453 -0.3801065116725951 177 177 177
0.8324068849231835 0.08999222390302952 -0.3862166588140601 125 125 128
0.8337195651527506 0.0791007517649024 -0.38527636723790093 181 184 185
0.8791248290891668 0.08744958406235213 -0.3850294520832364 31 34 33
0.8326208946416533 0.028570260177536503 -0.38513540742585395 106 107 108
0.8331886513528531 0.024608953773374274 -0.3852794733610724 113 113 114
0.8324870263084365 0.005392924250718437 -0.3846910758533913 176 182 183
0.8326838735392935 -0.017306716405180854 -0.38506161627123286 171 176 178
0.9854121361602078 0.0050889213658586105 -0.3811536877609764 187 190 191
0.9854121361602078 0.0050889213658586105 -0.3811536877609764 187 190 191
0.8335061551131303 -0.02698029609824335 -0.38460846900640694 170 175 175
0.846568906198994 -0.024929700474490727 -0.3898384364309977 169 175 175
0.9480812179041653 -0.005845576427471599 -0.3826072814625051 38 46 45
0.9480812179041653 -0.005845576427471599 -0.3826072814625051 38 46 45
0.8580847906406656 -0.05783126946206226 -0.3845910586670812 30 30 30
0.9236694503415991 -0.04818760810028442 -0.3831673929080504 24 27 28
0.9830168589877586 -0.06515514097922523 -0.3811317269805684 36 40 45
0.8322667739587468 0.13357637867749741 -0.3870141600446033 135 131 126
0.8322667739587468 0.13357637867749741 -0.3870141600446033 135 131 126
0.8333835759931717 0.12328456297285499 -0.38691145853269426 137 136 136
0.8344289956758887 0.11003290119136451 -0.38662854558107873 187 187 189
0.8616583959750456 0.07480882203829264 -0.3860418927237477 38 31 24
0.8327343664894286 0.04651893298169284 -0.38624559437846395 137 140 139
0.995073158845592 0.06780318558329747 -0.38411340893056095 79 78 85
0.9561346513342711 0.043382097280778346 -0.38330508245299355 179 185 185
0.9561346513342711 0.043382097280778346 -0.38330508245299355 179 185 185
0.890375793275353 -0.016865910678706426 -0.3839200818339295 23 29 29
0.951914706169974 -0.026136749649912906 -0.3827650826120363 44 50 52
0.8595592784519971 -0.04851171672621906 -0.38488779110963667 23 26 27
0.932252821825417 -0.06192585543517676 -0.38594233862979077 179 182 181
0.8972257948647736 -0.08523264417137956 -0.3834219094279964 25 25 25
0.8325180755881406 0.07251820268859371 -0.38562331387798104 191 190 186
0.8685776489966588 0.0710015876650517 -0.3850926409111383 179 182 181
0.8633743334718137 0.06387676620654255 -0.3853828006872654 183 183 183
0.8304247382696613 0.036822425585585086 -0.38539610642761 180 183 183
0.9275661158587948 0.06315856018684797 -0.3841735691856798 191 197 199
0.8853532533283366 0.05047164071586984 -0.3847549267911156 180 183 182
0.8853532533283366 0.05047164071586984 -0.3847549267911156 180 183 182
0.8982223951177294 0.04343073171648127 -0.3824604547971895 30 29 25
0.8326816026126901 0.002886487965269102 -0.38560880911507234 174 174 177
0.8326816026126901 0.002886487965269102 -0.38560880911507234 174 174 177
0.8858054092001139 -0.011869784110402905 -0.3848676131238671 165 171 169
0.968216535737836 -0.016456915083140518 -0.38220571450167445 42 47 51
0.9361098111154073 -0.049650167901205605 -0.3834868281838714 181 189 188
0.9361098111154073 -0.049650167901205605 -0.3834868281838714 181 189 188
0.9373454531465762 -0.06338689917359033 -0.38299956603762936 27 33 33
0.8893300831346479 -0.07801664653784016 -0.384067969892585 23 26 29
0.8893300831346479 -0.07801664653784016 -0.384067969892585 23 26 29
0.8329858650267308 0.10588832801856565 -0.38693019519168353 190 186 187
0.8307014093312645 0.08181402659556677 -0.3867300793114852 188 188 188
1.0004934003253205 0.07861220733416321 -0.38089220227650333 77 77 79
0.9945561358385948 0.07449888844699094 -0.38195756470425923 69 69 69
0.9945561358385948 0.07449888844699094 -0.38195756470425923 69 69 69
0.8327676410609679 -3.0322299024644478e-05 -0.3861548962049862 107 110 111
0.8348552506263643 -0.01236130031786702 -0.3872145466021659 165 171 171
0.8322264603563843 -0.020460869286814135 -0.38641556909938224 118 122 124
0.8333680414068586 -0.02132105811630388 -0.38661130116308984 168 175 176
0.8673415194117623 -0.056014362551944585 -0.3850809173560977 158 164 164
0.9665187497878037 -0.08459963337582314 -0.3816655744404471 37 35 37
0.9665187497878037 -0.08459963337582314 -0.3816655744404471 37 35 37
0.9075241808445069 0.028647968581454415 -0.38517326700012106 34 39 37
0.8649384563524006 -0.058994820329164074 -0.3854749884496864 155 161 161
0.93141988376654 -0.06169809161453706 -0.3841728979966885 167 170 169
0.9933932724808723 -0.062414140708900695 -0.38086476435519256 172 175 176
0.8960542551754735 -0.0779812748612926 -0.383395344406071 26 26 28
0.8340100532871971 0.10714343960562445 -0.3873066435807004 145 145 148
0.8340100532871971 0.10714343960562445 -0.3873066435807004 145 145 148
0.8328519707028315 0.10599978325540867 -0.38734646634308484 188 191 192
0.969244622737411 0.11001297579163055 -0.3826320429147687 71 74 77
0.8305127385060699 0.08254144042188273 -0.3869436408459367 186 189 190
0.8347626204591159 0.07287405590343989 -0.38720042957749456 186 188 187
0.8347626204591159 0.07287405590343989 -0.38720042957749456 186 188 187
0.8648689785320866 0.07087150666128979 -0.3858049441746033 37 36 38
0.8344308099549074 0.06712641539450907 -0.38752724206198375 186 188 189
0.9519434520917796 0.04719959523237138 -0.3836105437763924 52 55 58
0.9519434520917796 0.04719959523237138 -0.3836105437763924 52 55 58
0.8960835053284354 0.03221903564562851 -0.3846407142401115 38 38 40
0.9233224608401099 0.012661511446318678 -0.3834062342007028 184 190 188
0.9220616438870495 -0.001329055527836374 -0.38474307105775385 29 37 38
0.9220616438870495 -0.001329055527836374 -0.38474307105775385 29 37 38
0.8798173180588532 -0.043318236002682815 -0.3847555674569177 186 186 186
0.9297955469474909 -0.054869704012559695 -0.38321848831983835 186 189 190
0.832600074616855 0.11122531514650873 -0.38715958717249294 178 177 177
0.8316028164745066 0.05964584639686932 -0.3861115757150862 143 146 149
0.8316028164745066 0.05964584639686932 -0.3861115757150862 143 146 149
0.9795082563786244 0.056404469715360936 -0.38270095947184485 190 191 187
0.9795082563786244 0.056404469715360936 -0.38270095947184485 190 191 187
0.8928238305217807 0.04279270641076304 -0.38455084985330773 35 29 26
0.831746795203347 0.029241638056425743 -0.38638583221184364 175 181 185
0.9111472910750565 -0.011804075790008802 -0.3847314224376712 168 174 172
0.9906352134793798 -0.05755157820929449 -0.38147718414852916 188 190 189
0.9702058883958592 -0.07787829247009423 -0.3825021570679321 36 37 42
0.8799044895637326 -0.06898827284880861 -0.38439986858332237 159 165 163
0.8799044895637326 -0.06898827284880861 -0.38439986858332237 159 165 163
0.8857113858778937 -0.07448704688078911 -0.3843281872660186 160 163 162
0.8857113858778937 -0.07448704688078911 -0.3843281872660186 160 163 162
0.9870253351135885 0.07529751926530744 -0.382681730189458 73 80 79
0.8987392816061422 -0.022960386809752 -0.38392902648589017 160 170 168
0.9520710707743355 -0.026406765503561636 -0.3830744525847576 38 41 42
0.9420734750879899 -0.09982219235630986 -0.38340746967981143 32 32 33
1.0708802444244736 0.1639620285813966 -0.3856758535269961 100 87 94
0.8932962007687424 0.1066968847131781 -0.3864864509173199 46 38 28
0.9656807311015081 0.10668168055147666 -0.38360287610373583 188 191 190
0.8303664093810127 0.09858960886185789 -0.3879728560284238 192 192 193
0.9553292830308899 0.10139932477376143 -0.3824354177037801 192 192 194
0.8547914254670195 0.08888948217442023 -0.3888318773166184 30 36 34
0.9736726670146053 0.08217348519055123 -0.3850532849939111 46 52 54
0.8318531686314948 0.07189029563256938 -0.38743013672040943 140 136 141
0.9163327573715947 0.019488020034633693 -0.3830371294323462 171 179 178
0.9163327573715947 0.019488020034633693 -0.3830371294323462 171 179 178
0.9820738751948881 0.016300484554256412 -0.38010908035493474 39 46 49
0.9820738751948881 0.016300484554256412 -0.38010908035493474 39 46 49
0.9902963186939817 0.0008500124970111638 -0.38203255162400934 187 193 191
0.9307086712890104 -0.05540127415369252 -0.3857731919102429 166 169 169
0.8982271203950021 -0.05583800351686397 -0.3834132756082328 18 21 20
0.8982271203950021 -0.05583800351686397 -0.3834132756082328 18 21 20
0.9589026199302804 -0.08478216044825593 -0.38155266750820754 35 33 31
0.9589026199302804 -0.08478216044825593 -0.38155266750820754 35 33 31
0.9076664727784416 0.09185393293258212 -0.3862964899135505 40 41 37
0.9602298319098937 -0.02362141234723249 -0.3835105782499775 189 195 197
0.8333611297576125 -0.022789421815759336 -0.38564803230547695 139 139 141
0.8333611297576125 -0.022789421815759336 -0.38564803230547695 139 139 141
0.9739103676758211 -0.037459122695312 -0.3825522635191205 184 190 188
0.9739103676758211 -0.037459122695312 -0.3825522635191205 184 190 188
0.9796650435027998 -0.04284819134292458 -0.3821306687095478 186 190 189
0.8613465724745035 -0.05782699974612612 -0.38406267951440853 42 32 39
0.9483997189677198 -0.07418862169255747 -0.3826450967953917 181 185 180
0.9483997189677198 -0.07418862169255747 -0.3826450967953917 181 185 180
