ply
format ascii 1.0
element vertex 676
property float x
property float y
property float z
property uchar red
property uchar green
property uchar blue
end_header
0.8892015803353396 0.045276091617814124 -0.3837400970275017 30 33 34
0.9809111750567766 -0.05258161338893667 -0.3741848628367452 199 202 203
0.83128423784223 0.08751460325551613 -0.38143069963231724 135 130 132
0.9515335914908907 0.045899332198936375 -0.3829459158235975 48 53 58
0.9660252991445214 -0.08400454434250151 -0.3813523010561118 42 38 52
0.8700623089414714 0.005943128498072154 -0.387390222892904 170 178 179
0.8323776781473862 0.05799432205868685 -0.3839454523925659 184 191 195
0.8292555438691145 0.06806869695709938 -0.3836945747961634 188 191 192
0.8325981430037362 0.004106445884920423 -0.3852299977587373 130 133 134
0.9358348250189681 -0.04931063831146854 -0.3831770934260262 181 189 188
0.9358348250189681 -0.04931063831146854 -0.3831770934260262 181 189 188
0.8332568263421735 -0.027426587869301664 -0.3807812500953302 116 118 119
0.8296944945929762 0.05428099450370472 -0.3826091055447218 190 193 196
0.9100411352233312 -0.0114641508459002 -0.3824067216725581 174 180 180
0.8328621966799382 -0.021188406691728258 -0.38520222970783374 177 176 180
0.8321169091465315 0.09190986384114329 -0.38613327807232656 132 132 134
0.8321169091465315 0.09190986384114329 -0.38613327807232656 132 132 134
0.8312002766528381 0.07161153416971477 -0.3852807910166662 137 137 138
0.885166943005431 -0.005834132034156133 -0.3834313316879755 29 35 33
1.101800594895233 0.04864088023861985 -0.3896805079385621 111 111 111
1.098678876657108 0.028732589553329746 -0.3925771775779355 104 109 113
1.0954114049759993 0.016748564533207447 -0.3918251909039472 139 145 144
1.0908919291687489 0.012326723376893405 -0.39110748163360765 144 152 151
1.0908919291687489 0.012326723376893405 -0.39110748163360765 144 152 151
1.0830520772911154 -0.030276609946833025 -0.38969748182056896 125 131 129
0.9743776367889634 -0.06825487154454854 -0.38473429698470984 39 45 45
0.9743776367889634 -0.06825487154454854 -0.38473429698470984 39 45 45
0.8869331927782632 -0.07524639993966818 -0.3884663608331088 185 188 189
0.9805538200405651 0.11394160874746227 -0.38474865562111477 59 66 71
1.0849293410686245 0.03623292665728414 -0.3880684046642043 106 109 110
1.106614858722868 0.03212435343305962 -0.38774634951521036 109 111 111
1.097086231121648 -0.0008067627681493677 -0.3905062873748135 142 148 146
1.0033605250612097 -0.06523357359906799 -0.38469069526411936 55 58 64
1.0033605250612097 -0.06523357359906799 -0.38469069526411936 55 58 64
0.9182595004013216 0.11270247781641876 -0.3857056484600379 37 43 45
1.0969455463446476 0.11153660692698075 -0.3899262557689219 83 83 86
1.0873810054856763 0.051185462684150716 -0.3911306273972573 129 137 136
1.078191926909747 0.029423828374894594 -0.39061356104843237 174 175 174
1.0924856154785205 0.019991331566307967 -0.38833110683295563 139 145 145
1.0924856154785205 0.019991331566307967 -0.38833110683295563 139 145 145
1.1060578180402512 0.014097036056043333 -0.38856964830310486 119 122 121
1.0910090011280025 -0.010117592914012269 -0.3904279609981457 138 142 141
0.8320461491303005 0.06979562690543029 -0.38588548070452 193 196 199
0.8642986560554172 0.06729676450054597 -0.38583777684499915 185 192 193
0.8339092734545684 0.048204424707396436 -0.38575364191977934 186 189 189
0.8474724854649283 0.017175005557025728 -0.3899233809028014 185 188 189
0.8879621769922104 0.09086307136891167 -0.38382532186941826 40 39 39
0.9472570918953193 0.08237677160459013 -0.38303683607069855 43 49 49
0.9472570918953193 0.08237677160459013 -0.38303683607069855 43 49 49
0.9508254758036045 -0.07694138872875858 -0.38074933547618783 30 35 40
0.8312582083666701 -0.02021647786009464 -0.3833708935441649 122 126 129
0.957919995942409 -0.03322308434082456 -0.38107628186991166 36 44 45
0.9427830329870166 -0.00589285631949384 -0.38478917350646075 178 184 183
0.8320108678289612 -0.01707696984594089 -0.3828183983145563 186 186 188
0.9720349131506217 -0.04262568149199289 -0.38113918343531233 47 51 56
0.8323331192323118 0.028468505358032064 -0.3863933784050333 116 113 114
0.953236276840935 -0.09328892663191732 -0.3775697746331638 32 35 38
0.9664871385366991 0.10121702828466086 -0.3829260424212535 64 70 70
0.9664871385366991 0.10121702828466086 -0.3829260424212535 64 70 70
0.9307313466635588 -0.04894673060768972 -0.38271499191722685 184 190 190
0.9307313466635588 -0.04894673060768972 -0.38271499191722685 184 190 190
0.9698604270505244 -0.07738366842391597 -0.38218865547698955 36 37 42
0.8798368456401695 -0.06890599496738874 -0.3846311232338527 168 170 171
0.832132908253243 0.09196834910285259 -0.3863187167672056 132 130 132
0.9269292805593834 0.07567135584013435 -0.384404397590007 178 189 189
0.8304734973472114 0.06653180041388199 -0.3866152833245561 185 188 189
1.09224339922222 0.021964842842995796 -0.38814371682413856 148 154 154
0.8339521226401808 0.014957334978780837 -0.38522678991743275 131 131 135
0.9792633738251324 -0.0056942936662212115 -0.3817561979981876 172 177 179
0.8333437411326957 -0.004243331508884006 -0.38583239165247096 135 136 138
0.8352518279739232 -0.027820696926102 -0.3849768772492663 165 164 163
0.9986226104139461 -0.05020022368784041 -0.3839413032951842 28 36 36
0.9601209276074096 -0.055517050406821145 -0.38174185093059787 18 25 21
0.9171379835001403 -0.011767919519020316 -0.3843421148249785 32 35 37
0.8894659226773517 -0.09641939906762109 -0.38374704425985445 33 32 38
1.0048801461672274 0.048907422590313866 -0.3866757330159343 62 69 72
0.9736312428528209 0.025298444188387365 -0.3835302494196711 184 190 188
0.9315128987042165 -0.002013256407627087 -0.3835002506955901 38 40 41
0.9095071855412288 -0.005547834729768248 -0.38185230765439915 34 37 36
0.9556165092431063 -0.016765892240994743 -0.3858501400910338 90 97 102
0.9685751175472107 -0.033445080291223776 -0.3804080382699217 44 47 51
0.8982009712485794 0.10051879303640372 -0.38541971331808145 36 36 38
1.081237667067714 0.10160158908729552 -0.39042463825698914 155 161 161
0.9419181193665627 -0.03708643671333746 -0.38334964961893864 29 34 34
0.9419181193665627 -0.03708643671333746 -0.38334964961893864 29 34 34
0.9386082182752301 -0.060003504487931784 -0.3851440902335485 23 29 30
0.9733886378008464 -0.03762984286692148 -0.3822719051630102 188 191 190
0.9355376365673155 -0.057663840905419664 -0.3836596212642203 31 32 39
0.9355376365673155 -0.057663840905419664 -0.3836596212642203 31 32 39
0.8981417550569859 0.10051213980840523 -0.3854226747640052 33 36 35
0.9559926195621818 -0.01846917133814733 -0.3852298925202145 186 190 192
0.8318015075703595 0.13340749227471968 -0.38667673845441397 151 147 150
0.8917552426699458 0.10186065966706556 -0.38575402118056495 28 31 30
0.8314156702023018 0.03832279300600836 -0.38501818861670645 122 123 125
0.8328576632998338 -0.037833241008266065 -0.3842133669498746 126 122 123
0.9533658437906554 0.10869130681356318 -0.38312270226412765 49 55 57
0.9588702224533572 0.03742156751430808 -0.38290456373927895 53 61 62
0.8325094848000898 0.037601453929864546 -0.3832912491243101 122 119 120
0.8325094848000898 0.037601453929864546 -0.3832912491243101 122 119 120
0.9042922519690823 -0.09494962094383995 -0.38225932706260585 22 25 24
0.9721636372319787 0.05134651854979257 -0.38189138913440374 186 192 192
0.8324607532929639 0.049249693035445075 -0.3865081518847757 123 123 125
0.8324607532929639 0.049249693035445075 -0.3865081518847757 123 123 125
0.9881412567533172 0.008763329399216382 -0.38042680132826284 75 82 85
0.972800413471688 -0.06810839654263584 -0.3814418301468528 34 37 38
0.972800413471688 -0.06810839654263584 -0.3814418301468528 34 37 38
0.8140907688296457 0.17434042823121304 -0.3948713214365441 21 21 17
0.8326565520146777 0.12276618565356673 -0.38539105054051276 137 133 136
0.9022193430495465 0.10558854267835958 -0.3837917109197066 186 186 182
0.9097498651066259 0.08755489117080589 -0.3829507483683498 180 188 185
0.8796695384562029 0.08239080892275581 -0.38734638988603365 193 198 203
0.9787755476113978 0.08815339010997437 -0.38244276894548573 33 41 38
0.9384304751896748 0.060048235377614494 -0.3839582362360657 31 32 28
0.9996437634974601 0.014575814070440698 -0.38181845722967267 65 75 78
0.8434694822076743 0.007820974186177072 -0.3815402375937731 178 181 182
0.9271468742195167 -0.0017056835607439087 -0.38282412680384253 29 28 35
0.8324540231564416 -0.002261026048526503 -0.38570796431263155 179 183 183
0.8319539403408855 -0.0035499125735254334 -0.38542120130956553 119 119 120
0.8927826485181999 -0.01955408391526775 -0.384404864713399 42 39 40
0.8852701350592195 -0.0686157242821754 -0.3826632309205907 24 27 26
1.0018181222378595 0.06076293978501401 -0.38377902414585363 70 77 81
0.9793546604486422 -0.006063197301187389 -0.3813955505359159 189 195 195
0.9598064300495293 -0.05589029423320776 -0.3809828361945076 24 30 28
1.0877584049887894 0.09031820732715903 -0.3886477916473801 113 115 115
1.0818299782362035 0.08298179680506851 -0.3897359409317983 160 169 168
1.0957139025763443 0.06633461533854615 -0.3935917676642908 111 118 117
1.0885976154359365 0.04757547047606547 -0.38991336229477735 147 155 154
0.8902200135599552 0.04568602679374671 -0.38519287457479556 35 38 39
0.8957476887361997 0.04375390182389356 -0.38388897790381976 180 189 189
1.0946418648588803 0.029910608695214287 -0.3885021552118609 106 107 109
1.0957120831301648 0.020518174847544375 -0.3889283439992677 99 105 107
0.9317367967470533 0.009405593946413103 -0.3844714810520099 178 184 184
0.861046056319974 0.012110702861510345 -0.3861164382566023 178 184 185
0.9527512422014144 -0.015098659595187375 -0.3844578351127707 47 51 58
0.9553021789507934 -0.018094193486087914 -0.3843571196762744 188 198 196
0.9553021789507934 -0.018094193486087914 -0.3843571196762744 188 198 196
0.8852519707541334 -0.037492886637671745 -0.3836145356666498 163 171 169
1.0001585044137813 -0.06445477556530214 -0.37999579104053005 50 54 61
1.0001585044137813 -0.06445477556530214 -0.37999579104053005 50 54 61
1.0840538032548983 0.114945548635688 -0.38771293552780095 159 167 164
1.1047193102931563 0.09511183250703348 -0.388397713115787 101 106 102
1.0824385427910033 0.08965845121599586 -0.38932029283794367 133 141 141
1.0824385427910033 0.08965845121599586 -0.38932029283794367 133 141 141
1.0974270365968426 0.056823986829177844 -0.3857334147530107 123 129 127
1.1056381421541848 0.05062519558303877 -0.3912446229082285 136 140 139
1.0933939161294068 0.03962739651523326 -0.3882995650432783 97 103 103
1.0800001550689247 0.10644116466741971 -0.38645001363840487 122 125 128
0.8985840754152054 -0.08611100899558811 -0.387335811290622 31 30 34
1.0986430336198247 0.10371876022351259 -0.3892786118597325 140 146 144
1.0859811592927717 0.0729098437453709 -0.3881650591360874 152 161 159
1.0813225810213047 0.06459370976559659 -0.3888856513586313 160 166 164
1.098694179786973 0.01886020531523909 -0.38794248608831733 126 130 126
0.8311881056363895 0.07152523174020857 -0.38559550929304776 147 144 148
0.9858263250817697 -0.05291773508271377 -0.3811527022828557 185 193 192
0.832448982733314 -0.038025592813641956 -0.3852944527798828 110 110 112
0.8315573393292636 0.1366219272906648 -0.3859521562715573 142 137 135
0.8315145512519244 0.13291453460909208 -0.3852465361230896 135 131 126
0.8315145512519244 0.13291453460909208 -0.3852465361230896 135 131 126
0.8322607633674455 0.10086311045840367 -0.3858787439121954 195 197 198
0.8337490295288902 0.05138576645392805 -0.3839143774701516 179 184 184
1.0028489598368557 0.05072403003234527 -0.38103903652252574 63 76 76
0.8324568392111272 0.07262475443841603 -0.38625737850813846 191 190 186
0.9849527979320428 0.005518738949199709 -0.38058678045901323 176 183 182
0.8986289399383421 0.006838224716008672 -0.38552921878232016 21 27 25
0.8669649084644718 -0.0634558327955103 -0.3825798874516661 18 24 24
0.853981176779202 0.08826367078905142 -0.3856674844121686 38 44 44
0.8329829277365869 0.06726374796669918 -0.3869761675951105 136 133 135
0.8739386721043925 0.06106247497152438 -0.38450108631931096 28 31 30
0.8318958436872235 0.1205262272068046 -0.3857517948484566 201 200 202
0.8317703704340716 0.108405746533872 -0.38603858437334454 197 197 199
0.833526506585039 0.10687634184648452 -0.3865787089612361 147 144 149
0.9482698313017591 0.08826743163486947 -0.38489085088177183 193 199 199
0.9479139074914575 0.08813015912355007 -0.3840719502333413 183 191 189
0.8547065736853687 0.04858077298499342 -0.3847422320443691 28 34 33
0.9467988559474159 0.019677232851371816 -0.38015822019559925 23 29 29
0.8308068580008116 -0.011969540071884615 -0.38599195626126664 179 182 184
1.0789032355226145 -0.03698930801977561 -0.38308443442321505 74 77 79
0.9547065084352159 -0.03285126053924654 -0.3822112120076332 28 27 34
0.9793124676203706 -0.0423848550989867 -0.38157271913735463 165 168 167
0.8797281651652301 -0.03750014951133285 -0.3855582213492866 34 33 33
0.9363497463868805 -0.054657712375001805 -0.3833702733426628 159 167 166
0.8644327895688251 0.0036412993698085885 -0.38484995133088706 192 195 196
0.8644327895688251 0.0036412993698085885 -0.38484995133088706 192 195 196
0.8644327895688251 0.0036412993698085885 -0.38484995133088706 192 195 196
0.8543997503388934 -0.012736789415650835 -0.3852338109306767 37 37 39
0.9415468570370851 0.11327005091654359 -0.38988789999675255 39 47 48
1.0033208551990953 0.09030777991315775 -0.38333048826432764 69 81 81
0.9492325267508176 0.08289587135753379 -0.38638879280082017 41 47 46
0.8641290865816864 0.07493396550295127 -0.3853296257568378 184 190 190
1.0809057609911366 0.0742043926446527 -0.386029677118752 146 150 152
1.1036128298548376 0.06231167344372528 -0.39043293773002363 135 143 142
1.0880734238217717 0.05354514289489945 -0.38734005503358476 103 103 102
1.00662163371349 0.05108539623224311 -0.3866988108309948 59 69 76
1.0783734480402483 0.04523351928014414 -0.38269762982976363 145 147 148
0.8861809076896181 -0.04353448407694032 -0.38527320081959604 29 32 31
0.8861809076896181 -0.04353448407694032 -0.38527320081959604 29 32 31
0.9964174946785255 -0.05911714857185208 -0.3832182974096963 195 198 197
0.9372412584574903 -0.05492694210485611 -0.3852560314715027 175 182 179
0.8810138330707561 -0.07515779024663605 -0.38774748996785113 25 25 27
1.080904224009218 0.0912330820832808 -0.3895757427437552 166 172 172
1.1057244605269978 0.08521505885692149 -0.3900642041694299 131 140 138
1.0876792001575173 0.03557810616416636 -0.38897193644112077 153 160 158
1.1051810169106828 0.0354817658775607 -0.39224235433799437 97 97 97
0.9924606740157472 -0.061663949495464054 -0.3849122269196794 54 49 55
1.002900255283584 -0.06519077673927118 -0.3837432711894002 53 54 62
0.9113887666781926 -0.06880618538542518 -0.3855126362059724 27 30 31
1.0987179536830258 0.11360995287874964 -0.3858015682816422 132 140 139
1.1046485087047024 0.0474736556756038 -0.3882704996493016 112 120 119
1.0839727134770702 0.03471329445297636 -0.38866255226982077 164 166 166
1.085631551670059 0.01861875058226721 -0.38577922306667717 139 147 146
0.8553642358758609 -0.07579740142094621 -0.3882034691192487 28 31 34
0.8553642358758609 -0.07579740142094621 -0.3882034691192487 28 31 34
0.8907740484325122 -0.0975200161969426 -0.3875933625479863 35 34 37
1.0794401521974593 0.060338369879915664 -0.39309199375717135 188 195 189
1.1078178783720238 0.05800943795384691 -0.3902266492723864 128 133 128
0.904365989381462 0.0915988361789677 -0.38301980968540417 36 39 42
0.833705959416095 0.05511939504794211 -0.3874409934687063 110 110 112
0.8996803173807144 0.03551100158030244 -0.3849093610532709 34 32 29
0.8293266116106816 0.12001044810178554 -0.38436730486646453 195 195 195
0.8782679473102927 0.11253227904844314 -0.38617036894978585 32 32 34
0.8328702218635994 0.10583417461709327 -0.3870939880753108 190 193 195
0.9818855907315935 0.11193960567241105 -0.3828074502640444 35 43 44
0.9292049835816488 0.10372534001317722 -0.3862630605684017 24 30 28
0.8322854449550915 0.08163173598080602 -0.38653943082621645 193 193 196
0.8324400012692613 0.07217876378074861 -0.38584840567682294 191 194 197
0.9291951977856749 0.07186219053429761 -0.385563288955161 183 190 189
0.9521407207367041 0.045848681980000534 -0.3840174043332701 31 34 34
1.081329598503385 0.04159705498350882 -0.3903218675882405 144 151 153
0.8326214759324666 0.038961021655414596 -0.386220509564712 182 184 187
0.8304928382550552 0.024248233568862156 -0.38677023971909225 185 188 191
0.93158786994384 -0.0018505038870645478 -0.38379179270203756 31 34 33
0.8728356009609439 -0.0010226825374949572 -0.3840115533652511 24 30 29
0.9523394070817096 -0.0158407465921625 -0.37939810871354385 80 88 90
0.8892357682037126 -0.03391167330321133 -0.3845374530992029 31 31 31
0.8331915183842881 -0.03387817323284066 -0.3860516075528878 176 176 180
0.9704395246220009 0.11105708367455758 -0.38553284754129274 61 61 65
0.9954559841976868 0.10437041026928245 -0.3877553950862459 31 39 36
0.9954559841976868 0.10437041026928245 -0.3877553950862459 31 39 36
0.8887564740290136 0.091456937204008 -0.38603355144147417 37 40 43
0.9904551284788466 0.07097994313229967 -0.3828835017738168 49 43 37
0.9243240490435154 0.0017088645974260215 -0.38460793127608456 44 33 31
0.8340460710168393 -0.007686708867895198 -0.38581619485790625 137 131 137
0.9550253775526986 -0.018078512189054437 -0.3840697239495067 184 190 190
0.8332892597337778 -0.022808061852924146 -0.3860890193066336 139 139 141
0.8669377365308694 -0.05580285257694704 -0.38493312435846067 186 186 186
0.8669377365308694 -0.05580285257694704 -0.38493312435846067 186 186 186
0.8545021553647976 0.04974489625693123 -0.3874917026681459 37 37 41
0.8613822951140878 0.005474469914000737 -0.38648160410353866 192 195 198
0.8613822951140878 0.005474469914000737 -0.38648160410353866 192 195 198
0.9184594122620708 -0.011915470148281147 -0.38665322495791404 34 35 37
0.9184594122620708 -0.011915470148281147 -0.38665322495791404 34 35 37
0.9128081297592271 -0.04312733410837937 -0.3876613060786209 32 31 30
0.8682691962126758 -0.06467339547792648 -0.3886208498095362 26 26 26
1.0804905919611574 0.10980684747071523 -0.38679351448001315 133 140 134
1.0929122964184919 0.10975616049970918 -0.38593563763345745 89 92 90
0.9787995877067807 0.08821361617072429 -0.38184390590465306 52 63 61
0.948121184867791 0.08233604795484484 -0.38423079483949163 44 51 54
1.0800652426657897 0.09633740277641402 -0.3834583390348591 166 172 170
0.978797222663821 0.08232331630250657 -0.38236252459370684 193 200 200
0.978797222663821 0.08232331630250657 -0.38236252459370684 193 200 200
1.1022937052986577 0.08676306022463574 -0.38669404797093043 137 145 142
1.0934931921630406 0.0820079526780486 -0.38740512963818274 153 161 158
0.9861185398983496 0.06432697353742209 -0.38245350269630607 74 68 69
0.9861185398983496 0.06432697353742209 -0.38245350269630607 74 68 69
1.0988406725189053 0.06862015839563945 -0.3890727427573507 126 134 135
1.0761835226687686 0.0264450654565701 -0.3860067940222674 116 122 122
1.1012429547073335 0.018457719529221026 -0.3868858435769092 94 100 100
1.0844247310505968 0.009116017891018369 -0.3872727016577872 111 114 113
1.089596970078111 0.00821868740822065 -0.38427947226155534 154 163 162
0.8996724201433023 0.006986166351845817 -0.3884767984616671 25 31 31
1.101212227876078 -0.007033527807692926 -0.3824508642755685 126 132 129
0.9287458973490909 -0.050700977959306975 -0.3851215928582503 53 45 50
0.9287458973490909 -0.050700977959306975 -0.3851215928582503 53 45 50
0.8806306852827857 -0.06941085205270593 -0.3874164725908748 186 192 194
0.903892090382696 -0.08203377851144078 -0.3845773620577178 44 44 40
1.0908100534974818 0.07997076639534531 -0.38840774634292285 122 129 133
1.0944555924321855 0.057468369209506626 -0.3906760317301859 116 119 120
0.9039885359288536 0.03239701718656305 -0.3866497806335597 191 196 201
0.8590981174610892 -0.001004033458425612 -0.387466577295845 35 38 41
0.8590981174610892 -0.001004033458425612 -0.387466577295845 35 38 41
1.0757074024969075 -0.004131680102107356 -0.38937351929459413 193 198 196
1.097922866981684 -0.01223089246307427 -0.39005025863111675 142 149 148
1.001356723880342 -0.057498055752077136 -0.38590052800011004 192 200 201
0.947742949144154 0.051063992580290235 -0.383448251292156 195 203 204
0.8584800810875111 0.07240749822415898 -0.3852910094470907 31 34 35
0.854491872538823 -0.012768617427155264 -0.38571956132405005 24 27 28
0.9952009203082538 -0.024543813233964505 -0.3843900281517734 26 32 30
0.980206224336217 -0.036938126132204076 -0.3827552355512859 28 34 32
0.8729550639246827 -0.05398011851137588 -0.3847334628669572 156 163 164
0.8574357814529878 0.060120268890553594 -0.3868522165498984 44 43 48
0.8797001644774907 0.019397506736474397 -0.3856419161971107 192 194 200
0.8856569956894359 0.01917423275363522 -0.3848256292007462 34 37 38
0.959067801310086 -0.03357964113065381 -0.38256331177614933 42 48 50
1.0859803977690003 0.09470347930391686 -0.38752210150863875 122 126 127
1.0872022022575618 0.07955219695176169 -0.3899569501069845 162 172 172
1.079832035364363 0.05776635050676726 -0.3884863158388741 170 179 177
1.07401778472588 0.05448829974499257 -0.3868471700069181 190 195 194
1.0870242134721135 0.046054962880755675 -0.39195148569939636 156 162 163
0.8550588446209141 0.026996454599455388 -0.3867977070982043 39 45 47
0.9675906333258028 0.03251954578401454 -0.3847063594576878 190 200 203
0.9707870594077856 0.028942963191405945 -0.38444336082866054 56 59 58
0.8804097021038861 0.019693371906897062 -0.3878625061957357 197 200 203
1.0940470228996793 0.03214762647496482 -0.390148189211873 151 160 159
0.9496732504564371 0.020294029397106263 -0.38659830179358334 46 51 54
1.1038697758146405 0.02665154513882954 -0.3873538685049632 128 136 135
1.1022680206841007 0.014517953528098943 -0.38691572047158274 95 102 103
1.0951285111942861 0.014298675197103376 -0.39043865601663613 153 165 165
1.0897946920743755 -0.003937849859694474 -0.389195752040898 161 172 172
0.8865112220020356 -0.011937422118563589 -0.3878029772248972 192 194 200
0.8865112220020356 -0.011937422118563589 -0.3878029772248972 192 194 200
1.0992800378579124 -0.016528743769272033 -0.3906677834770366 145 151 151
1.1000778349175155 -0.01810515023411711 -0.38972789822271564 102 107 108
1.0788290802301541 -0.0335336912448858 -0.38875554882498337 165 173 174
0.8868687746429941 -0.07524020866850745 -0.3883449785003914 185 188 189
0.8556847180770958 -0.07605280622030296 -0.39045790162312877 31 31 33
0.9640241347013131 -0.08930680645438317 -0.3851593182359377 194 202 203
0.9063393309614942 0.046544423514450275 -0.383176741255301 41 38 42
0.9567804487249646 -0.0338822850811473 -0.37878553307939455 44 54 57
0.8685886202840329 -0.058975606232231276 -0.3810327699262083 185 189 190
0.8685886202840329 -0.058975606232231276 -0.3810327699262083 185 189 190
0.937881684833527 0.11017384679330448 -0.3800894329111969 42 48 52
0.9505763203454833 0.029229610963771375 -0.37940125328016194 49 55 57
0.9459180513130122 0.02455883862769946 -0.3796474339786338 203 203 203
0.9262921161609148 0.06721715792913184 -0.3842717745926316 195 201 203
0.9262921161609148 0.06721715792913184 -0.3842717745926316 195 201 203
0.8959820125933476 0.03980121431654763 -0.38517238892986344 47 46 53
0.9078670358735459 0.028991844698748936 -0.3861078764924881 37 39 40
1.1007746221323058 0.01641752024984446 -0.3832781883868172 172 178 177
0.9820136546272491 -0.04633711973163111 -0.37978400087800424 42 45 51
1.0346882883948156 -0.06099155725961341 -0.37945600752904235 203 204 200
0.9417610081143571 -0.0686324294501274 -0.3812939064297802 181 187 185
0.9417610081143571 -0.0686324294501274 -0.3812939064297802 181 187 185
0.8877355738197735 -0.04361108439145083 -0.3902423029704428 33 36 39
0.8877355738197735 -0.04361108439145083 -0.3902423029704428 33 36 39
0.9311132396319157 0.07798620947066275 -0.3839362994980342 46 47 53
0.9469427437717544 0.019295527477956778 -0.38138621416092366 40 48 50
0.9469427437717544 0.019295527477956778 -0.38138621416092366 40 48 50
0.9201528536329033 -0.0015586637403662386 -0.3811393037868255 35 41 43
0.9201528536329033 -0.0015586637403662386 -0.3811393037868255 35 41 43
0.9201528536329033 -0.0015586637403662386 -0.3811393037868255 35 41 43
1.0029349019471088 -0.03633906898974778 -0.37999970672915884 68 78 81
0.9698066318180835 -0.07357159573296902 -0.37571392631616995 188 194 194
0.9625356143360527 -0.08041491170882005 -0.37484667001366767 185 191 191
0.9625356143360527 -0.08041491170882005 -0.37484667001366767 185 191 191
0.8788392104541083 0.08160114651975055 -0.3842941135077376 203 203 207
0.9688193106277961 0.07937829359885973 -0.37787717839287244 51 57 59
0.9688193106277961 0.07937829359885973 -0.37787717839287244 51 57 59
0.8730650493669064 -0.04846811975938421 -0.38016609724173817 31 34 35
0.8730650493669064 -0.04846811975938421 -0.38016609724173817 31 34 35
0.8756955412446984 0.11002520374184052 -0.3825613790710215 29 32 33
0.8540710579985604 0.08946291631621738 -0.38418422658033735 32 35 34
0.8781552357077174 0.05585127745194947 -0.38260338377787395 184 187 188
0.8781552357077174 0.05585127745194947 -0.38260338377787395 184 187 188
0.9697384528033588 0.02420981248980692 -0.3772186229123865 182 188 186
0.9446451334973691 -0.006785093479453478 -0.37689297350438566 34 42 41
0.9072866155649966 -0.07384736584032148 -0.37459055081895154 168 179 177
0.8323137066610855 0.1118652566322938 -0.38264753659157175 186 186 186
0.8315464149027595 0.10895231012218722 -0.38461033571097747 117 109 108
0.9279155567001969 -0.05036218620966904 -0.3832366927373793 41 47 47
0.9279155567001969 -0.05036218620966904 -0.3832366927373793 41 47 47
0.9902305429665503 -0.052956812022218365 -0.38072529807646677 40 49 49
0.9514487237057563 -0.0772434040822587 -0.38182040876352324 25 28 29
0.965558030068675 -0.08932586035048108 -0.3808602939757492 38 36 38
0.965558030068675 -0.08932586035048108 -0.3808602939757492 38 36 38
0.9896614041720507 0.07127936631214696 -0.38212654052403167 67 74 68
0.8732180982735457 0.013179653659897001 -0.384863649747239 12 18 17
0.8540015923793479 -0.012692477728964048 -0.3841746373768919 15 21 19
0.9652774078265539 -0.08401711695819605 -0.3799937557536893 39 37 42
0.8976734186835272 0.10066724420161222 -0.38481048242182053 31 34 33
0.8976734186835272 0.10066724420161222 -0.38481048242182053 31 34 33
0.8636345276598444 0.07483292511108951 -0.38461926032724386 177 183 183
0.8636345276598444 0.07483292511108951 -0.38461926032724386 177 183 183
0.9577031051979964 0.03733199613113117 -0.3812418595439321 56 58 59
0.8895223521538315 0.03095948628351525 -0.38488439825526094 41 33 26
0.8895223521538315 0.03095948628351525 -0.38488439825526094 41 33 26
0.8337163080737684 -0.020346669759760672 -0.3838409959498245 113 113 115
0.8839837532217584 0.08785072476064489 -0.3844693448964618 164 172 171
0.8839837532217584 0.08785072476064489 -0.3844693448964618 164 172 171
0.8724276599071826 0.07555902251008571 -0.3842694590972252 26 29 30
0.9810270442347034 0.07903836071334175 -0.3812689832676714 57 64 64
0.9410861164353743 -0.06812964829940336 -0.38061564159720523 154 162 161
0.8310760075043953 -0.007769734699435106 -0.3839010317044613 165 168 168
0.8310760075043953 -0.007769734699435106 -0.3839010317044613 165 168 168
0.8903424605073152 -0.02847737219387312 -0.38127718027095114 156 162 160
0.9359396435447235 -0.0625336861129423 -0.38095081282947557 29 35 35
0.9641126259297543 -0.08830100368045016 -0.37787651886935103 43 43 45
0.830738079934601 0.07168310962506573 -0.3851057681482182 130 127 128
0.830738079934601 0.07168310962506573 -0.3851057681482182 130 127 128
0.8314366324583127 0.028344392075096907 -0.38414723897284975 107 107 111
0.9853181521423666 -0.05279526250578757 -0.3806037828216559 178 186 183
0.9892135101785899 -0.05677639829908833 -0.37972423391632326 188 189 185
0.8295177075607125 0.0476627799796886 -0.382274080974716 176 182 182
0.8332656988817134 0.04795057651881462 -0.38407521400758654 173 175 174
0.8979639144329794 0.03511182775605596 -0.38177837015987204 29 34 32
1.0032196014485169 0.02617137865381897 -0.3807729923780183 70 81 81
0.9191698067899965 0.016264193320336313 -0.3821515380909294 27 33 33
0.8320500228776845 0.001627263107107737 -0.38324962518704575 155 155 155
0.8323203797563142 -0.015706211343781532 -0.38327547010612567 151 157 159
0.8323550717208146 -0.022712070943997943 -0.38328185887391353 128 128 128
0.8335412837477626 -0.027675228675382715 -0.38349023376978175 99 98 98
0.8317245773662396 -0.03269112113915904 -0.38396300558447394 86 86 85
0.8787541813251236 -0.06824442823527029 -0.38213690328278715 163 162 162
0.8317557340217329 0.10013245309511404 -0.3852188029572325 189 192 193
0.8330376395914807 0.028585539485792656 -0.3842502386180324 100 96 99
0.9410042842464155 0.02008767599346448 -0.3819455411772236 170 178 175
0.8327591868742692 -0.004125811405592496 -0.384221703276121 130 126 129
0.8326727937712404 -0.009751651062697741 -0.3841856685775652 100 99 101
0.8331830949548938 -0.025010932280095693 -0.3847692755609348 160 160 160
0.963450958870789 -0.029520893841364863 -0.3803070714176293 184 190 188
0.8292443160153559 0.12547730453359499 -0.3876152553356593 193 192 192
0.8287805815244043 0.12014488316656081 -0.3854665603522477 194 193 193
0.8292315101506249 0.10973908774778292 -0.38473907752006525 194 193 193
0.9574369004001928 0.09804168414373957 -0.3813152581966259 43 46 47
0.941369691603699 0.05114176581840107 -0.38341697771033983 32 38 36
0.8309047991012248 0.038331782509468795 -0.38403255005918835 124 121 123
0.9651723655443607 -0.018908970877111422 -0.3812900485207269 33 38 38
0.8883262488938354 -0.07740993473513237 -0.38232139657007264 18 21 22
0.9955349015976427 0.07129883981397557 -0.37994235069043714 62 65 66
0.8299696537115347 -0.029579171923956496 -0.38382499502702316 157 163 164
0.8334105790782896 -0.033989764409387134 -0.3829149326183923 107 110 111
0.8962480735051659 -0.05515291980998707 -0.3797041862145331 11 18 12
0.8684391877065516 -0.058282735310389265 -0.38244400170246845 142 150 147
0.8685106115909299 -0.05828529893717033 -0.3828707918195067 166 173 173
0.878577163920625 -0.06820043577654061 -0.3814610744457817 142 150 149
0.8782353312086695 0.08686901661118852 -0.3827938548289963 21 24 23
0.8312383184100061 0.07966815311592587 -0.38446130382809335 182 182 182
0.8315437132637332 0.0660992616689427 -0.3840154967030634 187 187 189
0.8906681191517885 0.03145209054346192 -0.3820262561672826 139 155 154
0.9778718330940933 0.02011489421672198 -0.3803378506991006 181 182 178
0.8328635874690566 0.0086683288817422 -0.3834576334564612 99 99 95
0.8672193787475175 0.0013488271748809408 -0.3828187385006097 24 24 26
0.8916897485526836 -0.019522725034819322 -0.38150970311172644 27 24 21
0.8916897485526836 -0.019522725034819322 -0.38150970311172644 27 24 21
0.8335958626537634 -0.024563105039699048 -0.3831342583445964 110 116 118
0.9536865986609366 -0.029915310197964454 -0.3809219336988242 167 173 171
0.9063682408528102 -0.03389307613555441 -0.3814617861601872 18 24 22
0.9152911359563786 0.05641193507360725 -0.38275014409880137 187 193 195
0.9064384004446566 0.047404600494312846 -0.3835643127113832 22 23 23
0.9931794945803848 0.04371423206108467 -0.3798369725540732 51 62 60
0.9153568885963405 -0.036825937143545505 -0.38072727719224025 27 31 26
0.9057187749752048 -0.07898680110329738 -0.38356479757289597 20 23 24
0.9057187749752048 -0.07898680110329738 -0.38356479757289597 20 23 24
0.8315996359302722 0.07193513825407925 -0.3831919157895915 184 184 180
0.852938403188034 0.04839610578902345 -0.38153904604445077 26 29 28
0.9422299154752284 0.02563299366273472 -0.38409246073142567 47 55 54
0.8783211905376477 0.01933131047644784 -0.38229856972265386 167 170 169
0.8310441662961672 -0.02760201479349416 -0.3809650759823719 102 108 108
0.9402781827297636 -0.09876148724309466 -0.38118130771182523 22 29 27
0.8319664036762885 0.0627351926936891 -0.3837461084627265 171 170 174
0.8318616580272861 0.03287090893228481 -0.38366875115234184 189 189 189
0.8322971329717134 0.025035698765535873 -0.3834169472496982 141 138 141
0.9418403352231607 0.02004680826644684 -0.383672008215622 175 178 177
0.9418403352231607 0.02004680826644684 -0.383672008215622 175 178 177
0.8323130047652487 0.020838866804831633 -0.38385571188404805 107 106 110
0.8323130047652487 0.020838866804831633 -0.38385571188404805 107 106 110
0.8320990590412329 0.012904887474570212 -0.3839427623793417 133 136 138
0.8321120926434894 0.012903340976699975 -0.3839926114129027 154 153 159
0.9852581111645663 0.0022571304619816873 -0.3804071087332854 64 67 72
0.8790079159202736 -0.01163502309051328 -0.38396064963288945 21 24 21
0.8790079159202736 -0.01163502309051328 -0.38396064963288945 21 24 21
0.8318167033484283 -0.012923531381259495 -0.38373541817586204 130 132 133
0.833251181657386 -0.01617154029024569 -0.38354864705962194 166 166 164
0.8953977909931542 -0.030806259583052636 -0.3816358012634633 155 161 159
0.8953977909931542 -0.030806259583052636 -0.3816358012634633 155 161 159
0.8879958927824282 -0.033516052265450756 -0.38166551392500364 23 27 23
0.9724104305176765 -0.04221220683008983 -0.3808749742335928 31 33 39
0.8324387652818608 -0.03457939561642429 -0.383027577221546 86 84 87
0.8731604568941135 -0.048001288032974244 -0.38265539500025525 19 22 21
0.8731604568941135 -0.048001288032974244 -0.38265539500025525 19 22 21
0.8309917031932577 0.009966660917166808 -0.38349616885426435 142 141 143
0.8309917031932577 0.009966660917166808 -0.38349616885426435 142 141 143
0.8784863541493625 -0.005950678852041826 -0.3827551116889101 160 166 164
0.8333238333580141 -0.01384659099278392 -0.3830797668715003 128 128 130
0.8306587196741517 -0.02929082285430055 -0.38352728158157723 140 141 145
0.8306587196741517 -0.02929082285430055 -0.38352728158157723 140 141 145
0.8311113818694651 -0.03182002426061246 -0.3833543935388686 174 181 185
0.9089512354312158 0.08732649091666227 -0.38190708421407804 181 187 184
0.9465450308278636 0.08783466977973002 -0.382101413971899 184 191 185
0.9313103056837979 0.0097108764453328 -0.3846181247000446 169 174 174
0.9313103056837979 0.0097108764453328 -0.3846181247000446 169 174 174
0.9409368036520418 -0.005834909498432346 -0.38149816797364905 169 175 173
0.9298094259825719 -0.04875589234368906 -0.38126537447380954 153 159 153
0.8330424481358606 0.1070521433596194 -0.3865097530069689 131 125 127
0.8311505095679879 0.08419542426998969 -0.38528368927417034 189 190 190
0.9411399693516738 0.08268694911660576 -0.38323656841153575 184 190 190
0.9411399693516738 0.08268694911660576 -0.38323656841153575 184 190 190
0.8316006972866462 0.06397272017316051 -0.3850964382091199 185 185 187
0.8314776675501379 0.05246586446361219 -0.38503942533169705 112 111 114
0.9096634741612172 0.050799000197590954 -0.3832206141617296 175 183 180
0.9096634741612172 0.050799000197590954 -0.3832206141617296 175 183 180
0.942052895159955 0.05129800165129189 -0.3847675329415542 32 38 36
0.8296061807472953 0.023905107604500223 -0.38308471348661927 178 181 182
0.8333977754888324 0.022069714709435022 -0.3849321314818744 173 175 176
0.9105432017459097 0.020061538520514403 -0.38406320872719346 25 25 25
0.8310961159843208 0.008559616209978029 -0.3847036040801932 125 125 127
0.8318103797760952 0.005507910164444022 -0.38363170182540546 176 177 181
0.8318463325993007 -0.004295007286533441 -0.38387981658365505 179 179 176
0.8327040361324615 -0.009794088910431587 -0.38455548471504314 100 99 101
0.9095183916832368 -0.0371668320601799 -0.381371223510369 166 169 168
0.8723597826166224 -0.05390146258693301 -0.3841229154525853 160 160 160
0.9645074916680082 -0.08816791857839214 -0.3788825372150789 38 38 42
0.9648280491180905 -0.09163144411159382 -0.3786789914891183 183 189 191
0.8528937402761255 0.08763960267662443 -0.38268964352463036 25 29 28
0.9518283263191762 0.03031028199962927 -0.3822410275946281 33 39 39
0.8341054383895241 0.010553094524466124 -0.3831988401419678 172 175 176
0.830247395922471 -0.0029234828113496197 -0.38403534412890694 116 115 116
0.950927527365496 -0.02592743313527389 -0.3816729459738052 30 36 35
0.9535799287484106 -0.029950814173724215 -0.3808198824210429 184 187 186
0.8329269443091248 -0.024956091322174887 -0.38418393342460183 160 164 163
0.8318068550386098 -0.02491462483912274 -0.3837636676821302 169 175 175
0.9233153577106996 -0.06040053005319954 -0.38171834856522874 35 23 30
0.8317710052843712 0.025335246872616197 -0.3837282499848427 182 182 184
0.8600507326166993 0.01226870529624739 -0.38378374824834666 167 173 173
0.8334872136853856 0.013061530915354629 -0.3838056200675679 167 164 165
0.8327577829442013 0.008742709671184814 -0.3835130240631165 95 94 94
0.8916571480831704 -0.08087553930282217 -0.3820941925030564 160 159 163
0.8600739804055894 0.06605156894946582 -0.38295344043327284 43 33 28
0.9369963886980213 0.059799265056953835 -0.38154866267940496 34 41 35
0.9369963886980213 0.059799265056953835 -0.38154866267940496 34 41 35
0.8880925288871623 0.03115670638187389 -0.3812840405323333 46 32 20
0.9478877494257599 0.02014377002366679 -0.38393412113178726 31 38 37
0.9157198875858217 -0.005874008055549198 -0.38236998731222144 159 168 165
0.9157198875858217 -0.005874008055549198 -0.38236998731222144 159 168 165
0.9259396845094489 -0.04958555785057753 -0.38052116110054435 24 27 26
0.9613752179834202 -0.08813576092790781 -0.380953674854073 189 192 193
0.8994876150849076 -0.08084057249332245 -0.3821229825078275 160 159 161
1.080970723828871 0.09179961248388475 -0.38541867506305416 88 91 92
1.0032668770575848 0.050858327587781395 -0.3820946181505286 58 69 69
0.8325512410560528 -0.0013026158169088288 -0.3830249079985654 118 118 118
0.8894274525711791 -0.016657150016622897 -0.38232216290155263 23 26 25
0.8895568483050929 -0.016676748868028474 -0.382777780582806 23 26 25
0.9294418855683203 -0.05460944231835713 -0.38352584514092536 154 155 154
0.9784730975972638 -0.06818590226628735 -0.37997578967567747 181 187 185
0.8765881421114682 0.11184834601813612 -0.3858944615895005 26 29 28
0.9167137175282993 0.11177876441872933 -0.38291053172401046 31 34 35
0.8318077413409953 0.03630932467893807 -0.38354564699165516 117 113 114
1.000124156702716 0.03493587326400261 -0.37924818297362317 58 69 69
0.9984612037795974 0.014575287874719164 -0.3805054782227714 63 71 72
0.9855558663184303 0.0023394726531362083 -0.38087405322148804 66 68 69
0.9365165729813177 -0.05903152587709527 -0.38172534589650275 28 36 36
0.8604451335609684 0.07414202329119421 -0.38316470161451355 35 27 20
0.970480081929519 0.08166102569905959 -0.38005415746457766 45 53 54
0.8332671380840869 0.04771106100701043 -0.38367160878174983 194 194 198
0.8316951244340203 0.04627142277836541 -0.3838916400166838 148 147 149
0.8316951244340203 0.04627142277836541 -0.3838916400166838 148 147 149
0.9760977490536803 0.05108529529732937 -0.3792692971956285 54 62 61
0.8895876263509871 0.03114630050386009 -0.3789953609765662 192 195 196
0.8895876263509871 0.03114630050386009 -0.3789953609765662 192 195 196
0.8320801304116243 0.026973732804714847 -0.38268953080168355 193 193 194
0.8309028290330092 0.02577932070316004 -0.3825394909998896 145 145 149
0.9679928917482858 -0.010702195007114557 -0.37497758536674247 203 203 203
0.8728940156063165 0.01311854351000184 -0.38376174651741046 19 25 23
0.8342566395938442 0.010573059143099493 -0.38208740115292383 173 176 177
0.8324698210807481 0.0036634907853920003 -0.38233931612274946 123 120 119
0.831926062507143 -0.008271712485387 -0.3838610091937126 107 104 105
0.8949088451967007 -0.018242543134807936 -0.381453482052943 160 167 167
0.8949088451967007 -0.018242543134807936 -0.381453482052943 160 167 167
0.8317607230979497 -0.01706829320439139 -0.3817919769963708 173 173 176
0.8333236158841276 0.10900533990938986 -0.3838638549446488 184 178 180
0.8629589292266969 0.10038343869209462 -0.3819313050346872 19 22 21
0.8629589292266969 0.10038343869209462 -0.3819313050346872 19 22 21
0.8975863652358672 -0.02243560912344552 -0.38172939808912276 154 165 162
0.9161319065090288 0.11355965720627836 -0.3842456711978349 33 36 35
1.0715130453936341 0.023993058147467616 -0.3826215664599196 114 117 116
0.9722683527171392 -0.03700463090307022 -0.3808898537200809 170 177 174
0.8312936242340082 0.13516083688388988 -0.3840783874234928 177 177 181
0.8312936242340082 0.13516083688388988 -0.3840783874234928 177 177 181
0.8314434221964425 0.13218877676207386 -0.38472690280468147 178 177 179
0.8944131367170056 0.10560347669068788 -0.3825565604708468 176 176 172
0.8288411471169702 0.0753101891149206 -0.3840446544513923 200 200 200
0.8315743621225982 0.06608879220222455 -0.3840330037836896 197 196 203
0.8874470281764076 0.028444166104486926 -0.3823148899806248 24 25 21
0.8534416265127829 0.025619692971591147 -0.3829424270280817 23 28 26
0.8318500315809432 -0.008204682547316933 -0.38369316673740766 108 107 108
0.9967249915596075 -0.009440047801531445 -0.3795050721674798 69 74 76
0.909653441659367 -0.03722968232321589 -0.38156153128466097 167 177 170
0.9512320666673442 0.09216923434597088 -0.3809029428687921 29 32 33
0.8324736568819769 0.05577724055439176 -0.38368603792183315 200 200 202
0.8313089443424245 0.03025339271677173 -0.3829755064228478 187 190 193
0.9761119671700191 0.024905932238077442 -0.377610501260132 74 82 80
0.8575225157385133 -0.001233246389373554 -0.3816838552054025 29 32 31
0.9525091857002884 -0.030072334258934026 -0.37905520560799694 163 171 168
0.8332731155515285 0.10671630216028412 -0.38584871512243624 134 125 127
0.8313412112063208 0.10115085023414644 -0.3854240926333464 188 185 186
0.8297530597296029 0.07199062220997422 -0.38389168176565586 178 180 177
0.8316904329269252 0.04045954881200932 -0.3820162839246069 148 149 150
0.9462443558179776 0.02515018087521298 -0.3807818770415479 177 181 176
0.8672282421377834 0.0012487045960505698 -0.38255098026599416 31 31 25
0.8672282421377834 0.0012487045960505698 -0.38255098026599416 31 31 25
0.831206722162805 -0.009729649415092563 -0.38259322279724 123 126 127
0.8658216442493069 -0.0632795474405598 -0.38117687621011576 21 21 23
0.9773367005835095 -0.07291774216663646 -0.3784929290416041 29 37 38
0.9497923457002417 -0.07654166316027115 -0.37915508527807673 29 34 36
0.9288117185252274 -0.08949551044549998 -0.3811003570005963 17 20 19
0.8622662609617802 0.06351181201746785 -0.38246789878594467 197 200 203
0.9568647005385899 0.006056597229924786 -0.3786127006826456 37 43 43
0.9869404532609423 0.008378908738696818 -0.3790611424802652 81 85 88
0.9637455470120303 0.0315838694491193 -0.3788665193167169 193 200 199
1.0773659601880858 0.034510931013104436 -0.3804850465147627 109 109 111
0.8312170878732588 0.13915639065480856 -0.38722629657868846 203 203 207
0.8316317901846793 0.1186763679304287 -0.38668110312948206 183 182 188
0.9055509982474227 0.10910400173428637 -0.38249232959836754 33 33 29
0.8947759609077034 -0.01862961460579466 -0.3807011379748657 188 188 184
0.8325664017022272 0.05675537610582164 -0.38341814033305466 106 109 116
0.9973993750182556 0.027524531266248726 -0.3771793165588887 70 73 74
0.9900250917495782 -0.002401340395759842 -0.38011205612455073 68 74 74
0.9002497446287936 -0.08469254201298256 -0.3816751711857685 26 29 30
0.9547689735955086 -0.0942082140947136 -0.3802581864028132 25 31 33
0.8318638678492803 0.1060644083929799 -0.3863361924706835 182 181 177
0.8334022119568038 0.05097419446637998 -0.38267758247932226 173 176 174
0.8295409405080763 0.020921911634730665 -0.38236838245553556 170 174 173
0.8310900297448451 0.008459184586225701 -0.3830507467315271 109 114 116
0.8327647531192764 -0.026956818454824522 -0.38245090987994507 159 169 172
0.9894405911711184 -0.0525107589592736 -0.37912777532877706 58 69 69
0.8689883739319627 -0.05853719665302473 -0.38309118940990944 143 153 149
0.920810523814952 -0.06311129185334036 -0.38146979381815355 20 26 24
0.9862138182726002 0.06277907424319103 -0.3765714200939181 189 196 190
0.8589324676338705 0.005317728583561771 -0.3771510707388101 192 192 193
0.9650962950489587 0.02831884266569136 -0.3757658024778458 48 55 49
0.8318998974105307 0.0723054252690861 -0.38424204599046385 198 198 200
0.8297130233046359 0.050269522023416696 -0.3843390486584753 200 200 202
0.9511834322953627 0.09203857501840962 -0.38099988064833884 41 52 48
0.8332554713039897 0.043591625984622843 -0.3796374283127161 199 199 201
1.0714067950533552 0.03801717207574275 -0.37650346402985213 130 132 134
0.9955437762116807 -0.011512910973192582 -0.3712551996578648 66 73 78
0.9955437762116807 -0.011512910973192582 -0.3712551996578648 66 73 78
0.9725374761832588 -0.04126804866084047 -0.37179828490619976 202 202 204
0.9182549890482097 -0.04664371743085193 -0.37252972213631164 29 29 31
0.9612031559755402 -0.0642317429838428 -0.365732601906785 37 37 37
0.9624998841525402 0.03587027618888963 -0.383369752209739 43 49 49
0.9664186925424237 0.032666108624387014 -0.3833220109824792 185 196 192
0.8841723257372907 0.024955290286185938 -0.3828963840729762 180 188 187
0.878588783470158 0.02523715471625863 -0.38345396969437234 25 31 29
0.9413352995306117 0.02011140825733126 -0.3828781206993613 182 188 187
0.8717613112107399 -0.000980565661499562 -0.38179012661874184 25 25 25
0.947065699960542 -0.011061479270656106 -0.38170565082192703 183 189 189
0.968299904943561 -0.09543932708228309 -0.37931635183074386 33 39 41
0.8889760210536282 -0.0962293865090203 -0.382933330899843 26 26 26
0.9768747881863425 0.020063034255206863 -0.3790444835529621 176 179 180
0.9150446309348229 0.019703497788924024 -0.38149090345551795 170 176 174
0.9038891103694369 -0.09434135251652619 -0.38073958876955505 20 23 22
0.9588647903073346 -0.0361505218526908 -0.3639406196079406 198 202 203
0.964548737061903 -0.04061223100796024 -0.36328554984961564 201 201 201
0.831658106620388 0.11006571723719896 -0.3850741581728795 181 179 175
0.9448458877429597 0.08669150619245691 -0.37981022510599033 179 179 175
0.831436944952896 -0.015214501029873428 -0.38434480904541396 133 132 135
0.831436944952896 -0.015214501029873428 -0.38434480904541396 133 132 135
0.832325800146891 -0.019074232504791944 -0.3848394310830064 177 177 179
0.8328653563758378 0.05462325713575268 -0.3835631838531852 120 116 113
0.882374931759405 0.0791280201425349 -0.3779698782579067 29 32 33
0.8917109228948785 -0.01948715905643679 -0.38152225153448055 45 40 38
0.9396190004052255 -0.07302037853628982 -0.3784697394611494 27 30 29
0.9396190004052255 -0.07302037853628982 -0.3784697394611494 27 30 29
0.9044911994496233 -0.07784368163587628 -0.37996998409998806 23 23 23
0.8299407525844248 0.1258229330952233 -0.3880849759968691 185 181 182
0.8316352520210165 0.10861216357181956 -0.38626174921282486 182 178 179
0.8772721186036445 0.11179042404106578 -0.38351115248033435 34 37 38
0.7684557338012414 0.06876459435086953 -0.3813750011640509 55 55 55
0.7658101097719083 0.08171089975718393 -0.395417161258834 27 24 21
0.7715801870266256 0.07616317308072226 -0.3942430999976196 39 40 39
0.7630773084505507 0.06979305954422393 -0.39355962591735394 52 59 53
0.768249535811129 0.037189242656547064 -0.3912798578571008 24 23 23
0.7698487165263275 0.028945281031489228 -0.39069933987970845 29 24 22
0.8310677779015075 0.059463864853690526 -0.38493791105363484 143 146 149
0.8310677779015075 0.059463864853690526 -0.38493791105363484 143 146 149
0.8784634836231086 0.05597846552083373 -0.38359150724872393 173 176 175
0.831226486014114 0.02917938868277278 -0.38503030598090376 175 181 185
0.8339590974713722 -0.014506430796676037 -0.3802827258219653 164 170 170
0.9099344963995172 0.01957884960185777 -0.3833817511175272 27 33 33
0.8315479689676809 -0.025877993605293123 -0.38358827517694594 112 114 111
0.9803052043991098 0.040606314779178025 -0.3804153257853488 60 67 68
0.8307629339919337 -0.029421928546478487 -0.38304641499218206 129 131 130
0.8307629339919337 -0.029421928546478487 -0.38304641499218206 129 131 130
0.9284671121737048 0.009370330839067626 -0.379223654087658 171 178 173
0.831482357957965 -0.037253337672102135 -0.3846218640769806 161 171 173
0.9340310703745142 0.0007331213516562156 -0.38140470832885204 167 175 173
