ply
format ascii 1.0
element vertex 573
property float x
property float y
property float z
property uchar red
property uchar green
property uchar blue
end_header
1.0768231497460028 0.05038428853004666 -0.36062175968308846 97 97 98
1.061520952785987 0.04447281972745383 -0.3587815379966016 161 172 172
1.076513638880093 0.02807998182892968 -0.35753333494628026 132 142 141
1.0612410307364633 -0.0007155668977622179 -0.35965590023441935 115 115 119
0.8275765440480128 0.1241946795922083 -0.37892135185204956 204 203 203
0.8327861445194179 -0.030876038470260398 -0.38544720217863543 184 184 187
0.9367704869630682 -0.07207021904206193 -0.3724438887132574 27 30 33
1.0737226944910498 0.10272294121684841 -0.3523055689315206 142 148 143
1.0757304402588819 0.08724695477123921 -0.35857390199158556 148 148 148
1.0769893864389781 0.06358055309312505 -0.355267767911385 121 122 118
1.0731981620065836 0.06254230010920404 -0.35746757011203817 105 104 104
1.0826729213851192 0.0339194840890525 -0.35584376906416204 127 133 131
0.9804232620625097 -0.1470981959588266 -0.35859122527948967 35 38 37
1.0553970765086877 0.07381893699136066 -0.35672115020132655 190 194 189
1.0716932942466448 0.05076736693942555 -0.3572864829159448 142 148 148
0.9464834410217261 0.057678354070496186 -0.37612185955912336 40 49 50
0.8325058424182371 0.10659108591295047 -0.4049592771361272 209 209 210
0.8324192932040558 0.08121741142021015 -0.39263176705611813 161 157 158
0.8452960420236119 0.06138138317158086 -0.38919999315853915 191 191 191
0.8716008596957373 -0.00089803087148996 -0.38141139933944024 22 28 26
0.831473200150554 -0.03196440516905061 -0.38229462772652056 132 134 136
0.8293926403237358 0.13666600913139834 -0.3903102999336304 200 205 207
0.9842347013670142 -0.14708629270837473 -0.3568201644777372 21 24 18
0.9842347013670142 -0.14708629270837473 -0.3568201644777372 21 24 18
0.8322003640165071 0.06407850927107232 -0.38898128861550474 177 169 171
0.8315297607573898 0.0847222180206894 -0.38827516292369957 157 153 156
0.8277204003644041 0.12050160720728897 -0.38123691237227614 201 203 203
0.8872724433017697 -0.022042882212506446 -0.37372035835942746 185 188 189
0.8713133991532327 0.07598631680661676 -0.3735216430062085 33 32 31
0.8713133991532327 0.07598631680661676 -0.3735216430062085 33 32 31
0.8821822391478482 -0.005691085610389438 -0.3770821416062411 27 33 31
0.8326930835454276 -0.02743286648780541 -0.3838854845730236 116 118 119
0.8293082804364265 0.01798048369828706 -0.37783439466519425 188 188 188
0.8313222616963563 0.014684227165563996 -0.378757526947213 131 131 135
0.8755728357014959 -0.03633209592679748 -0.37610730936943976 27 27 27
1.0817004034921867 0.061121681710513256 -0.3639311803375711 138 141 140
1.0818357740517623 0.027669098043130714 -0.36397239095381256 104 109 113
1.0751646746164303 0.012033077849358718 -0.3641292282234383 144 152 151
1.0751646746164303 0.012033077849358718 -0.3641292282234383 144 152 151
0.9940393249351748 -0.15735096640390542 -0.3764671644789734 32 32 32
0.9802908318373984 0.06868440176538211 -0.3618060249377036 65 70 71
1.0730843435318234 0.035299862564505236 -0.36462694991674865 106 109 110
1.0937472145183156 0.035464159593133385 -0.36356504299992043 106 108 108
1.0813967709001273 0.021510334745778195 -0.3659894523683014 140 146 146
1.0730608428944655 -0.009334946411310892 -0.36759745503477287 149 155 155
1.0626519483278267 0.018067843131377416 -0.34841223292480683 139 145 145
1.0626519483278267 0.018067843131377416 -0.34841223292480683 139 145 145
0.8622102985825251 0.06682732164219878 -0.38078640015109233 185 192 193
0.833990555720958 0.01347371061359986 -0.38665204311114054 180 180 186
0.8432489145049675 0.06798032658703883 -0.38955427633667794 193 193 193
1.0648419205294704 0.03024861774642884 -0.3611977520405779 145 147 147
0.9172306835095827 -0.0008488178409447482 -0.37429815509995173 29 35 35
1.0597873449556858 -0.008493179469483823 -0.36031414508415727 146 149 150
0.8326496434450618 0.043760592472961504 -0.386773775946895 191 190 190
0.8301528027640013 -0.03728924044553756 -0.38035583281281105 95 96 100
1.0694252944065297 0.09975099742048678 -0.3609715387198121 151 154 153
1.0615376015085547 0.06032886303011485 -0.3592487196990122 118 118 120
1.0627617253106247 0.10751985095215331 -0.3551179308158521 109 109 108
0.8315079795825401 0.061562100295980395 -0.3790243887503252 184 184 186
0.9504839572032853 0.04256465031747527 -0.3704376036324998 179 185 185
0.9540270478077478 0.03658949223879076 -0.3709969913340618 53 61 62
0.8310110636081448 0.03705912593909095 -0.3803225598546469 117 117 117
0.8304151840660474 -0.0365919562616492 -0.3840297311685988 169 176 179
0.905014926647652 0.07952443536270286 -0.3721500983634369 30 36 36
0.8309033911365575 0.024515420497747673 -0.38067248764769523 138 137 137
0.8285943316822112 0.07847730056434098 -0.3770921898711581 139 140 144
0.9223693329379569 -0.001586596682245167 -0.37262282086290094 29 28 35
0.9674980124267236 -0.005125888882041162 -0.3703714313330586 30 36 34
0.9625632647615636 -0.01571939765004932 -0.370131839236241 28 34 36
0.8281177342076917 -0.008799654678092503 -0.3782342527945609 168 174 174
0.9848127375140514 -0.04542538817498574 -0.36924927756341275 49 56 60
1.0900378567643119 0.030861238817117713 -0.359608787789027 110 110 110
1.0741654178178337 0.016194820273742864 -0.3625796680099143 156 164 163
0.8753143361549002 0.01898450868961527 -0.3747911995029801 180 183 184
0.8570260592330986 0.011972877339217244 -0.37606081533794283 192 194 200
0.8940588126241172 0.0067951641872392625 -0.37447785888473295 25 31 31
0.9442950842292247 -0.04251594715941727 -0.3725362758702987 32 37 42
0.9442950842292247 -0.04251594715941727 -0.3725362758702987 32 37 42
0.9142726123261447 -0.0681825859325911 -0.37806668910232405 168 172 170
0.9142726123261447 -0.0681825859325911 -0.37806668910232405 168 172 170
1.0002383688062049 -0.15037196794207736 -0.36888669917294314 35 38 37
0.9810397602592896 -0.14650486449191608 -0.3715156974114674 35 34 34
0.9870351793127857 -0.14905035127876623 -0.36844662836774955 25 25 25
0.9932886631908587 -0.15179388019754408 -0.36636655519116845 32 33 35
1.085434765829996 0.09041866992921556 -0.3562795605510662 101 106 102
1.0648183656329948 0.0853931175324662 -0.3587897834860847 133 141 141
1.0768097102512795 0.012997239188153096 -0.3629262264657982 97 101 96
0.9059652282742552 -0.036719133727792334 -0.3735784374461715 179 182 182
1.0773868532027975 0.08796396184464589 -0.36138218665528593 152 160 159
1.084204803730333 0.08008752203402908 -0.36036489769858226 136 144 141
1.0830199121111344 0.07354081920058189 -0.3586670987938741 138 144 144
1.064384676977918 0.04681694649998272 -0.3609071118027367 161 170 169
1.077466092785132 0.04296630332415713 -0.3607723811877407 100 106 105
1.0846221448651994 0.038481664094514256 -0.3620515855274932 135 141 140
1.0731142976923778 0.019272706130384214 -0.3644186519215614 106 110 108
1.0822192783870976 0.006596587486770312 -0.36333494145368694 84 87 88
0.8940497346749594 0.006786673259013301 -0.3744803878072288 20 26 24
0.9901884347451355 -0.1478824564987321 -0.37340972678576495 33 33 35
0.9878364878392143 -0.14867893852221065 -0.3717533404498007 33 33 33
0.8306962867716441 0.07209977712479591 -0.3814695628934088 141 139 142
0.8308542182021634 0.03706677447590605 -0.3802209726070281 117 117 117
0.8855760971574153 0.03099250994593961 -0.3750306426706087 58 42 39
0.8330596321454792 0.010374160548580532 -0.38168391856739536 172 180 181
0.8305815085771968 0.0657146310506615 -0.3799289336066744 145 143 148
1.0833887312030313 0.12601356011107115 -0.35822116140537996 158 159 155
1.0707735709632842 0.06336832293303392 -0.3630831246250209 113 113 116
0.8301654732852563 0.0040524734780037885 -0.37969631463265574 144 140 145
1.0741776794948357 -0.022257186273235054 -0.3653516884827547 75 72 77
1.068743154997026 -0.036031562474509476 -0.3628668379964821 74 77 79
0.9489776030032675 -0.03211823698273283 -0.37012816230674606 37 36 42
0.8963764032750801 -0.07957695799409721 -0.3759485077499182 164 167 165
1.0834690869554744 0.01604573096840382 -0.363452034747059 85 88 89
0.8714595971707237 0.015267399731850005 -0.37482694752431367 32 33 34
0.8714595971707237 0.015267399731850005 -0.37482694752431367 32 33 34
0.8304855333457545 -0.013972102215389148 -0.3777994711417417 190 190 192
0.896345413865157 -0.0795734823507541 -0.3758727217469045 178 178 178
0.9884354391996661 -0.16622282520713755 -0.38571017218103765 20 17 14
0.8460503309110944 0.08275353003780479 -0.3559286093152963 29 35 35
0.9140215309631676 -0.04349054542664055 -0.39150364718456193 27 27 27
1.0808991732563376 0.07888038657781898 -0.3585629160388497 112 115 114
1.0759108967775906 0.02703418758811913 -0.36487127436113853 145 151 151
1.0823430342265503 0.10829336181601976 -0.35482327391114193 132 140 139
1.0591228535228017 0.09108376655463167 -0.35847634769037867 191 195 190
1.0778545588194124 0.07305113911713232 -0.3555639713330529 112 117 118
1.0867078151432377 0.05810422812589568 -0.3567240641621373 127 131 126
0.8847009851804271 0.044236941735343926 -0.3708752627628589 29 32 35
0.8734354288163793 0.0840240698734968 -0.3683316139325133 27 28 24
0.8283070569303489 0.07798901919430119 -0.373652033198285 139 140 144
0.8296968959324625 0.037826072343930595 -0.3758093474530883 194 193 199
0.8277403956649894 0.023717912166204502 -0.377281683728889 185 188 191
0.9108241508974518 0.04900731007799471 -0.36997612529327345 29 35 37
0.9725121086908345 0.07548939312198978 -0.3604639596182518 64 69 76
0.8569660300202191 0.005316783471907886 -0.3753510093895362 192 195 198
1.0572342106431152 0.09839333262430988 -0.357143595141648 196 199 196
0.9884684141705138 0.07621336434628634 -0.3617756060391807 62 64 69
1.0820557401114905 0.040633208141699254 -0.36305347333183774 141 152 151
1.073174831075091 0.009072261653429357 -0.3650983552126073 111 114 113
1.0756198661328884 -0.003734005102428432 -0.3673658068793874 114 114 110
1.077735252579536 -0.02025163725286286 -0.3643138939499989 100 103 102
1.077735252579536 -0.02025163725286286 -0.3643138939499989 100 103 102
1.070046512493595 -0.009568672860874572 -0.3587640456316836 153 161 160
1.0806965391893955 -0.01129348270947313 -0.35830329577583786 132 138 138
1.0807497561329098 0.02675678793509639 -0.3677812126874793 117 123 121
0.8809419834392529 -0.011562253606646207 -0.3742232026284832 187 190 191
0.9799110781510284 -0.06429249544114411 -0.3741379304028528 41 45 51
0.8796837997044941 0.04862987521524871 -0.3705248433671318 195 196 198
1.0738033526136634 0.039460753568806135 -0.3632742264027003 151 154 153
0.948737323873869 -0.022438011932516502 -0.37024517663842993 166 173 170
0.9775695603935791 -0.04511664898143249 -0.3698322820750942 42 45 51
0.8860283375112629 0.06658192448684441 -0.40506114210218225 184 187 188
0.8302643964271771 0.03753047230907906 -0.3886077061070869 166 173 174
0.833128250493367 -0.02015289211452018 -0.38387050087693675 105 104 106
0.8294586163160212 -0.022641282363462793 -0.38395293403817726 170 178 177
0.8532626210017811 -0.03582889147526885 -0.38098633197793563 23 29 27
0.8441551532340631 0.007551812548529212 -0.38885591519529844 168 174 174
0.8317321801370132 0.06314830998414481 -0.384840918736794 115 115 120
0.8328708988956295 0.04805879457677277 -0.38500315263567836 173 175 174
0.9979277268489242 0.060103056550252575 -0.3818369946334316 70 78 81
0.833731988898558 0.03401295392804657 -0.38256452294017657 174 180 180
0.8307530644445719 0.026104791011373276 -0.3848148975038749 115 115 117
0.8325035439527211 -0.02818656719712411 -0.383455839776267 154 157 158
0.9859000421906345 -0.04714482132628578 -0.38282359185199866 45 50 49
0.9598413406936517 -0.08779567770210511 -0.3796400656669402 178 181 180
0.8312558341587629 0.06253959541961716 -0.38534379509659633 178 181 180
0.8316883863825904 0.058395210360985925 -0.385263023817305 184 184 186
0.8312471632806764 0.04818960211154233 -0.38490394102605907 181 181 183
0.8328410194687849 0.01500218911895018 -0.3836892637629938 119 115 118
0.8325334958944479 -0.024861239803366648 -0.38367827432821605 160 160 160
0.8294696673755094 0.08857668857713052 -0.38674763471500256 186 189 189
0.8307846464604893 0.08422789302284998 -0.38574334097201757 189 190 190
0.8311283788738353 0.06061016620622147 -0.3850726614481719 176 176 178
0.8318697634504135 0.040639334847610266 -0.38568528707311167 189 187 187
0.8304895945528508 0.038399857718706555 -0.3846496999207152 124 121 123
0.9647077940842881 0.04591892441164385 -0.382561739858627 40 48 47
0.9954355187843049 0.018233050479737844 -0.38142117161549166 52 62 65
0.9830411595261203 0.014144570405197567 -0.38370646402851144 48 61 60
0.8313634390005141 -0.017861257442111117 -0.38303527035491236 106 106 108
0.8310210610040345 -0.02676783821493387 -0.38324568702821143 164 167 168
0.8311054260668536 -0.028530614653064546 -0.3838153773674637 166 166 167
0.9261309118560264 -0.0614134520654707 -0.38135451732368325 149 155 149
0.9594639627825942 -0.08768308061375787 -0.3839190127413749 187 194 188
0.8300403786789494 0.04808672163698913 -0.38641469216900837 166 169 172
0.8329185751839617 0.031058750970352624 -0.3858917382356943 127 127 127
0.877826026615778 -0.012388722507230047 -0.3849517292432282 12 18 16
0.9974659326072275 -0.04586868166481636 -0.37788093647301496 51 50 57
0.9730641597475513 -0.1526567877860182 -0.3704267105782453 22 28 26
0.9768943265341687 -0.15625564636644362 -0.37448503169030484 25 26 22
0.8308305665496449 0.0795888886595172 -0.38506880285480144 183 189 191
0.9086266501330058 0.019583383459979162 -0.3812868524814818 15 18 17
0.970162302327736 -0.007715026827253974 -0.3764351857576031 55 58 57
0.970162302327736 -0.007715026827253974 -0.3764351857576031 55 58 57
0.8330159460182238 -0.024407927102154642 -0.38267632956811326 110 116 118
0.8294874012495633 -0.024959403224966398 -0.3813732876922783 155 166 166
0.8781220560079055 0.08734731867310362 -0.38534077441595466 30 31 27
0.914714523625911 -0.0368141347349295 -0.3810551583372205 27 31 26
0.9926623437582944 -0.14376706897489017 -0.3778594792355322 40 28 37
1.001723464186721 -0.1626876846871008 -0.38319463102319956 15 14 16
0.8308425761396773 0.134718193400264 -0.3885861296224784 140 140 142
0.8309851411306592 0.11207182126028048 -0.38711553449063724 179 176 172
0.8313612353398121 0.06285383583803224 -0.3862070265931808 178 181 180
0.8300873551662494 0.05283413881509586 -0.38292618291333536 117 119 120
0.8825406811113944 0.02451652234715606 -0.3802198138679005 167 175 172
0.9375780858329076 0.02436309758242994 -0.37705583043272883 47 55 54
0.8311033193164574 0.005478475342122248 -0.38267369585310845 163 170 173
0.9708834797215982 -0.1413304652634782 -0.3653433300087151 20 23 22
0.9864989488563819 -0.14855786081644004 -0.3637390837163987 12 15 15
0.9914477262618434 -0.1496354898385425 -0.36364313423226174 28 30 29
0.8324237739210928 0.11133834957227025 -0.3842994858134023 152 146 148
0.8317143384838631 0.11001938424256864 -0.3835294035647619 186 186 186
0.831033734968213 0.09817513513640447 -0.38478047272414384 201 204 207
0.830968906305196 0.08546616121509591 -0.38365891125936347 184 187 188
0.8296207334727268 0.0788709325180934 -0.384289057531281 188 189 191
0.8328487046028995 0.0723329166626055 -0.38452840488995266 177 173 174
0.8315527552155152 0.0627816556816648 -0.3843215490537357 171 170 174
0.8313486760465884 0.04744632249802031 -0.38518540815613567 112 110 112
0.8314730230772223 0.032983871470055305 -0.384843007281572 174 180 180
0.8315044245919652 0.02537988307802523 -0.3849449003120486 176 176 178
0.8314778508022392 0.020203773578967296 -0.38512578413178594 178 179 183
0.8324000748422024 0.008731807129728774 -0.384379046473902 101 95 99
0.8309076300973358 0.0037523845580720444 -0.38440610615461707 143 143 145
0.8298624517935551 0.0003240360725364321 -0.38461895301218263 166 172 172
0.9080837889904091 -0.004894445633228404 -0.38298720011447385 20 26 22
0.878642542887461 -0.011681135857073349 -0.38504903776383836 21 24 21
0.8785996884701858 -0.01161159797901871 -0.38478724707924367 19 22 18
0.8539252776165523 -0.01325005465134365 -0.38654030249407756 21 25 22
0.8306987774936778 -0.013966758672002297 -0.38440775141371414 121 122 126
0.83191567113896 -0.0210611088736752 -0.3839119126791376 161 164 165
0.8328201614567703 -0.022915711213112363 -0.38343525626544134 107 106 108
0.8328201614567703 -0.022915711213112363 -0.38343525626544134 107 106 108
0.8302178177591211 -0.029282456966981375 -0.38364252282831507 132 132 133
0.972810654223638 -0.04264827917174192 -0.3835537802137212 31 33 39
0.9474701382540822 -0.0428346439027764 -0.3833279944895155 25 31 33
0.833029048040616 -0.03526589477468344 -0.3831035475351685 110 109 107
0.833029048040616 -0.03526589477468344 -0.3831035475351685 110 109 107
0.9366148698741004 -0.05944126953614288 -0.3837542392025405 19 25 22
0.9089629895982803 -0.06810428696822592 -0.3816211836555116 18 22 17
0.830566482059462 0.09518775036291696 -0.3860938355072076 186 186 187
0.830566482059462 0.09518775036291696 -0.3860938355072076 186 186 187
0.8313303265809874 0.018389659465228105 -0.3846986840820649 184 186 186
0.8306348396843578 0.0099996588689282 -0.38483338385688426 142 141 143
0.8777677993329098 -0.005678908964716758 -0.38159674115917347 160 166 164
0.8329175432901201 -0.013846375834950459 -0.3837612112705123 128 128 130
0.8825515303560149 0.08154483717052395 -0.3831305859243422 34 34 36
0.8313431974045739 0.09721765000698904 -0.3872360213116356 128 125 120
0.8327718098606701 0.0905721683329301 -0.3857686900520041 189 189 191
0.830664628608663 0.08847730501673166 -0.3862165551648322 181 184 185
0.8523591621289693 0.08724798356067384 -0.3819507901538565 25 29 28
0.8323165048614519 0.08441730698375141 -0.386600151625826 181 177 178
0.8296180267597869 0.08113057695522792 -0.38755319071684996 185 188 189
0.8326391145773986 0.06684355473090631 -0.3847717623455078 186 185 187
0.8306602146843751 0.05374457747320647 -0.386478786179406 121 124 125
0.939656389478881 0.05059724980894557 -0.3825853164210899 32 38 36
0.8309377657425878 0.0416624661206942 -0.3849791540587796 175 177 181
0.8307215904296006 0.02464929121610896 -0.38416694853996003 115 116 117
0.8307219058983284 0.024665349154767372 -0.3840319250604774 121 123 124
0.8321425442354372 0.006037998595633474 -0.3842206502212241 128 127 131
0.8313200427199547 0.005501600643077368 -0.383619437205616 174 176 178
0.830797547176208 -0.012467538635362138 -0.38371361072501875 108 104 108
0.8347468239439648 -0.02336354319440078 -0.384295427518682 166 166 166
0.8312209696132877 -0.03774037385218542 -0.3833610009566238 109 109 105
0.830237108348027 0.05977946173457932 -0.3863929763594265 141 141 144
0.8337000042769732 0.010499620522483816 -0.3839196242096624 172 175 176
0.8298374659084271 -0.003012282258740566 -0.3844116531202612 127 127 129
0.8308860148915664 -0.009594901491760644 -0.3837620618739045 108 108 107
0.8299569624727917 -0.01216084123213409 -0.3844089064302404 179 182 183
0.8324075527698147 -0.024957554291862617 -0.38370909965137295 161 165 166
0.831358665785 -0.024970008046547858 -0.3836260678466244 169 175 175
0.8596301224093126 0.012183700031945462 -0.3843080515357904 167 173 173
0.8331458731221896 0.012990453860899134 -0.3846221731824003 167 164 165
0.8313582395123927 -0.02497517387397759 -0.3836431038609501 160 160 159
0.8942279868125343 0.035886805977867725 -0.38219307527357543 167 178 178
0.9144465942857932 -0.005790554311238508 -0.3816542179054314 159 168 165
0.9525638851613416 -0.032604467051678084 -0.3815693443259911 35 38 46
0.9710025537551463 -0.04207065599291179 -0.3815069468490365 29 35 36
0.9095214362777045 -0.06871079305970412 -0.3837988851842242 21 21 21
0.8744123048420572 -0.0644500900724768 -0.3813460596899112 25 25 21
0.917537300966803 -0.0758994764641029 -0.38747163596549117 20 23 26
0.8307694943454221 0.13832857302122742 -0.3871177908357595 193 189 190
0.831744051901291 0.11607904808842207 -0.38687062735886485 191 189 191
0.9065597993068275 0.019248501064669955 -0.37495469209444265 21 24 23
0.8324155240622336 -0.024966557699342324 -0.38371177397044315 161 165 166
0.8943298458804816 -0.08102139556657192 -0.37989456841221136 23 23 19
0.8290450576358532 0.07645134969065326 -0.38800566295359756 187 187 187
0.8315365150240898 0.03653698936658041 -0.38541792295926364 117 114 111
0.8320167542952398 0.024752161665895018 -0.3850358956274593 116 112 115
0.8320131394855762 0.02477056112034637 -0.3850689934911423 116 112 115
0.8330549539391153 -0.01303185900746022 -0.38382904073567586 175 174 178
0.8315392570732097 0.06285298807253055 -0.3846208481136665 171 170 174
0.8294088525661836 0.051818573088662154 -0.3842202420203717 181 184 185
0.9945226970439732 0.02663257325568711 -0.37779971984353017 56 67 66
0.8305482102026396 -0.036927285064811126 -0.3829865698753196 161 171 173
0.8293146512830064 0.12044170951291198 -0.3843637243811168 189 188 188
0.8311233521764023 0.06365501444177979 -0.38399485891178214 205 204 208
0.8314286340563093 0.04653774298459739 -0.3854793887077324 148 147 149
0.9773010735377105 0.051507468689085456 -0.38257199596107533 54 62 61
0.940339892987896 0.02509685598391227 -0.3823384071361171 53 61 61
0.8315024066420372 0.08670830149512065 -0.3830978336664464 141 137 138
0.8310925072413238 0.08116865079818016 -0.3846325476155243 177 177 173
0.8312090384351652 0.03432889423960929 -0.3836395624874919 178 178 180
0.8319600929549444 0.024725887004166662 -0.38467921261877297 116 112 115
0.8309230844505174 0.013415725875361249 -0.3844041088106132 112 111 114
0.8309230844505174 0.013415725875361249 -0.3844041088106132 112 111 114
0.8339762813142488 0.010678997062344948 -0.3843294863356583 173 176 177
0.8312973034898297 0.010406715064314877 -0.3833942118400693 174 176 182
0.832168238883151 0.0037178735123345667 -0.3844770006067127 123 120 119
0.8321503805524608 -0.009718636793907609 -0.3840529721027829 115 115 117
0.8621789627848577 -0.024299395858285742 -0.3817458057851331 18 21 20
0.8330792404135533 -0.0338418836571907 -0.38319018732360577 121 117 120
0.8326271323250032 0.02280592444304212 -0.3837859471581597 169 170 170
0.8318204793706533 0.002412680355146745 -0.3828654094789401 108 110 118
0.8318204793706533 0.002412680355146745 -0.3828654094789401 108 110 118
0.8312111792285791 -0.008908778858479197 -0.38201386810216337 165 165 166
0.8321514835653834 0.07539427098327643 -0.3904076971196754 130 129 129
0.831248645452414 0.03766190601359833 -0.3861729200718285 195 195 197
0.8323472573554436 0.005082132259990097 -0.3841447112898146 132 129 126
0.8307925342867065 -0.03461523588999321 -0.383986828303143 174 180 179
0.8307613641817104 -0.03463868162045023 -0.38360882687687303 156 162 164
0.8325700649289492 0.08992518788427067 -0.38453685846723845 198 197 199
0.8311357792485283 0.06626949388174824 -0.3849678854268399 184 184 183
0.8787738024620232 0.05146880032260689 -0.3859561227526661 25 25 27
0.830770408779374 -0.025748071556893484 -0.3828424066815461 112 114 111
0.8310508572875253 -0.030309376838085142 -0.38299045585189917 165 171 169
0.8318250605239362 0.08015177115705169 -0.38544077091482926 135 130 131
0.8296108468488523 0.07304361284595724 -0.3869939812024876 178 180 177
0.8317879601182164 0.06891829128869803 -0.3883723569639384 171 170 171
0.8309403033268458 0.06254014545619044 -0.3874043851447003 135 135 134
0.885098893597141 -0.06745524251166504 -0.3814799137231871 21 24 23
0.8325074595076187 0.042550187910745885 -0.3856623948541503 145 144 149
0.8306387848867469 0.13814882464374093 -0.38677062831740705 203 203 207
0.8311588885663365 0.12942245210223158 -0.38689205438573326 205 205 209
0.8320546088011895 0.10119542048213367 -0.38614189058535886 200 203 206
0.8328932958651141 0.08062011388297513 -0.38459847630587435 200 200 202
0.9517338522611033 -0.029678474684335963 -0.3789721148714669 200 200 202
0.829828639633945 0.07235688202186238 -0.38463074315660367 187 187 189
0.9876659358512041 -0.0024037279865142197 -0.3783612447187855 68 74 74
0.8322344175957513 0.07354856460860662 -0.38521097502968976 137 134 130
0.8306300126762938 0.04580611487666434 -0.38429469614981615 157 160 161
0.8292204945440849 0.0213856688816086 -0.3838745494484126 170 174 173
0.8307256226969474 0.008798238610616387 -0.3841184439072247 109 114 116
0.8307243823597794 0.0013425843949408595 -0.3838656150089725 117 123 125
0.9439529972846785 -0.006190798795661396 -0.37769460740126276 42 49 49
0.9918580018995095 -0.012726186795850612 -0.3743093831870024 68 77 77
0.9502496779373132 -0.032515352041415105 -0.37667701967189365 36 40 41
0.9392971822687863 0.050772721363623916 -0.3813468991796161 54 60 60
0.8851374738443287 0.03049662412323727 -0.37420854107971624 122 111 102
0.9382066120328596 0.024983621102493445 -0.3783310634648322 36 40 36
0.9450685851698051 -0.004483033627731994 -0.3773385727959321 34 42 39
0.9655088607312156 -0.004752041610113386 -0.3727737089248552 56 59 62
0.9123130373927273 -0.039541182586149116 -0.39020388710769444 176 175 176
0.8758133808897811 -0.04752537925453073 -0.3863692679245638 26 23 25
0.8306850454491043 0.12840089237028537 -0.3841885376126584 205 205 209
0.8307968524623456 0.072114349708154 -0.38459463276774075 203 203 205
0.9871036162146696 -0.06004291306803348 -0.3803828182785431 60 48 61
0.9627912280760285 0.03201318938703031 -0.37891142582769816 185 196 192
0.986430609270552 0.028011295200340052 -0.3776577732825606 62 73 69
0.9442557710785878 -0.0056317707940082284 -0.3782858715030762 36 44 43
0.8835112407528863 -0.00587509136358764 -0.38180049046620906 23 29 27
0.981532832759802 -0.06257157269821086 -0.3763197492953413 40 42 52
0.9131851966734738 0.08664289267982414 -0.379573363865868 26 32 30
0.9431253315234868 0.055273550229853606 -0.377412584072888 42 51 50
0.9526023671101366 0.028843678564791007 -0.37471933906805033 51 56 58
0.93824274236773 -0.04166478311267378 -0.37665972110571944 169 175 175
0.9043732239916596 0.03661770122343588 -0.382590100581468 24 30 28
0.831897420998205 0.08418082753035079 -0.38817887674153984 181 181 180
0.8319421158943882 0.06364264230992082 -0.3860698681434953 121 120 116
0.8319421158943882 0.06364264230992082 -0.3860698681434953 121 120 116
0.829448080529078 0.052511523604720924 -0.3863926245578556 177 179 178
0.8593173579545633 0.012225801300370067 -0.38258669146623736 162 170 169
0.8303111908690487 -0.0025913156533908088 -0.3829752110510499 181 181 185
0.8530618518836743 -0.012323162673613287 -0.38335759785837203 28 28 30
0.8308590606175131 -0.015164462155738053 -0.3839513974386717 133 132 135
0.8308590606175131 -0.015164462155738053 -0.3839513974386717 133 132 135
0.9413524473586307 -0.042145027575002714 -0.3703759870947393 29 35 33
0.9413524473586307 -0.042145027575002714 -0.3703759870947393 29 35 33
0.8827537247075513 -0.07252791923544058 -0.3777415936253635 168 168 164
0.8296800207222006 0.07266599272626559 -0.385046607682184 191 191 193
0.8808198609287754 0.05376865180732761 -0.3747424589756732 23 29 27
0.761692612132955 0.09856122806556564 -0.38766565100417116 21 19 18
0.7696475996534388 0.09513065581643143 -0.39188876231013187 39 40 36
0.7614222683892102 0.0862375686339928 -0.38836903320069543 46 47 43
0.7628716399736356 0.06823064123415726 -0.38979963390582667 52 59 53
0.8306733309997509 0.0661491377358653 -0.381127191108917 134 133 137
0.7667244688731377 0.10771877884289977 -0.3904040659855634 18 17 17
0.7663174799857237 0.06952640445999508 -0.3900643331563915 25 25 21
0.7675752523888076 0.0659109365081978 -0.3894317066784668 55 58 53
0.7716168917146454 0.06481709539318242 -0.38881773580008866 51 51 51
0.7656052789161308 0.07986627412763088 -0.3914514128554175 31 31 27
0.7639667800983865 0.05593405999347128 -0.3894458276414803 62 62 62
0.7639667800983865 0.05593405999347128 -0.3894458276414803 62 62 62
0.7668003551233943 0.04485040101008949 -0.38935294917505775 25 25 25
0.7696062002038553 0.04576160257047154 -0.3878701770472307 48 43 39
0.7645672290635878 0.04160341753485225 -0.3883982058488607 68 67 67
0.7645672290635878 0.04160341753485225 -0.3883982058488607 68 67 67
0.7661168034663406 0.04160268189169305 -0.3893839349036862 30 27 24
0.7646589794451507 0.04006476577075898 -0.38988529100512576 41 38 33
0.7643876902228077 0.03505402685367349 -0.38951234820241937 33 30 27
0.7678163295313942 0.03661212492056088 -0.3886954490290846 24 23 23
0.7693691234409517 0.028561215448184064 -0.3884613930107039 29 24 22
0.8290885341548829 0.058167478452594436 -0.379997053428281 143 146 149
0.8290084632390583 0.05815054660218634 -0.3795738356858046 154 160 164
0.7744746993756736 0.027376693524203882 -0.38839118527197736 62 63 59
0.7674658364616095 0.01949545543746063 -0.3884412821302975 26 26 23
0.828570146864699 0.05188487810017518 -0.3808885145877679 176 176 177
0.8321428631624135 0.04967450936435597 -0.38150424626501706 172 174 172
0.8312895613160957 0.044176044380292004 -0.38177559171691233 133 130 129
0.8310129310861226 0.03979960343706726 -0.38121266822460975 165 165 165
0.8299251782287631 0.03641814915214229 -0.37981624192583824 176 182 189
0.8773030814711198 0.0556375801465593 -0.3815399589484413 173 176 175
0.8821799159657884 0.019528619539997034 -0.3792758690981571 24 27 28
0.7717929938818919 0.11967126251348618 -0.38176503723269467 51 51 47
0.7645772593983929 0.11770530450903101 -0.39224436270926105 53 54 51
0.7681438043814965 0.11448262529882859 -0.3910681118937317 57 58 54
0.7736386573246948 0.09967410097251846 -0.3872930782399161 61 62 58
0.7611474220874236 0.08904903435929004 -0.38738317783357157 35 39 32
0.7618281400816718 0.08031930301034658 -0.39025508018250415 44 44 43
0.7618281400816718 0.08031930301034658 -0.39025508018250415 44 44 43
0.762746679309686 0.07928267874203927 -0.39146646324968465 45 46 42
0.8284827029230943 0.09514798054224403 -0.3805041521343404 187 190 193
0.7755367167589028 0.07452608092182837 -0.3895609705591432 53 52 52
0.829575703641853 0.0876801541232469 -0.3787995148855854 125 125 128
0.7748184686028919 0.06520150227720348 -0.38831658196277496 20 20 16
0.7682638084950331 0.059962933857170844 -0.3917341841351404 58 57 55
0.7687583465804754 0.05672784848547099 -0.38924282175043523 61 61 59
0.7694599266866825 0.05238730832777375 -0.3913893466956986 64 65 61
0.8319147566708104 0.0710117554148761 -0.37953361578220407 183 183 183
0.7674688136919512 0.040586504883998106 -0.3898392751588386 47 48 44
0.7717060933091017 0.036599364555914324 -0.39208356321269416 21 19 16
0.8685637061693161 0.06514586571810035 -0.37582903732201833 176 184 185
0.956596649607484 0.06349915752949392 -0.3685314117794367 51 59 57
0.8309915172605772 0.024139977981618405 -0.3804602367285055 113 113 114
0.8303825070293319 0.005281195692933254 -0.38034171636832065 176 182 183
0.9878770629735049 0.03778077077670339 -0.3645775493421385 77 85 84
0.8296570325233831 -0.01681673238290813 -0.3775400688266666 167 174 175
0.8299884906346021 -0.03148529147058018 -0.38196329213452096 169 173 175
0.9724369307178266 -0.011127816834428417 -0.3676801460277485 51 56 58
0.8761334883828524 -0.03637270929098344 -0.37784342938873194 23 29 27
0.9569354089523793 -0.024771326566284214 -0.37136635519200717 43 45 51
0.9133607733232236 -0.0973362748795947 -0.37389151708377893 28 34 34
0.9372748272919603 -0.09758535303554398 -0.3736643973753366 31 37 39
0.828338339308837 0.1089432799804394 -0.37818224775008774 156 155 158
0.7682504188250275 0.10776030986490664 -0.38196107195675205 34 34 33
0.7660889907369772 0.08918906843095854 -0.3899246732055954 54 52 49
0.7622172442923857 0.08271028362568883 -0.39124813282445753 52 53 49
0.8302815253668799 0.10338133256509716 -0.3800124989454318 190 193 195
0.7671897995989843 0.06108915854027667 -0.3886193947248061 50 51 47
0.9218315438965635 0.06571101517872383 -0.37499368899228835 187 191 190
0.8282857110848533 0.03610557148652554 -0.3804036013113399 180 183 183
0.9071991063298193 0.0554254347074199 -0.3770509260312562 33 39 39
0.8310520116735475 0.020032792089534842 -0.38116706873983747 152 150 149
0.8323081333498938 0.020283089447056698 -0.3813984859282346 177 174 172
0.892072713194915 0.03520807444642543 -0.37502572721356886 171 184 183
0.9905516579635921 0.040976503458039035 -0.3679210321140815 67 77 77
0.9829707780419126 0.035510811307909694 -0.3706688007467187 63 71 72
0.9674236378518787 -0.006279881071277176 -0.37015183182462186 54 62 63
0.8307425461525754 0.10947949365868376 -0.37905881363647115 144 140 142
0.8281127437114864 0.07977180537339999 -0.3797206725334932 188 188 188
1.001485118479625 0.05017845327734113 -0.37547010598942177 66 70 71
0.9312306638572798 0.012652446281314771 -0.375339175758942 178 184 183
0.8274434740245122 0.09283942053721854 -0.3792039168706285 189 192 193
0.8322507219443714 0.07127480220217186 -0.38093506574647223 186 188 187
0.8817611841905177 0.019470571306471753 -0.377733947237971 23 28 25
0.9386667033802112 -0.03669294478375629 -0.3753869774694907 33 41 40
0.8304373855226331 0.09474267217931547 -0.3781043014361206 190 189 190
0.8281089374901061 0.09259581181188806 -0.37876420142072587 184 186 187
0.8753804231910767 0.08570228696296367 -0.37658597612097244 31 34 33
0.9677927716279376 0.05049686989971575 -0.370969379289452 181 188 187
0.9060315725869619 -0.011242096664823795 -0.3739379653732991 167 173 173
0.8332076217842831 -0.033376334316642484 -0.37954949442150837 161 167 165
0.943380267120915 -0.04197246894620526 -0.3724033171841122 30 33 36
0.9323626598399027 -0.05801339832920691 -0.37268998021900734 27 32 34
0.881558625148434 -0.07247197138155684 -0.3758049858580863 169 170 166
0.9837168508650526 -0.1514540054767806 -0.37417679405462795 14 18 15
0.8531433402474643 0.05790666525968157 -0.37500783777807783 31 34 33
0.8293108046432189 0.005366902463443982 -0.3763950994348369 176 182 183
0.9061180806024092 -0.03643874998504373 -0.373907724846128 166 172 170
0.8402015234265968 0.06613212425374643 -0.37782375606676527 187 190 191
0.8807111874325838 -0.00579803429209883 -0.3726624903855525 35 38 37
0.9488641192803394 -0.015924391152645774 -0.3724800489865266 80 88 90
0.9355523683159794 -0.03569530474787023 -0.36933176652184546 27 30 29
0.9105691300506439 -0.035649889953690596 -0.3691522364742843 28 31 30
0.8754165717172633 -0.03627662110236869 -0.3748496303528082 25 28 26
0.9241818587596962 -0.05319134858809101 -0.37149366013790874 166 169 169
0.9119030270173324 -0.09453028584418653 -0.36762922126072717 22 28 28
0.9369594714340339 -0.04168642988276626 -0.371368903203434 185 188 189
0.9432836763794791 -0.06718468325485612 -0.37207879245233555 27 35 34
1.0934653454064014 0.1008415800653769 -0.36519854281451386 99 93 96
1.0768657463216933 0.10014719779015034 -0.36622968820838164 91 90 92
1.0884126266639012 0.0956853107751556 -0.364433125942889 108 107 107
1.0855169776618732 0.09284256627981875 -0.3653001043885192 107 106 106
1.079009265991799 0.08856576246532101 -0.36410457192849466 169 174 174
1.089932319593549 0.08805056802028337 -0.3626857939874325 163 166 165
1.083471454306989 0.08686539690865282 -0.3644551212820028 169 169 169
1.087886715590709 0.08669933869267749 -0.36372923357192594 91 91 93
1.0748499559326885 0.08638221144297552 -0.36619455954486735 160 165 166
1.0834714354258599 0.08393661974636367 -0.36439060757250014 166 169 169
0.8807263898252289 0.07951533984703654 -0.374170624923405 29 32 35
1.089648512142584 0.07966341445354556 -0.36407475067563594 107 106 107
1.089648512142584 0.07966341445354556 -0.36407475067563594 107 106 107
1.0900439167172264 0.07948057032354185 -0.3670617450258992 172 177 177
1.0724422285556034 0.07875239444415645 -0.36601319611974625 98 99 95
1.0831662816888863 0.07487062475418535 -0.3616215064810111 107 107 111
1.0866593507777134 0.07498098767955802 -0.3628606200642903 165 170 170
1.0737991698191447 0.07400885983042993 -0.3649630819898227 157 165 164
1.08031025027731 0.07171113127348991 -0.3656813239426791 109 109 112
1.0859121143159252 0.06951309119704935 -0.3641622199332521 112 112 116
1.0803173117069689 0.0694740818407727 -0.3640885652750777 170 175 177
1.0838322257313229 0.06972651792127976 -0.3659114299128371 166 169 170
1.0939216228748965 0.06756539422589124 -0.36474395658289305 164 166 164
1.0878609660962055 0.06702174742510748 -0.36611488165363465 128 129 131
1.0863125135256297 0.06297286383031125 -0.36146746266859514 158 163 162
1.0911678143553842 0.06331892421231143 -0.3644560343776516 111 114 114
1.0762435008588243 0.06231614165924337 -0.36660869580979694 149 153 152
1.087707596589091 0.06203966579793726 -0.3653818440851215 109 109 112
1.087707596589091 0.06203966579793726 -0.3653818440851215 109 109 112
1.0836061251679372 0.06149308028874308 -0.3650549288193797 153 159 159
1.0920912241639942 0.058543669604694 -0.3645167106570198 109 108 110
1.0920912241639942 0.058543669604694 -0.3645167106570198 109 108 110
1.0865254595315519 0.056729343678435545 -0.3630364426684821 135 138 139
1.081172448906002 0.05513336864566591 -0.3649895195752959 111 112 112
1.0931798511972022 0.054236354003861814 -0.36316125772485475 163 166 160
1.086756080134927 0.053053128456787314 -0.36547056001846373 163 167 167
0.8799244582533698 0.05424809852861454 -0.37046583636545616 25 31 31
1.0902144424325997 0.051166022143861324 -0.36408363385897646 165 165 167
1.0877456857474785 0.049218765151138905 -0.3638349690935336 96 95 100
1.0826542159415475 0.04924680304216392 -0.3647351939025251 157 163 161
1.0774434310145315 0.04818362908461207 -0.3649337916844632 98 97 99
1.0860602827381232 0.047695205244877296 -0.3634270099750005 159 159 162
0.9355270166108679 0.04940419724062106 -0.3698003392584286 29 32 31
0.9355270166108679 0.04940419724062106 -0.3698003392584286 29 32 31
1.069919884047635 0.04534382688355854 -0.36750552497633227 148 156 155
1.077110486821167 0.044099847448618695 -0.36444100685275554 87 87 91
1.08278321712103 0.043829907409159326 -0.3665162460847683 100 104 107
1.077500529176095 0.042625867752203284 -0.3625242948763543 156 162 162
1.0839276841866674 0.04109639686971278 -0.36577188070754263 152 160 159
1.08750566710612 0.03931685067589523 -0.3648559355231809 156 162 162
1.081181929035672 0.038482308475844856 -0.366534760305415 163 170 168
1.0868110407163418 0.033379926771198394 -0.36360603867483676 163 166 169
1.0889989701348917 0.033239333771777534 -0.3641210435620438 101 102 106
1.0889989701348917 0.033239333771777534 -0.3641210435620438 101 102 106
1.0768383858476356 0.03033422820012394 -0.36292628060509285 99 99 101
1.0799204035761074 0.028089743516444082 -0.3644879943130094 166 169 167
1.0799204035761074 0.028089743516444082 -0.3644879943130094 166 169 167
1.0767876322220788 0.02205079178520346 -0.3698120188748984 104 107 110
1.07962341352659 0.02130962327522411 -0.3639213688313248 148 154 154
1.0736100239403832 0.019986880162493417 -0.36957974913915614 146 152 152
1.070383729328003 0.01850506308667314 -0.36664657069575884 147 153 153
1.0900487559003362 0.013836709982139676 -0.3653684087942842 153 153 154
1.0755194957842302 0.014327473014018016 -0.36695896852168336 84 87 88
1.0755194957842302 0.014327473014018016 -0.36695896852168336 84 87 88
1.0838440589607266 0.012894104490675263 -0.36479277551350486 102 101 104
1.0852471531280603 0.009212383989244058 -0.3639044348525175 162 165 165
1.07979154449673 0.008672759031201547 -0.3659533639168984 102 101 103
1.0790783937860655 0.007718649623045097 -0.36825946549529875 149 152 153
1.0867838959593255 0.007039520882878825 -0.3679819371717866 92 90 92
1.0874721217460412 0.004199269439569189 -0.36573779439523874 161 165 164
1.0775390229623472 0.0040158597201713706 -0.36628470718672035 146 152 150
1.0782911848312116 0.0031491582015151097 -0.36416319263594554 89 85 88
1.0816275112871918 0.0019695318191341885 -0.3661552726109682 160 162 161
1.0790763345705963 0.0012578065761103781 -0.36503569495121796 93 89 92
1.0790763345705963 0.0012578065761103781 -0.36503569495121796 93 89 92
1.0863967852506258 -0.0008188741347210743 -0.3667154728479061 107 106 109
0.9834898603924718 0.0012511686196105527 -0.367895768672342 171 177 177
0.9665922526745566 -0.005114554237400459 -0.36838623324696307 30 36 34
0.911870011638504 -0.0113097697397734 -0.3728147689218237 32 35 37
0.9492847958066898 -0.029374746039280097 -0.3707168270920458 163 171 170
0.9557215458563163 -0.05477878499942273 -0.37259097335564634 24 30 28
0.9323577350000269 -0.060890476795631386 -0.3729658628080421 29 32 31
0.9174814654774025 -0.062388504647470706 -0.37451043488671404 32 31 33
0.9174814654774025 -0.062388504647470706 -0.37451043488671404 32 31 33
0.9373374965850438 -0.07255576961497794 -0.37270969504108603 29 29 32
0.8544113931172167 -0.06379693046004775 -0.37815354290970443 32 35 37
0.9382185135580268 -0.09829411019110865 -0.3761780038180677 32 32 33
0.9145029344750613 -0.098636311323825 -0.3783822354358842 29 32 31
