ply
format ascii 1.0
element vertex 602
property float x
property float y
property float z
property uchar red
property uchar green
property uchar blue
end_header
0.8311680927614298 0.13014315342526037 -0.39263324441610425 204 203 203
0.9395866587933723 -0.07333145422333631 -0.3792578385090773 26 32 32
0.9426610559646195 -0.07501047526515199 -0.3850400391076969 27 30 33
0.9059588522858039 0.10919972733017541 -0.3820124082005971 44 41 44
1.0991968916285926 0.10994357668909098 -0.3883574478643677 142 148 143
1.0952909340921348 0.08672913678696959 -0.38864518872063253 145 151 145
1.1010206986443523 0.06752149205073081 -0.3900827068115929 121 122 118
1.097016286882827 0.06646126757122225 -0.39241516545441035 105 104 104
1.1073146587017488 0.035775333713083744 -0.3911452637372998 127 133 131
1.0094625060319284 -0.004942942710217601 -0.37488411504555086 196 202 201
1.0748311528230443 0.07770502438695773 -0.38782371035800184 190 194 189
1.0833079979053064 0.060452434342274826 -0.39630497050587926 188 195 189
1.0926330268979645 0.05316274560308831 -0.3892355984101295 142 148 148
0.8890475361015862 0.03128749122706395 -0.3829294717655448 46 40 32
1.0947550804809265 0.038888650474236224 -0.3996424179989357 169 170 172
1.1058679689314175 0.021449482413715363 -0.39864213376566765 105 106 106
1.0899160690048746 -0.0015840979225633656 -0.3956933858233902 163 170 168
0.9807744185743094 0.025418043216678465 -0.38446855800259483 55 66 64
0.9819061836856341 -0.15659737629734902 -0.39125820282886303 19 19 19
0.831652037802227 0.07789776619743931 -0.3841009447806838 161 157 158
0.8298390838540203 0.13553235769645117 -0.3884162350792467 200 205 207
0.832135153941348 0.06265727425343831 -0.38513871008795336 177 169 171
0.8316252584882781 0.04341299804354029 -0.38439030098039373 187 186 188
0.9055160583280003 0.03449129616506996 -0.381155934222814 29 30 26
0.8319557716484136 0.08405986327851335 -0.38693278942348924 147 146 153
0.8852115588932973 -0.006013624586958322 -0.3843695268097735 27 33 31
0.8335993795656449 -0.027921247884265407 -0.3850811906497286 116 118 119
0.8400054691958599 -0.05506026043960916 -0.3808904592832836 166 169 168
0.8593317704713405 -0.048982306918996125 -0.38641461126297144 27 27 27
1.0865423709647282 0.011659037401094882 -0.3856925476407705 144 152 151
1.0865423709647282 0.011659037401094882 -0.3856925476407705 144 152 151
1.087958518582639 -0.031227213836576957 -0.3948261627499571 125 131 129
1.000647407563227 -0.16023589864479004 -0.3911804230860865 35 38 39
0.9992382762556481 -0.1615351766331665 -0.3873264359967177 32 32 32
0.992476815313678 0.07186006767232934 -0.3854282682694141 65 70 71
1.0917548790354248 0.0365441103526432 -0.3946427301677086 106 109 110
1.1149283832262677 0.03680913145488115 -0.39585490510182453 106 108 108
1.0905442480978165 -0.010700954418227908 -0.3959306560530486 149 155 155
1.0933551543445206 0.051716611343093896 -0.3966187942566902 129 137 136
1.0981954563589835 0.019827972226061214 -0.39364175379690053 139 145 145
1.0981954563589835 0.019827972226061214 -0.39364175379690053 139 145 145
0.9764899709539249 0.08397451204450077 -0.3884956936646928 42 47 52
0.8647749850486997 0.0678263394646366 -0.3871025616044473 185 192 193
0.8344861412659039 0.01331892385333533 -0.38587455332318243 180 180 186
0.8330247745572537 0.06530588779599428 -0.38406366491265076 190 190 186
0.8307304785984486 -0.020359128547407863 -0.3825154011249428 132 135 136
1.0810225553746313 0.031165545793163052 -0.38824658717200106 145 147 147
0.9209798568307053 -0.001210293563448502 -0.3832769811561548 29 35 35
0.8328199576097739 0.043453016115266536 -0.38467097886162294 192 192 194
1.0071175205303105 -0.15425658554215388 -0.38276337550733175 31 32 28
1.0812945192680425 0.10280193847217754 -0.3839260833106207 151 154 153
0.8754142355046107 0.0784120991923983 -0.38488602928966525 33 32 32
0.8754142355046107 0.0784120991923983 -0.38488602928966525 33 32 32
0.8335494999789976 0.01504729420887641 -0.38513765406542627 131 131 135
1.0787035990722567 0.06298655123027605 -0.3878481240381962 118 118 120
0.9717201469040293 -0.06792982728087146 -0.3802669980919668 32 38 38
1.0801112240615143 0.1129346648376261 -0.38452033642709216 118 118 120
1.0844031386954731 0.05439683946448305 -0.3925841718596099 153 159 159
0.9260328680865049 -0.05495082995900775 -0.3806899517681694 191 194 195
0.8337211353932069 0.06720713355187084 -0.38623943957005613 177 180 181
0.8337539276144708 0.06341271075495435 -0.38619975787039634 181 183 182
0.9548493059980878 0.04346193117373579 -0.381042032087255 179 185 185
0.958318193772155 0.03733278274790441 -0.38157562172670845 53 61 62
0.8324809788121139 0.037809708688240004 -0.38463126712122436 117 117 117
0.8310998703983876 -0.03714950828447168 -0.38446846756549036 169 176 179
0.8771514179028902 0.11227708870407327 -0.3855526869703062 28 32 32
0.9419045162071582 0.0886649317468333 -0.3844401673644463 38 44 44
0.9419045162071582 0.0886649317468333 -0.3844401673644463 38 44 44
0.9105145142490474 0.019561454413781116 -0.38453399098241964 28 31 32
0.9099681051755563 0.08198476771238575 -0.3840428953259898 30 36 36
0.8294396964881855 0.06904960045802377 -0.38425724468485883 187 190 191
0.9777163446911843 0.08774152805719217 -0.37998065475316284 33 41 38
0.8310251967172778 0.08108388634459016 -0.38522961395401195 139 140 144
0.9263588717880804 -0.0016529406085842306 -0.3815298626639092 29 28 35
0.972287324562262 -0.005331562412335183 -0.3816793300931847 30 36 34
0.9670959621118548 -0.016108111294538954 -0.38072344102642514 28 34 36
0.989033393378259 -0.04630338987995892 -0.37976234050135793 34 39 44
0.8790577261115394 0.019421897227985638 -0.3847193848459034 171 179 178
0.898809529543936 0.006903112877775463 -0.38725067459573354 26 32 30
0.9100275145065531 -0.005539927540946477 -0.3847232442895084 30 33 32
1.1056471836285044 0.0953452242024367 -0.3875721433009446 101 106 102
1.0828045088423015 0.0897878616137302 -0.38815009115474886 133 141 141
1.0864086096865406 0.013426077308877531 -0.3832547083869829 94 97 100
0.9095916287788737 -0.03714302596253924 -0.3832538081309371 179 182 182
0.9616254249460386 -0.05590205943933565 -0.38694578137956387 27 33 31
1.10116767789709 0.09381493008706127 -0.3970242312057456 152 160 159
1.1082052378735594 0.08529666807974669 -0.3959563835167445 136 144 141
1.1060207619432778 0.07805336321505443 -0.39304230417408703 138 144 144
1.0820285929314157 0.07596157447440934 -0.3949094144876025 191 195 190
1.084191596196128 0.04930754850213579 -0.3924625388572499 161 170 169
1.0989585365092136 0.04534847767243244 -0.39392020597801164 100 106 105
1.1073946136854638 0.040701045841657665 -0.39657013801763114 135 141 140
1.0944388784653776 0.02023571474443348 -0.39796770666627357 106 110 108
1.1047587619352581 0.006771625826700696 -0.3979581758575768 84 87 88
0.8987531491459633 0.006828483383217559 -0.3872026074188863 20 26 24
1.109082549608543 0.06679111697776033 -0.39579581388794255 123 131 130
1.087644293490053 0.0656241860275561 -0.39484244635359844 160 166 164
0.830466673544394 -0.011833880881701552 -0.38607904001943943 187 193 195
0.8326714488969008 0.03766492916710325 -0.3847324281790415 117 117 117
0.8349901127463603 0.010596357495981815 -0.38698144759337694 172 180 181
0.9466002441440142 0.0194292012666628 -0.3806167637949899 44 52 53
1.090859666955035 0.12824891329352855 -0.3756115859054614 158 159 155
0.8322006272023258 0.004175529776284439 -0.38417608645973134 144 140 145
1.092663604329099 -0.02396925444592999 -0.3972318096752642 75 72 77
1.0884198018741522 -0.038823072026162087 -0.39604322005872483 74 77 79
0.9548841578712417 -0.03293046119335184 -0.3843924393836375 37 36 42
0.9011374731509113 -0.08244178809026229 -0.3895062104463217 164 167 165
0.8750782630651139 0.015521954144726251 -0.3840838415192188 32 33 34
0.8750782630651139 0.015521954144726251 -0.3840838415192188 32 33 34
0.833148984621619 -0.014415008849120534 -0.3853060603173619 190 190 192
0.9009974193411701 -0.08156558059012872 -0.38931128736843046 178 178 178
1.090217013349899 0.06780662569976383 -0.38879188493459216 99 101 99
1.0861808908175754 0.05291888766013744 -0.38412906052668727 103 103 102
1.0912814445541297 0.04669721613488327 -0.3839959760322447 133 142 142
1.0926741570323169 0.03523070280201088 -0.38567461149006704 104 105 108
1.0840920495314115 0.018230931182187618 -0.38344297152161844 154 162 159
0.9105345964864384 -0.04283156259229428 -0.3836057131714731 32 31 30
1.0980244826378478 0.08232270397902054 -0.3878796803096934 112 115 114
1.0827964951081805 0.02733216677271306 -0.38196432892604076 145 151 151
0.9939337650029328 -0.1587773002536417 -0.38387224568221323 23 24 24
1.1041915284545203 0.11462509790088611 -0.38977331594252834 132 140 139
1.0780683802529767 0.0958787363637939 -0.39023085365770954 191 195 190
1.0983255964696663 0.07685981650749522 -0.38782207850979183 112 117 118
1.1072535989484653 0.0608388101428354 -0.38861141485511425 127 131 126
0.8894021938872131 0.0455901658467913 -0.38354787693875114 36 36 38
1.113190994471885 0.05814307523701717 -0.3945294476819692 125 133 131
0.8330702495277377 -0.02310940080971255 -0.38800494673374 153 152 154
0.8310258861529682 0.0811266990403717 -0.38559220973303765 139 140 144
0.8322087914813892 0.039034846129792765 -0.38548817943553154 182 184 187
0.830058961197548 0.024328898963350252 -0.3861711867782558 185 188 191
0.9158365433602444 0.050394167646103466 -0.3822078180452585 29 35 37
0.9806626573267552 -0.1507521070071004 -0.38247601121237745 30 31 31
0.9510510203785635 0.08417909772137569 -0.3890382109370557 36 42 44
1.0888393794864184 0.08072819840138802 -0.38086118657313534 168 172 172
1.0946187734696762 0.00936020770697105 -0.3978897369281441 111 114 113
1.0974061387273815 -0.004319208318725237 -0.40052757516724347 114 114 110
1.0995014066161657 -0.021877306736358026 -0.39681245224945527 100 103 102
1.0995014066161657 -0.021877306736358026 -0.39681245224945527 100 103 102
1.1122691272007708 0.08388301064031377 -0.4002448309815098 138 147 143
0.9825945989040448 0.0203717316008597 -0.38746868680083124 195 203 202
0.857698716527662 -0.0009111732877253759 -0.38435288643650833 35 38 41
1.0986170419361552 -0.01045599643483803 -0.39845812184043194 153 161 160
1.1104554464861867 -0.01238326341587932 -0.39864158119821363 132 138 138
1.002336982740775 -0.15677048836640234 -0.3998255921168037 26 26 26
0.8848665353379092 -0.011841053114603543 -0.3845584467026923 187 190 191
0.9814877634270601 -0.06461944478744443 -0.379553295505286 41 45 51
0.9523229157393047 0.059223463416506875 -0.39079617590770116 42 49 50
0.8543154084959456 0.02740152973236972 -0.3853117881864053 37 40 41
0.9721764354477739 0.03457301370390695 -0.39246377322578 190 200 203
1.1118055275162548 0.00026262078448441696 -0.40639003069506413 154 162 159
0.8870203334446756 -0.011020147509201123 -0.3909888036200583 192 194 200
1.1158778886842893 -0.015788638126594232 -0.40775872327219714 145 151 151
0.8610520624341601 0.0755047599466125 -0.3850545998001071 50 34 34
0.964060030885275 0.03186327014452112 -0.3786024589656234 202 202 204
0.950683647288002 0.029813518462736104 -0.37965260281941215 49 55 57
1.0817486672262147 0.040074392291070564 -0.38157093551911675 151 154 153
0.9534682129385126 -0.022949398728228817 -0.3814209695687651 166 173 170
0.981307981100562 -0.0460046128274498 -0.3793703098258793 42 45 51
0.8841796907919623 0.018748232562252613 -0.3818960782821392 35 37 43
0.9603844057699001 -0.09516691284308115 -0.3662253496460918 61 64 67
0.855993122945648 0.09332198584109494 -0.3915438206986387 32 35 34
0.8799066933608841 0.05799620465941335 -0.3880943509321604 184 187 188
0.9454845073801385 -0.007007568490945988 -0.3786981519333845 34 42 41
0.9968426074245013 -0.024729669011931445 -0.3870661765291753 40 48 49
0.8884563124177699 0.030733531699258253 -0.38273125299153277 41 33 26
0.8300178796909272 0.036339976476384254 -0.3833311373255556 166 173 174
0.9557716569402764 0.04348679913706366 -0.3839635016602551 184 188 189
0.9557716569402764 0.04348679913706366 -0.3839635016602551 184 188 189
1.000045027315432 0.08900667146411655 -0.3792506660069048 75 86 84
0.8320259474120651 0.0628836376904169 -0.3841792830744694 121 120 116
0.8330870798694826 0.047797726867315 -0.38415240547605567 173 175 174
0.9989434633430226 0.06002093347047489 -0.38052097128082685 70 78 81
0.8321883024303485 0.027601301736405258 -0.3838550441664663 175 178 179
0.9852259393568547 -0.04704921674348155 -0.38121623683955036 45 50 49
0.9592723881872433 -0.0876281494810406 -0.379051185317035 187 190 191
0.8317900959911017 0.05787153593331061 -0.3835394181019983 184 184 186
0.8330384342575878 0.014790033426032452 -0.38321234428408696 119 115 118
0.8296743370536439 0.11888971578436335 -0.38683619887675863 189 188 188
0.8296239176053644 0.08803465478113351 -0.38504121479637765 186 189 189
0.8309162173745095 0.08354983451767864 -0.38391184703836856 181 177 175
0.8313744415376019 0.0603786199331442 -0.38421223268651067 183 182 183
0.8313744415376019 0.0603786199331442 -0.38421223268651067 183 182 183
0.8307037933736429 0.03820822044362415 -0.3840947185418445 124 121 123
0.9644459727737335 0.04564253029650005 -0.38108479431294645 40 48 47
0.9828439961483059 0.013999358952875757 -0.3825996197999906 48 61 60
0.9259122820315048 -0.061322155958808654 -0.3807754078070282 149 155 149
0.8330000702701704 0.030622685732896743 -0.3841079897535442 127 127 127
0.8783594461825128 -0.012396478539825319 -0.3860715474111738 12 18 16
1.0000366530130622 -0.046266676243885016 -0.38143189651968185 51 50 57
0.9761591206352593 -0.15497975222762114 -0.3759950557991202 22 28 26
0.9797364731723768 -0.1584240452927957 -0.379657316050769 24 28 23
0.8319185028155144 0.11627432217931771 -0.38709665467990395 191 187 187
0.8310945826833918 0.07943219761199048 -0.38450065277925927 175 175 171
0.9091555703298029 0.019580381469046598 -0.38162841596587427 15 18 17
0.9711791604414696 -0.00776433538313759 -0.3773901384181849 55 58 57
0.9711791604414696 -0.00776433538313759 -0.3773901384181849 55 58 57
0.8332430688671408 -0.024485269438647445 -0.3823987965152267 110 116 118
0.8297032582550914 -0.025048276735492068 -0.38096673884352983 155 166 166
0.8780791858077732 0.08680335968876685 -0.3834169258231471 30 31 27
0.9129952734103572 -0.036678790027530016 -0.37655609107141935 15 21 19
0.8311145177572018 0.11099447483828992 -0.384601447200601 179 176 172
0.8330878522836224 0.07085270973507449 -0.38564381675032183 135 130 130
0.8307393381640618 0.053226933329051374 -0.38425367194034715 120 122 121
0.8829571598912266 0.024364693017021377 -0.3805946919957972 167 175 172
0.9394408570655137 0.024614547626104034 -0.379780310271293 47 55 54
0.8312995190084201 0.00523234103088981 -0.3820985733262189 163 170 173
0.9750261664948133 -0.14426887294349378 -0.3723512439503707 20 23 22
0.8331139792151412 0.07219284448881251 -0.3841687364714267 177 173 174
0.8315351674110883 0.04718055752868918 -0.3842186371657881 112 110 112
0.831608466526752 0.032720299202668134 -0.3833846125809337 174 180 180
0.8316392857257322 0.020014894433315136 -0.38419250040969893 178 179 183
0.9077473328081899 -0.004974964859785652 -0.3812824194744099 20 26 22
0.8786707206130544 -0.011753195795004346 -0.38431948684335304 21 24 21
0.8786707206130544 -0.011753195795004346 -0.38431948684335304 21 24 21
0.854127654870851 -0.013339823011700908 -0.3864797925118974 21 25 22
0.8330390503683471 -0.023032165500913606 -0.3837430025300645 107 106 108
0.8330390503683471 -0.023032165500913606 -0.3837430025300645 107 106 108
0.8304380038810527 -0.02931420782710422 -0.3836135021728213 143 142 143
0.9470060513078484 -0.04271499859553082 -0.38196256215551666 25 31 33
0.936565601723059 -0.05942401747070812 -0.38341831181835956 19 25 22
0.9093062666685378 -0.06836559233842786 -0.3825143719430026 18 22 17
0.830749761209833 0.009891582006674147 -0.38350437819679706 142 141 143
0.8330646687876756 -0.013888133622672442 -0.38330346205542326 111 110 110
0.8309275549466899 -0.013938502832926483 -0.38405142379289803 121 122 126
0.88321173214811 0.08163158982964078 -0.3833161000176468 34 34 36
0.9101016022963664 0.019378076313803734 -0.3855161479186578 33 33 33
0.9096253651111953 -0.03763956904605174 -0.3835683673560746 184 187 186
0.9152732903161946 -0.04290489763239893 -0.3823169870852849 182 182 182
0.9152732903161946 -0.04290489763239893 -0.3823169870852849 182 182 182
0.9841287129584098 -0.061297165440323605 -0.3807110272698395 199 199 201
0.831351397195799 0.09621156744608979 -0.3842942756602201 128 125 120
0.8327487194548072 0.08960431805269109 -0.382830118916103 189 189 191
0.8306540717050304 0.08748354985001208 -0.38312747490964316 181 184 185
0.8521934379343928 0.08645047242215605 -0.3794801447211744 25 29 28
0.8323086915117385 0.08351570523448826 -0.38368759898430854 181 177 178
0.8296570833527273 0.08029095536292317 -0.38476228215677183 185 188 189
0.8326252085463117 0.06612358917945887 -0.38209181104521156 186 185 187
0.8307073815596723 0.053202390040041285 -0.38408048794489263 121 124 125
0.9403656420109049 0.05055941945921403 -0.3826274314954405 32 38 36
0.830830532114643 0.024405419467744115 -0.38284573012330625 115 116 117
0.8330244380217777 0.02184957479311488 -0.383530538316826 173 175 176
0.8323155507810942 0.005904648506355431 -0.3837231113429089 128 127 131
0.8350461076741031 -0.023527435076548857 -0.38520067121597695 166 166 166
0.8839262104285465 -0.04269341990421366 -0.38194310976458656 17 20 19
0.8315043942486833 -0.03791555450608797 -0.38451617646250835 88 87 89
1.0740997193090585 0.07055936027597226 -0.38565832430932323 123 123 123
0.8303422787250543 0.059219959776010175 -0.3842522803309965 141 141 144
0.833811449171069 0.010370863090719573 -0.3826128803208358 172 175 176
0.8310832194945217 -0.009677416048816808 -0.38348899912818635 108 108 107
0.8326409447103378 -0.025037869373954417 -0.38416502633771266 170 176 178
0.8315677250591026 -0.025018835816627852 -0.384083713882124 160 160 159
0.8597808750998818 0.012000545985442718 -0.38384086353771885 167 173 173
0.8332792527671123 0.01283309798136283 -0.38378250570248984 167 164 165
0.831569798836787 -0.02502748053953381 -0.38410251098741777 160 160 159
0.8944125376957786 0.03552759243243277 -0.3815914111454216 172 178 178
0.9165207397725033 -0.006605429808864586 -0.38615123145009966 159 168 165
0.9552898669680115 -0.03384393970688797 -0.38573598432775164 35 38 46
0.9738443929020393 -0.043353702402729385 -0.38507347088619587 29 35 36
0.9125002522014436 -0.0714490755601797 -0.3915297779169383 21 21 21
0.9203999125157997 -0.07848274070924702 -0.39448864613065415 20 23 26
0.996612701795388 0.03465495296049398 -0.3816435266926883 55 63 62
0.9540232614599694 -0.03344668265048326 -0.38353253644915525 44 44 57
0.9069955329492994 -0.034759005716370056 -0.3852978548952878 32 31 31
0.9832632335905588 -0.06582769671167335 -0.3841897164237755 41 44 47
0.9798340855982811 -0.07473006976660755 -0.3838871377886163 37 40 43
0.8763178342661324 0.11173407768285336 -0.3863220635643888 26 29 28
0.9920592050764203 0.048434744475244366 -0.380645864016513 59 70 69
0.9097644648444962 0.01978620881695601 -0.3832169037246705 21 24 23
0.953634542080085 -0.03015488750674786 -0.38207312701989277 176 184 183
0.8314472339976418 -0.028742551358933152 -0.3847966395637038 166 166 167
0.9721316312095634 -0.04249834782530863 -0.38198108180778334 33 36 39
0.9412789774137366 -0.07357512319022635 -0.3821832591127427 26 26 27
0.8953631465406812 -0.08198266393200537 -0.38339463318501416 23 23 19
0.8291482761851223 0.07605818720575266 -0.3862593457627025 191 190 190
0.831660839854307 0.0362465636800606 -0.38389534129375563 117 114 111
0.8321419470569197 0.024532313185709993 -0.38387497292602457 116 112 115
0.831158450857087 0.10091264527794004 -0.38533162962573814 199 194 194
0.8317681810604083 0.06260347427587573 -0.3838544447307536 171 170 174
0.8296999163924362 0.12097534584500844 -0.3846327988879456 196 202 204
0.8313373556325724 0.06345193316852019 -0.38342802370280343 186 185 185
0.8433759009945209 0.05787490855851846 -0.3750687852106805 186 187 187
0.8315115440401352 0.04616093118442735 -0.3839549699191295 148 147 149
0.9761947290034323 0.05091964607305361 -0.3801635928134227 54 62 61
0.8328822855589172 0.022585115602046825 -0.3834880013587542 169 170 170
0.8320754398674329 0.002229589722518752 -0.3828216907140336 108 110 118
0.8320754398674329 0.002229589722518752 -0.3828216907140336 108 110 118
0.8308187024511934 -0.03696158756367347 -0.382936608902783 162 165 168
0.832030804747092 0.09956042801162612 -0.38784125449639845 202 198 201
0.878075253761913 0.08631825818228467 -0.3826243182203124 27 27 27
0.883837003102036 0.0824543528202713 -0.38516572989620007 29 32 33
0.8313928301785602 0.037499170428164405 -0.38499766842299843 195 195 197
1.0816562541615666 0.039876216855545654 -0.38711165944407044 119 123 118
1.071749273142991 0.03588856377432456 -0.3808013284536379 120 126 124
0.9402653656538579 0.02487242904310877 -0.381450152601391 26 33 28
1.0723650996704217 0.023832089411960397 -0.38445948806371644 114 117 116
0.8325944633859491 0.00520685403033572 -0.3844083957965377 132 129 126
0.9889744482597403 -0.0013824797898443198 -0.3817213300622177 55 59 59
0.978027830704819 -0.006092476646539116 -0.38109901951787606 169 175 173
1.075978840179907 -0.006455046786779941 -0.38673389787805695 132 136 135
0.9900927025648858 -0.020315000251955536 -0.3798677265100353 52 63 61
1.0721763306023266 -0.026312335578879336 -0.38423198432881367 127 130 131
1.0013141969303647 -0.03657958053931365 -0.3823587440146456 60 68 69
0.8309533351250392 -0.03472223646784126 -0.3846689231688323 174 180 179
0.8309009768186657 -0.034774419029467735 -0.3836380605695098 174 180 179
0.9819864239425332 -0.06482537614684547 -0.38116282675686947 41 49 49
1.0059682014217624 -0.15859223027067426 -0.38370477664214714 28 34 32
0.9964079307972195 -0.16201828156400566 -0.38739558040418137 13 20 14
0.978795743752531 -0.15789528571443887 -0.38397103539945754 29 30 30
0.9013194857253054 0.10470021290267756 -0.38256294293862586 188 188 188
0.8329773782477137 0.08970906485747973 -0.38387543649155925 198 197 199
0.8314378445739862 0.06602296057358707 -0.3842010948846843 197 196 203
0.9082731332773697 0.05501557685766495 -0.3803308059190681 24 28 23
0.8774213949178178 0.04915850017495145 -0.38137446014046567 25 25 27
0.8774213949178178 0.04915850017495145 -0.38137446014046567 25 25 27
0.9684721474582929 0.049398587542909544 -0.3768389689833485 181 181 181
0.9080526883297323 -0.03734082845670019 -0.3786283640791625 167 177 170
0.8321615047669206 0.08010466828824414 -0.38499920348672195 135 130 131
0.8318671339255378 0.12943469345733635 -0.3867774231523153 176 173 176
0.8296289188825334 0.07193945425994212 -0.38403494106316544 178 180 177
0.8317312759719687 0.0678508512038402 -0.3854725974505957 171 170 171
0.8309224803744659 0.061593840469078016 -0.38465345769128184 135 135 134
0.885012694762343 -0.06770597301715775 -0.3822509239541968 21 24 23
0.8325653309145433 0.042132274733899175 -0.383935468365314 145 144 149
0.8318427996064831 0.03465766528615141 -0.38307849068867955 133 127 129
0.8311863134483589 0.1393634150483801 -0.38814627460169593 203 203 207
0.8316716760523295 0.13055928774284026 -0.38828510326527604 205 205 209
0.8324476245455705 0.10152203564313525 -0.3864327946476009 200 203 206
0.8332126320318527 0.08060361035607576 -0.3843330229405388 200 200 202
0.8301181198403383 0.07186473599431495 -0.38337653004691835 187 187 189
0.9957205328792689 0.02721371067235823 -0.3763438947860954 70 73 74
0.987228181422317 -0.002973163572514982 -0.3773975783021974 68 74 74
0.8324448919167696 0.0728576454347329 -0.3836885150024236 137 134 130
0.8309900532535449 0.06998320827982943 -0.3838820780644327 176 175 173
0.9357024092459738 0.05828669545221691 -0.3790935136478553 43 49 49
0.8307733437821353 0.04518047655714959 -0.3826678952117244 157 160 161
0.8293450034945831 0.020925174076953473 -0.3824076549230632 170 174 173
0.8308541997615322 0.008451958722935967 -0.3829062151516651 109 114 116
0.830858886479194 0.0010514547489068066 -0.3827875165781771 117 123 125
0.9445158939330798 -0.006413281949243682 -0.3784170946649897 42 49 49
0.992826109820782 -0.012914596200118957 -0.37528825604978605 68 77 77
0.951364011148859 -0.03267195139073089 -0.3781188940003687 45 44 46
0.9399854574542815 0.050406839063632206 -0.38173605812038236 36 39 38
0.93881812506904 0.024512153570877576 -0.378879083890692 47 55 54
0.8825532124613403 -0.00630675899020229 -0.3776013683411457 23 29 27
0.8769990570860087 -0.012153629290778385 -0.380086842265861 24 27 28
0.9439951528845854 -0.005001300142548095 -0.37484497497577396 34 42 39
0.8892897681430599 -0.02207466282297912 -0.37834110691483336 184 184 184
0.9651340777487564 -0.0054527070946749365 -0.3717284847690197 56 59 62
0.9694894395672676 -0.03521981228804161 -0.36753447048427607 48 48 50
0.8308993449569688 0.1285407850324262 -0.3831137097520674 205 205 209
0.8312746652643086 0.12140354799534536 -0.38425728887553356 202 201 205
0.8310324353670956 0.07144927935997414 -0.3826292912093598 203 203 205
1.068295433182633 0.08724050041460273 -0.3787405243589025 125 131 131
1.069273874427288 0.07090504202668495 -0.3827410497327594 111 111 115
1.0748329699737555 0.07154004950015941 -0.38002777096873436 121 127 125
1.0734483840837101 0.0673194363110192 -0.38141354127910154 90 96 98
0.9858915125183496 0.03920207035468137 -0.37769913971812624 78 87 88
1.0757120357555139 0.05379615419173976 -0.37974718998765034 120 123 122
1.0744369780476324 0.04376450094781608 -0.37907659985525916 117 122 122
0.9871879805525554 0.027509345859453572 -0.37905520455814523 71 82 81
1.0721385274033985 0.0377603074259305 -0.3798668436095952 130 132 134
1.0728985505372404 0.03017132224064222 -0.37914795536322454 107 107 107
1.071125524935537 0.028564244371584255 -0.37909851162533237 128 129 131
1.0664491709679274 0.022791947135258298 -0.38012887227814657 124 120 121
1.0767762173596962 0.02396684628152678 -0.38124182021338576 104 104 106
1.070063260613898 0.019171127514272364 -0.3798890466236209 129 129 131
1.0793937295384488 0.01815799273461373 -0.38239887538245126 115 118 119
1.0761892144831358 0.015509500070762362 -0.3774470954342999 93 92 94
1.080027203308595 0.012113891582627281 -0.3808069532160219 98 98 98
1.0724924492495425 0.005463922066334583 -0.38284489512806436 121 124 126
1.0774508459452286 0.002895412116424836 -0.3804399069604111 112 112 114
1.0769123318123057 0.00035663905753078185 -0.3796180760691322 109 109 110
0.9852313541612152 -0.0601427048495967 -0.3760731948512146 60 48 61
0.9644487266678499 0.03178672019066043 -0.3814060727725856 185 196 192
0.9887077916633378 0.027790602481158375 -0.38100406487918603 62 73 69
0.8772848403237005 0.024486049570031237 -0.38008748655208396 25 31 29
0.9435163770826451 -0.006165446718606762 -0.37641733319106163 36 44 43
0.8824403521859696 -0.006291730505835003 -0.3770241790802114 23 29 27
0.9822248984132813 -0.06337683513534344 -0.3772106066636614 40 42 52
0.8739570702639406 -0.06445939917872487 -0.3786679689037207 25 25 21
0.9141929523795708 0.08678253817406205 -0.380405300319187 26 32 30
0.9442487637872753 0.05513624940645293 -0.37858149458722534 42 51 50
0.9536414284215878 0.028480687743427525 -0.3759866041833629 51 56 58
0.9679971727181885 -0.10329085972998261 -0.3780862252786778 176 180 180
0.9051451010837964 0.03623838942714889 -0.38302388152775135 35 38 36
0.9193275540514477 -0.06295882856946199 -0.3791077357446049 23 29 27
0.8321133189252252 0.08344590960128151 -0.3865190038315568 181 181 180
0.8322265585014276 0.06327058080971733 -0.38514394438015165 121 120 116
0.8322265585014276 0.06327058080971733 -0.38514394438015165 121 120 116
0.8296907943866274 0.0521546180405786 -0.38535631199660425 177 179 178
0.8597063535642598 0.01208699099298672 -0.38295217138288146 162 170 169
0.8304992236059282 -0.002721641796832671 -0.3825452170068624 181 181 185
0.853389786785701 -0.012489924578990909 -0.38379632597397145 28 28 30
0.8309722466438161 -0.015297588624855201 -0.3833322691877105 133 132 135
0.8309722466438161 -0.015297588624855201 -0.3833322691877105 133 132 135
0.945265368953443 -0.0431064949976416 -0.37670065968455807 29 35 33
0.945265368953443 -0.0431064949976416 -0.37670065968455807 29 35 33
0.883593924243573 -0.0733291759838465 -0.3794057510877767 168 168 164
0.8300519877527082 0.07250132928799569 -0.38503613226846867 191 191 193
0.8821751836827316 0.054379169702248896 -0.3780601159678114 23 29 27
0.7617183169581595 0.10246452471502993 -0.39489664621528786 21 19 18
0.7698331343920224 0.09912831043092332 -0.39989239193296455 39 40 36
0.7614190245592554 0.0897181398369544 -0.39564085773445523 46 47 43
0.7628885752318644 0.07069056881629472 -0.3961339944705488 52 59 53
0.7672000920393178 0.10823500989837845 -0.39077796604575005 18 17 17
0.7680427504378404 0.07164469917276534 -0.3890049396190939 55 55 55
0.7667751137897646 0.06991508541536529 -0.39061537731352675 25 25 21
0.7679537392208114 0.06692266949313332 -0.39191429251232257 55 58 53
0.7640411876352383 0.05779164174172248 -0.39522397961973654 62 62 62
0.7640411876352383 0.05779164174172248 -0.39522397961973654 62 62 62
0.7689622204099857 0.05827522716939953 -0.3930566687328409 69 77 74
0.766957836668097 0.04628631401352276 -0.394710508566904 25 25 25
0.7698679417462853 0.04716096520553161 -0.39298446297571343 48 43 39
0.7646908128267846 0.04292571570663449 -0.39358747081383055 68 67 67
0.7646908128267846 0.04292571570663449 -0.39358747081383055 68 67 67
0.7662590698956944 0.04292380240299227 -0.3945939288871266 30 27 24
0.764744763792981 0.04139829619224728 -0.3953497233293825 41 38 33
0.7644749349492982 0.036229370984256194 -0.39485151095386545 33 30 27
0.7680097690722382 0.037792568444497625 -0.3938874834111413 24 23 23
0.7696060004080987 0.02947063417056122 -0.3932665473094684 29 24 22
0.8309298621648504 0.059699287041398104 -0.3854327871398771 143 146 149
0.8299065494255528 0.05287599297235554 -0.3846523189447914 176 176 177
0.8335521435030073 0.050667159596140224 -0.3855040737169001 172 174 172
0.8326440695918846 0.0450470121176008 -0.3856514935535886 133 130 129
0.8324144793125646 0.04063508731941636 -0.3852965080868101 165 165 165
0.8318170437710037 0.037489779103920685 -0.3856551286121362 183 183 187
0.8788626170377688 0.0563567933315004 -0.38486354636758796 173 176 175
0.9153488688016748 0.05103991384031535 -0.3830730184617084 31 37 37
0.8843798418951209 0.019968099687040882 -0.38428699593991517 23 28 25
0.9808547558663204 0.042656000340689185 -0.3797930055232472 56 67 66
0.9806839431174462 0.04058428440584871 -0.3805133288190716 60 67 68
0.9722774336300548 -0.006278122911371025 -0.3803349900772896 63 71 70
0.7724287957663377 0.1234428847692322 -0.387327090448897 51 51 47
0.7645094283705015 0.12153133730272918 -0.3981595916370893 53 54 51
0.7682374712813782 0.11814563936342269 -0.39693696290149183 57 58 54
0.7740483881442253 0.10264467168418324 -0.39253432110387176 61 62 58
0.7612094926936517 0.09156313949647389 -0.39149164897589117 35 39 32
0.7617711019661932 0.08258219898888694 -0.3944213634633975 44 44 43
0.7617711019661932 0.08258219898888694 -0.3944213634633975 44 44 43
0.7666065505623374 0.08254816342625816 -0.39044395106658975 53 54 50
0.7626562072526039 0.08152444250940612 -0.3957495996628641 45 46 42
0.7656317003349309 0.08230134556810799 -0.3963876966221338 26 22 23
0.8296193708179312 0.09848442653444253 -0.38620660366514603 187 188 187
0.8307059604074927 0.09806607399073089 -0.3881635337161192 185 188 189
0.77133112988158 0.07612833058083303 -0.39244083503488225 46 47 43
0.7758628161446506 0.07660018560723239 -0.3942179327044057 53 52 52
0.7676651267435605 0.07341988646471205 -0.39449159665558725 55 59 54
0.8318928352700111 0.09026490493401604 -0.38620459691456166 125 125 128
0.7751713500404516 0.06696409790220893 -0.3925646607695145 20 20 16
0.7682950378055523 0.06159477918109085 -0.39580857898870014 58 57 55
0.7689142867387936 0.058242615184065163 -0.393042074279578 61 61 59
0.7695326402174241 0.05379676422067615 -0.39532801773634496 64 65 61
0.8341506393734542 0.07304833401169307 -0.3866006675360777 183 183 183
0.8718766733957076 0.06695797733667748 -0.38432872996793266 176 184 185
0.9625572106974457 0.06528185273794261 -0.3810569782835564 51 59 57
0.8329108446858687 0.024782237750679916 -0.3861784900203644 113 113 114
0.8322398524266009 0.005483543663569779 -0.3857151693580898 176 182 183
0.9939516064001375 0.03871561858568895 -0.377252863526996 77 85 84
0.9408510383460165 0.02533535231487473 -0.3819872532449165 45 55 55
0.9836340197275427 0.00533110806808934 -0.3786141815317322 187 190 191
0.8317590104207506 -0.03211007731496494 -0.38718033957657705 169 173 175
0.977340951945362 -0.011295080533043256 -0.37855067472327214 51 56 58
0.878953139456813 -0.037079300065873545 -0.38477290814897996 23 29 27
0.9613399894643694 -0.02521234932628144 -0.38146393908365106 43 45 51
0.9171075038361295 -0.09933048759295621 -0.3821242394716944 23 29 27
0.9405359300092122 -0.09886007756456154 -0.3813396160449257 32 32 33
0.8308431073258947 0.1127811337154091 -0.38702287668897956 156 155 158
0.7674893603971445 0.0630504626987404 -0.3942347795115631 50 51 47
0.9251593619109265 0.06692859437888474 -0.38277535875985996 187 191 190
0.829845991269717 0.03693430125639495 -0.3850127270068812 180 183 183
0.9102348503984234 0.05649351096387061 -0.38438161203175747 33 39 39
0.8324512283519472 0.02050774349033369 -0.3851268033843151 152 150 149
0.8337179444940964 0.020758692638654992 -0.38540370432704674 177 174 172
0.8957964010249768 0.03609999752674925 -0.3836565169258129 173 181 178
0.9908933374015548 0.04071063230683667 -0.3819601808934799 78 89 89
0.995815907969083 0.041832278207589536 -0.37898877465288644 67 77 77
0.9863378935441327 0.037766129641654655 -0.3814035421463849 75 83 82
0.9882405131828861 0.036299088139344814 -0.3818251447401807 63 71 72
0.9730880481200084 -0.006367542944115625 -0.38148193863014784 54 62 63
0.8326629621775078 0.10662320489716826 -0.38794944747517335 190 193 195
0.8303327428243092 0.08231552579340295 -0.3874618958578122 188 188 188
0.8548119086529821 -0.03745041706937434 -0.3880745968679951 21 27 25
1.0018359437443278 0.04966527261786726 -0.37984513574694156 66 70 71
0.9343668021955668 0.012830389956161987 -0.3822631003903529 178 184 183
0.9853089726411922 0.0019600925733023605 -0.3801090035450088 73 78 83
0.8295131836424753 0.09538778926787611 -0.38559474740780364 189 192 193
0.8342586277481203 0.07312557583600983 -0.3870843529825905 186 188 187
0.8847781750662556 0.019940143517106643 -0.3852419327170788 23 28 25
0.8328470346140389 0.09754582133743323 -0.3855042038725824 190 189 190
0.8304132279854957 0.09532978600356284 -0.3860338344742521 184 186 187
0.8788948656234118 0.0879856318739833 -0.38534509744802725 31 34 33
0.9725469389821018 0.05133088065334525 -0.3818683551977914 192 200 199
0.9100261251935772 -0.011540379392425174 -0.3831102199824372 168 174 172
0.8353576037556389 -0.03417987926393962 -0.38590463242588485 161 167 165
0.9472684722904092 -0.04265153031567927 -0.3813713681856534 30 33 36
0.9361699212056244 -0.05901192934550792 -0.38134973866746713 27 32 34
0.8847941004733255 -0.07391519456882441 -0.3831576479443001 169 170 166
0.9861064471847092 -0.15240321242622892 -0.38189223438298636 14 18 15
0.8564632538278913 0.05958513280059661 -0.383931166756105 31 34 33
0.832015420226419 0.005510768870489519 -0.3848122966722532 176 182 183
0.9099684737313064 -0.037243503868793784 -0.3826272852003578 182 188 188
0.8846520933665727 -0.0059990522874143574 -0.38242763728824386 35 38 37
0.9408051474558745 -0.03670148439497302 -0.3813389575852197 27 30 29
0.9151970421299497 -0.03662700873610665 -0.3796601934318752 28 31 30
0.8789382935731167 -0.037212886963306685 -0.3835964211477329 25 28 26
0.9290005418199874 -0.0546450541607341 -0.3828706717201924 166 169 169
0.9165191432173896 -0.09698459595509128 -0.3779556440407624 22 28 28
0.9413420282507001 -0.04254629643210055 -0.3817207250544248 185 188 189
1.099825805708455 0.1021663090847586 -0.38201108661716277 99 93 96
1.0830471185867798 0.10150048402749637 -0.38228146684471487 91 90 92
1.0948538325533288 0.09697313089649544 -0.3811166820670189 108 107 107
1.091860516596749 0.09408609246334383 -0.38183476512258807 107 106 106
1.0820261662951793 0.09298094107504233 -0.3790759317977723 158 161 162
1.0854650530777437 0.08979120594232061 -0.38046488166692033 169 174 174
1.0965929597366777 0.08925763820739904 -0.37959177083527856 163 166 165
1.0899423456991546 0.0880576601765551 -0.3810330199751209 169 169 169
1.094396995103301 0.08786505539262539 -0.3804617144526681 91 91 93
1.0811397087177734 0.08758347772476677 -0.3823720511911774 160 165 166
1.0898997158685517 0.08506711977687315 -0.38092179981334323 166 169 169
1.0769969592518407 0.08218511420435794 -0.3768933623066786 149 155 155
0.8848980385581583 0.08204563311583943 -0.3853974280366486 29 32 35
1.0961460296157666 0.08071998343863826 -0.3809146688863164 107 106 107
1.0961460296157666 0.08071998343863826 -0.3809146688863164 107 106 107
1.0962901114792598 0.08051502076105801 -0.3838415229686463 172 177 177
1.0787126395223525 0.07983669132817686 -0.38209701265040436 98 99 95
1.089774103028308 0.07586410385517706 -0.37818379553059495 107 107 111
1.0932819069477278 0.07599428975415193 -0.3796688485434882 165 170 170
1.0801039289580974 0.07500221946443314 -0.3810730709794477 157 165 164
1.0866149076267606 0.07265906361102335 -0.38209659477220054 109 109 112
1.0923998111170639 0.07043154359546946 -0.3809022144883261 112 112 116
1.086712002476822 0.07038267263375475 -0.3804991782024582 170 175 177
1.0901365520344404 0.07063606068274186 -0.3824829938928514 166 169 170
1.1004157624871784 0.06843931638115658 -0.3818447036019306 164 166 164
1.0941753699287768 0.06788390514985632 -0.38287676468163073 128 129 131
1.0929470499104665 0.06377965506767833 -0.37821843489354356 158 163 162
1.0975836384130304 0.06411145682694402 -0.3813525822466628 111 114 114
1.082450351731483 0.06312817228302887 -0.38286647118585515 149 153 152
1.0940201380337908 0.06281411443356455 -0.3820987252390241 109 109 112
1.0940201380337908 0.06281411443356455 -0.3820987252390241 109 109 112
1.0900130305626559 0.06229354150597765 -0.3817150701719227 153 159 159
1.098460199621305 0.059252466886633784 -0.3814159025020678 109 108 110
1.098460199621305 0.059252466886633784 -0.3814159025020678 109 108 110
1.0930092190954832 0.05743121659016599 -0.3797595911667693 135 138 139
1.087389304784999 0.05579461584738128 -0.3813394006880203 111 112 112
1.099656723456068 0.054882613711633416 -0.3801469542726877 163 166 160
1.093037425497521 0.05369337142959672 -0.3821588384064477 163 167 167
0.8842999661419286 0.055995787482157944 -0.3817991064181616 25 31 31
1.0965672790347494 0.05176236829023785 -0.38088978727286293 165 165 167
1.0941038340221132 0.04979061813090629 -0.3805432272918597 96 95 100
1.0888405939541619 0.04980737767886948 -0.3811067532650369 157 163 161
1.0836354244909414 0.04874765375259989 -0.38113923241650544 98 97 99
1.0925065084764898 0.04826276678894041 -0.38015654190963855 159 159 162
0.9408413249067137 0.050605271520080645 -0.381949431586082 29 32 31
0.9408413249067137 0.050605271520080645 -0.381949431586082 29 32 31
1.0821356406260194 0.04705516439132432 -0.3819819428325751 147 153 153
1.0007684345659302 0.048180486877278605 -0.3795046520750481 38 49 49
1.0758019945078177 0.04585800556008425 -0.38325041467026727 148 156 155
1.0833257245565338 0.04460241840199433 -0.3806418597508474 87 87 91
1.0888842685846931 0.04432388903926272 -0.3829510755491321 100 104 107
1.0838431518204805 0.043102477023960806 -0.3787539334802451 156 162 162
1.0899935838475134 0.041529919766427156 -0.38215706141270517 152 160 159
1.0937200713630042 0.03973375813719942 -0.38149964039764356 156 162 162
1.0872077143204566 0.03888894917874913 -0.3828376692733301 163 170 168
1.093044653257844 0.0337001750721606 -0.38017455484497503 163 166 169
1.0951510493995513 0.03354682328276449 -0.38071295684732476 101 102 106
1.0951510493995513 0.03354682328276449 -0.38071295684732476 101 102 106
1.083027754118026 0.030612014991816847 -0.3790202086961207 99 99 101
1.085951606056266 0.028326401677107097 -0.38063051047087654 166 169 167
1.085951606056266 0.028326401677107097 -0.38063051047087654 166 169 167
1.0855378680343672 0.02143148073955891 -0.37988668026597167 148 154 154
1.079093852137393 0.02010814347447517 -0.38521311697648164 146 152 152
1.0760625390062968 0.01860139962370546 -0.38218196297484447 147 153 153
1.0957900322270206 0.013849937887603183 -0.38167287007258527 153 153 154
1.0811298826634663 0.014360307370644105 -0.38264489269174085 84 87 88
1.0811298826634663 0.014360307370644105 -0.38264489269174085 84 87 88
1.0895950226144198 0.012894962994438836 -0.3808210215897554 102 101 104
1.0909666961436846 0.009155516265439563 -0.3798960144156987 162 165 165
1.0853640859972375 0.00861862716000576 -0.38170211109704405 102 101 103
1.0844211875955694 0.007655524182158221 -0.38386847540200986 149 152 153
1.0921778639166912 0.006967032468250939 -0.3839495888533705 92 90 92
1.092953089404171 0.004080512635147477 -0.38168300876717937 161 165 164
1.0830224373549588 0.00390234347655764 -0.38187499685901866 146 152 150
1.0830224373549588 0.00390234347655764 -0.38187499685901866 146 152 150
1.0838680213436556 0.0030134799276687408 -0.3797402293448638 89 85 88
1.087009189775863 0.0018235318263208106 -0.3817773613425663 160 162 161
1.0845394830797628 0.001099854501413213 -0.38057453610952924 93 89 92
1.0845394830797628 0.001099854501413213 -0.38057453610952924 93 89 92
1.0917026473184213 -0.0009964153448733693 -0.3824926822410878 107 106 109
0.9887860709247331 0.0011472869888663737 -0.38027792285932055 171 177 177
0.9716829615248158 -0.005330608649980654 -0.3800941942334482 30 36 34
0.9162224607827727 -0.011633853126618078 -0.3831049042165114 32 35 37
0.830534426504141 -0.009082110117593578 -0.3858945575275829 193 193 195
0.9538044422991269 -0.030003437796156853 -0.38121287887620076 163 171 170
0.959641865528254 -0.055633691916690604 -0.38208611261046255 24 30 28
0.9360900768717229 -0.06186065758453272 -0.3814707207974683 29 32 31
0.9210213912721323 -0.06340356488501177 -0.3824292772821549 32 31 33
0.9210213912721323 -0.06340356488501177 -0.3824292772821549 32 31 33
1.0022794727650508 -0.07424347010344443 -0.37923900401408767 34 37 38
0.9798386579745724 -0.09893041005625722 -0.3816176762961938 34 40 40
0.9170930137307044 -0.09945543580490272 -0.3837302391135084 29 32 31
0.9996672240263019 -0.15761469623601987 -0.38142930986740786 19 19 19
0.9928078220722277 -0.16136473517486893 -0.3815952811199573 15 19 14
