ply
format ascii 1.0
element vertex 675
property float x
property float y
property float z
property uchar red
property uchar green
property uchar blue
end_header
0.8332009904162031 0.02096419554894898 -0.3877012926809907 162 161 167
1.0988145322130989 0.02909033898597023 -0.390886558464291 132 142 141
1.0815723319638848 -0.0015918593972413149 -0.39052300214290914 115 115 119
1.0923507325721435 -0.007769058670217856 -0.38975741443680917 97 96 100
0.9188319859764885 -0.012112837444368528 -0.3875630919142987 26 32 32
1.0959976149216821 -0.015450468307647926 -0.3931072815355724 96 95 97
1.005976313803194 -0.036176600103592096 -0.385064287918178 49 59 61
0.8309127121217295 0.12945180301361256 -0.3906028221729235 204 203 203
0.846544393272832 0.10117253048431239 -0.3912655165977089 204 204 206
0.8300023107166032 0.0792627968827111 -0.384211432417862 185 191 191
1.0068119144523795 0.02733874283161886 -0.38657179770292305 60 70 73
0.8300784990702789 0.012655886616895139 -0.38456992829124964 191 197 199
0.832733750001858 -0.03792015666772036 -0.38474563958339797 117 119 121
1.0943813973139607 0.14398428305216943 -0.38739724371430145 109 110 109
1.0930274172971899 0.10733671211133947 -0.3835622663136428 142 148 143
1.0793485187030065 0.10313650387712546 -0.3867893793795144 163 161 158
0.8298577286793152 0.06637285526755705 -0.3842630339183042 202 202 204
1.087063450955224 0.08928219735452128 -0.3876354085339841 111 112 108
1.0915752303867108 0.06473733147655408 -0.38743819814038427 105 104 104
1.1018527676142642 0.03458371491727657 -0.385880570940187 127 133 131
1.0744313433110537 0.031080926254936195 -0.38756948568501626 189 193 188
0.8686997430575388 0.008871721993821838 -0.3848732932780081 183 191 192
1.0046980161833798 -0.012228875022528297 -0.38238103669594314 54 60 62
1.0994689598109941 0.14399808214865822 -0.39257646222881676 149 154 152
1.0755264877124113 0.07788808066097727 -0.3895315476299111 190 194 189
1.1047438365611437 0.07200003558467488 -0.39517689067311423 109 116 116
1.083710424788522 0.06852802155971553 -0.3906451486117896 158 162 161
1.0855716821726793 0.060717299646550746 -0.3997979937526166 188 195 189
1.078982419105552 0.052915529776487794 -0.38953640999842204 110 109 110
1.0934871365466656 0.053310287239619614 -0.391007432415169 142 148 148
1.0867319178112855 0.04535602148173905 -0.39157077700447407 145 147 148
0.8559868814056188 -0.07684913212623538 -0.39015814368993634 28 31 30
0.8559868814056188 -0.07684913212623538 -0.39015814368993634 28 31 30
0.8804289569413453 -0.012211168290931794 -0.38735655589945045 30 31 32
0.8594454571466986 0.0967744040695783 -0.4084343788788843 34 39 39
1.0984894850297227 0.0395515649074864 -0.40460843435138477 169 170 172
1.1122398418392492 0.005427735262326782 -0.4048476194193253 100 103 106
1.0887377801370437 -0.03004799085117844 -0.4019780466133339 128 132 131
1.0165505877146457 -0.07787991277846182 -0.3988048533450974 49 57 61
0.9718252371007423 0.050306825228098914 -0.380083322985742 192 195 196
0.8709894708101782 0.06281871586391488 -0.3802115357942013 43 43 45
0.8318413281208931 0.06996426625938046 -0.38565736876117096 190 191 193
1.0769220419624264 0.06900047019719541 -0.38256053424236486 125 124 126
0.8736670514330578 -0.0013829585366886355 -0.3851783047069659 27 30 31
0.8302564134938717 0.07962555267162717 -0.38116775372122824 144 142 143
0.831302105382808 0.07729799327854839 -0.38156324749381415 161 156 154
0.8322907470285206 0.0629473390252184 -0.38591148687869986 177 169 171
0.8318125833800867 0.04375920233334875 -0.38570297706322126 187 186 188
0.8314267291290848 0.12013386307219462 -0.3837726595132603 184 184 184
0.831386726840771 0.08271789480670498 -0.3829215778414083 157 153 156
0.8314132891828755 0.046022055921122254 -0.3824943186017722 140 142 138
0.954701994178431 0.09669326945481922 -0.3832564885940261 58 60 65
0.9786359749985932 -0.03653739594716565 -0.37902643713594386 49 60 58
1.1011260216843082 0.10250144526057801 -0.3922238357266569 165 168 165
0.8294622727545746 0.06862536843867498 -0.3846661041037499 188 191 192
0.8340207170763886 -0.027854802855893795 -0.38424330839577847 116 118 119
0.8406918990219431 -0.055247086965556226 -0.3811383322627143 166 169 168
0.9365731542176655 0.05897833503967177 -0.3789222583477165 43 43 44
0.9469475449426088 0.019413968822800557 -0.3797470688025799 37 46 46
0.832851901898486 -0.021243283865566627 -0.38476721084629134 177 176 180
0.8326012129018543 0.008072035755406395 -0.3842604499502882 176 175 178
0.8353991499264849 -0.027877516470376642 -0.3860543728272886 171 168 169
0.8546435527459822 -0.037220875077437515 -0.3852808866731011 27 31 26
1.1029906322216205 0.028329396885732036 -0.39687627033026235 104 109 113
1.0950413955349838 0.011727569575549426 -0.39525690851029444 144 152 151
1.0950413955349838 0.011727569575549426 -0.39525690851029444 144 152 151
1.0895298086217908 -0.03162304185081382 -0.3964514586667582 125 131 129
0.9765415799932343 -0.06956015488247118 -0.3876555874311211 39 45 45
0.9765415799932343 -0.06956015488247118 -0.3876555874311211 39 45 45
1.1098136403908865 0.10813876046435522 -0.40648570327912226 140 143 142
1.1128010264864059 0.05353683756285223 -0.39863188455467236 126 132 130
1.0960344614779065 0.036695479487718605 -0.3999404147927699 106 109 110
1.1182507207222883 0.032363408673607666 -0.3993964490653563 109 111 111
1.1108986154060492 0.015189667652085343 -0.40062323826370655 125 131 129
1.107423228623057 0.009889659722044888 -0.40042254316400466 107 107 107
1.108205479390678 -0.001717252712708502 -0.40193317444077453 142 148 146
1.1116180720741229 0.056709906303236544 -0.39784064749953707 127 135 135
1.0945881605440249 0.051561918026446565 -0.3988755778796629 129 137 136
1.1092360807737798 0.04902185031158839 -0.39725028115646743 110 113 116
1.0851568702992436 0.02932698368224824 -0.3982260378698111 174 175 174
1.0996202799674142 0.01964120475569889 -0.3957338038748673 139 145 145
1.0996202799674142 0.01964120475569889 -0.3957338038748673 139 145 145
0.9731681053672611 0.08233351360724897 -0.38311711206963533 42 47 52
0.8640266169251757 0.06708227012153294 -0.38377303240669897 185 192 193
0.9088796384264125 0.08092818875480484 -0.3815528690603129 32 35 36
0.9088796384264125 0.08092818875480484 -0.3815528690603129 32 35 36
0.8333053516935596 0.06517464372344789 -0.38347338247600216 190 190 186
0.8319060508389203 -0.017354620346062787 -0.3826918870396767 193 198 197
0.8299316491275854 0.11119413559774163 -0.3877065658947364 191 191 193
0.9269997403840168 0.07563469214861013 -0.3841641122373756 187 195 190
0.8329676253590866 0.04352524223441398 -0.3855219158593744 191 190 190
0.8305296820377088 0.08137618067322842 -0.3867088972103252 183 186 189
0.9523287797748702 -0.01650837705620508 -0.3788932315204482 174 185 185
0.8653697434859845 -0.06289584171873777 -0.3770258720032427 18 24 24
0.8663729089059296 -0.06335093157821113 -0.3801332710768726 21 24 24
0.8323602457043047 0.09231808837257445 -0.386282529832557 132 130 132
1.0823674366577014 0.10321992656897197 -0.3865149161064792 151 154 153
0.9789904832618392 -0.005773645981169203 -0.3806349161013689 172 177 179
0.8854190983697655 0.05651646868742137 -0.3844525504353446 34 40 42
1.0039775462873919 0.09040290070691873 -0.38357116605972735 45 53 54
1.0109295362410435 0.04958950207501088 -0.39488066189664506 62 69 72
0.9118695077962569 -0.005871872488711931 -0.38673376679220905 34 37 36
0.9532597005118856 -0.016036366677096976 -0.3807075691028976 90 97 102
1.087886304140168 0.10320226432474147 -0.3975463009029622 155 161 161
0.855381060876835 0.08957861113029679 -0.39097568894563395 34 37 37
1.0071589376157382 -0.03679383853173513 -0.38609715348220425 43 49 49
0.9446097617756749 -0.037911302374522574 -0.38801897943197583 39 45 45
0.8294567751205488 0.12119266286206798 -0.3857992330010999 192 196 196
0.9272811188495584 -0.05514148068427364 -0.38165919618351785 167 169 171
0.8341521932493784 0.0674279510178295 -0.3866915068825981 177 180 181
0.9554734238863343 0.0436896541777669 -0.38135932186697247 179 185 185
0.9589972485156488 0.03755486700144385 -0.38193529370456336 53 61 62
0.9488536892549373 -0.0054443964582799025 -0.38275411533632603 39 47 46
0.9488536892549373 -0.0054443964582799025 -0.38275411533632603 39 47 46
0.8316610799892634 -0.03727455809650053 -0.3845863230071953 169 176 179
1.0031129705564403 -0.07447878469685719 -0.3789621884604471 44 46 51
0.8439485138252937 0.007925889869826435 -0.3829447921655231 172 178 178
0.8326937974562598 0.04968898183786854 -0.38694744305011763 117 120 119
0.8328112349542544 0.04976363333109223 -0.3875472227788716 123 123 125
0.9545662496098049 0.04367786618546315 -0.37989319892046663 188 191 192
0.8327673650668064 0.03931359729260907 -0.3866083652543704 179 185 185
0.912130527949434 0.01975723282531624 -0.3868699138301689 27 33 33
0.9701505328708953 -0.06680618749610395 -0.37606240709374833 34 37 38
0.9701505328708953 -0.06680618749610395 -0.37606240709374833 34 37 38
0.9758213767714092 -0.07194631743582518 -0.3744202422582613 28 34 37
0.9022307424393329 0.10572957856285421 -0.382681785739953 186 186 182
0.9107133157642746 0.08813948424396609 -0.3844089757625289 180 188 185
0.9110246816969301 0.08250747190877014 -0.38621769164211234 30 36 36
0.9110246816969301 0.08250747190877014 -0.38621769164211234 30 36 36
0.8300475362256214 0.06945162176651347 -0.3859567710856124 187 190 191
0.8341881401643323 0.063600821704299 -0.38653789134491034 181 183 182
0.9173516000806038 0.050904643949421485 -0.3848577370337827 26 32 30
0.9173516000806038 0.050904643949421485 -0.3848577370337827 26 32 30
0.8332271574562814 0.09990225132071269 -0.3868685239941376 142 138 142
1.0781867809578918 0.11252131523239464 -0.38336476500472044 98 97 100
0.9293137999697305 0.1037657047384978 -0.3857103145855601 24 30 28
0.9786417977402965 0.08817253934929017 -0.3816596865907229 33 41 38
0.8316081674304884 0.08151548546434721 -0.3870602395856827 139 140 144
0.9380483954491401 0.060140425067624494 -0.38238959691971974 38 42 43
0.8307173738451783 0.021495859445790272 -0.38730375951127693 176 182 182
0.9272898985435998 -0.0015371847756943564 -0.3821975533194439 29 28 35
0.9735063457593645 -0.005312439497503218 -0.3829860931402158 30 36 34
0.8733943915091383 -0.0010516002580413443 -0.3858505642322772 24 30 29
0.9677661473027291 -0.015938604816226172 -0.3807082675433025 28 34 36
0.8326566615384134 -0.027094770763762762 -0.3848493756366153 176 176 177
0.8855238334464627 -0.06863066998454664 -0.38233309990743386 24 27 26
0.8550673089524307 -0.013346079788374451 -0.3842723817444015 37 38 39
0.9893171105757173 -0.04593278483734559 -0.3785348462074289 36 42 44
1.0830881949275497 0.08231028487788816 -0.39082415643762947 160 169 168
1.0784921204387876 0.0818608822687347 -0.39182114653262023 187 192 186
0.8609214433542111 0.06628464335742924 -0.384060796827936 48 35 35
0.8609214433542111 0.06628464335742924 -0.384060796827936 48 35 35
1.1030020423244955 0.059277585517862434 -0.3932646235654333 141 145 144
1.0902093771915347 0.04874484771284959 -0.3852623641948211 103 106 107
1.0899781768280197 0.04677446262813463 -0.3909987620462918 147 155 154
1.1090684851041257 0.031294927881962274 -0.3897452779909548 110 110 110
1.0994583458853626 0.029131886800894517 -0.39314299581878226 106 107 109
1.0073534608560881 0.023612167464975346 -0.38318029604201354 78 81 84
1.0073534608560881 0.023612167464975346 -0.38318029604201354 78 81 84
1.1005898848295008 0.01956666259238186 -0.393711163895342 112 118 120
0.8572082999354802 0.01554787789628284 -0.3838640776071538 41 44 47
0.9317932861781859 0.009183992485022654 -0.3837920894234054 178 184 184
0.8621107346864194 0.011915573610161177 -0.38950657496566604 178 184 185
0.953419010682016 -0.015643103218227237 -0.384914370098343 47 51 58
0.9497244289333057 -0.04386571352399437 -0.3834068196936453 32 37 42
0.9497244289333057 -0.04386571352399437 -0.3834068196936453 32 37 42
0.9176457324194924 -0.069479532984867 -0.3842681816438296 168 172 170
0.9176457324194924 -0.069479532984867 -0.3842681816438296 168 172 170
0.9053089966114152 -0.08338120742488432 -0.38020516448143016 28 28 28
1.086879725246924 0.101659144757287 -0.3904799340917383 153 159 159
1.1061543293357772 0.0944135137022007 -0.3896589013825349 101 106 102
1.0840297070603433 0.08906533354477726 -0.39080947282603223 133 141 141
1.0840297070603433 0.08906533354477726 -0.39080947282603223 133 141 141
1.0917686428359696 0.01236364120833712 -0.3889243464439384 97 101 96
0.9826408639912995 -0.03868622172899141 -0.3862678340371722 44 52 53
1.1044412429606008 0.0766286423342674 -0.3925214489828712 138 144 144
1.0814290907643624 0.07469274871298122 -0.39523100192758387 191 195 190
1.0976506616620274 0.0440838426480858 -0.3927947172834968 100 106 105
1.1052224524154493 0.03929190789093097 -0.39447002678790044 135 141 140
1.0997902352622895 0.02333821018199147 -0.3935002899280149 96 99 94
1.0997902352622895 0.02333821018199147 -0.3935002899280149 96 99 94
1.092505597908454 0.01892060479223287 -0.39540334184135656 106 110 108
1.0859485984601633 0.07157200227764171 -0.39347999394954275 163 174 172
1.0860893400746936 0.06425585501120934 -0.3939424073515866 160 166 164
1.1034053614661248 0.017777868837184248 -0.3925612931215209 126 130 126
0.8315688787792946 0.0913381843437121 -0.38266645541261113 130 129 133
0.9997366105826478 0.049879963072425454 -0.3757107789738308 63 76 76
0.8330758170606981 0.03788386924051043 -0.3851851957306372 117 117 117
0.9557006954279486 0.10474991723248542 -0.3778798666681897 55 51 51
0.830274757069349 0.048303523985866584 -0.3850763821083313 185 185 185
0.9529247771817084 -0.07803953792228437 -0.3761311584605584 174 184 182
0.8331753364125825 0.06756031654085369 -0.3867201476923907 135 132 135
0.8351319359962772 -0.026203767765616098 -0.38230783049631223 178 178 180
0.8583420277263784 0.07636567319709724 -0.38452181446919803 33 34 35
0.8644905223176087 0.06660455065346504 -0.38462390225946796 179 185 187
0.8330387942866101 0.021130947147629475 -0.3861885369273269 129 129 133
0.8328832833160092 0.004086119841240259 -0.3861152678911424 144 140 145
1.0775090279218513 -0.02213476708607832 -0.3779001483441888 75 72 77
0.8333358510931562 -0.02283244051087644 -0.38523209261511926 120 122 121
0.8914917080822966 -0.02895166624205369 -0.38215968430279634 163 169 171
0.9066972521820514 0.10948430928077733 -0.3841864871343215 42 41 43
0.9583105538050942 0.09438426774155731 -0.38150863524252027 43 33 25
0.8855433720569438 0.019054765119133003 -0.3834944150648573 34 37 38
0.8855359235090552 0.019072820569753773 -0.38341978238780844 34 37 38
0.8645080048614204 0.0036222630268048493 -0.3841595579229967 192 195 196
0.8645080048614204 0.0036222630268048493 -0.3841595579229967 192 195 196
0.8645080048614204 0.0036222630268048493 -0.3841595579229967 192 195 196
0.944633751909656 0.11478203812975536 -0.3954533340598161 39 47 48
0.9520148691913641 0.08372642248886936 -0.3910275810047921 41 47 46
1.0104429995981044 0.05128377007768015 -0.39166838454237035 59 69 76
1.0941372687611408 0.018095838208968602 -0.39463095698469036 139 147 146
0.8817818256115526 -0.07622011437981754 -0.38975324889054924 25 25 27
1.1047557086446855 0.08349411827164333 -0.39614750334180876 112 115 114
0.8615691979575636 0.06667236562486921 -0.3867983807562488 47 32 23
1.1080887639870314 0.11565214802137826 -0.39540307989319695 132 140 139
1.1025641185761934 0.07755892930722876 -0.3933918580475602 112 117 118
0.8941015265574872 0.046486944326909405 -0.3961541287207242 29 32 35
0.8552374987918149 0.09004285747571103 -0.3859301190745358 29 35 35
0.8336491711137556 0.05537943066271864 -0.38647047926555783 114 114 114
0.8335080430492027 -0.022873698473816876 -0.38684744672736693 120 122 121
0.829891426713951 0.12574399745887438 -0.3864894311636168 195 195 197
0.8295915505607597 0.12059506075017709 -0.38461296850846655 195 195 195
0.8328497921786379 0.0392507379552693 -0.3868453196474086 182 184 187
1.083771295785169 0.027565056928403966 -0.38359169502872087 145 151 151
0.8306993874657291 0.024456472117510952 -0.3874684026828339 178 184 186
0.8854920227889377 0.01954063884347442 -0.3839304604315514 25 28 29
0.8333853108983922 -0.03408921159580708 -0.38696874378759555 176 176 180
0.8897112392303257 0.03122353345684017 -0.3835207695671621 83 65 63
0.8562606303620767 0.0263444625780426 -0.3937115111975612 34 39 39
0.8896778748224303 0.019865465260023356 -0.39617624076340496 36 38 44
0.8896771993897119 -0.012364263363967388 -0.3966774943242887 199 202 205
1.0913171670227397 0.11273834480481604 -0.3986163002885742 133 140 134
1.0798707241916246 0.10426982003592315 -0.39357713496689817 196 199 196
0.9563410584204587 0.08589044429112813 -0.3996497896612738 44 51 54
1.0949532937010422 0.008545030862686827 -0.3983175640642901 111 114 113
0.9055370748581476 0.007189106496972102 -0.4037963193119632 25 31 31
1.0994325321236857 -0.022611785349251526 -0.39636899753913046 100 103 102
1.0994325321236857 -0.022611785349251526 -0.39636899753913046 100 103 102
0.9086417852542231 -0.08548236060420496 -0.3963469962136801 44 44 40
1.1087674275648907 0.08188863580108134 -0.3977907981074324 138 147 143
0.861664604032943 -0.0010745388965518275 -0.3969132055625731 35 38 41
1.081822964647726 -0.005133048374913876 -0.39583793363037606 193 198 196
1.1040610224449454 -0.013484405433416159 -0.39607932598899787 142 149 148
0.890748690100081 0.031698016632832206 -0.3874397862174101 94 86 80
0.9292926382119874 -0.05432993862174751 -0.38065664571464836 166 169 169
0.9830884036328459 -0.06486463108300224 -0.3807870319275545 32 35 36
0.8798318515558781 0.019411694741709243 -0.38524855516390033 190 196 198
0.883896187285438 0.09153358020804035 -0.39888748336930074 31 32 29
1.0963306342617845 0.09765347654584366 -0.398660535591775 122 126 127
0.863472607838993 0.06591851440438587 -0.39834144346433886 201 202 206
1.0970962389776309 0.04735918259570007 -0.4028132549653912 156 162 163
0.9742014859227414 0.03372570514729868 -0.39579672947953853 190 200 203
0.88421050930859 0.02064170802475336 -0.39920726191966566 197 200 203
1.1042298637274848 0.03298966299239874 -0.40081527011951795 151 160 159
0.9556705942141062 0.021117524032671184 -0.39769340005988296 46 51 54
1.1142946042529456 0.027304638855895694 -0.39786153009954645 128 136 135
1.1125605122814441 0.01478811353279751 -0.39730363395343793 95 102 103
1.105579364413392 -0.0014949925757442163 -0.4000194823900957 154 162 159
0.8904050858430662 -0.012073381721730853 -0.3988561603258499 192 194 200
0.961282763549314 -0.01735646548355375 -0.39656249625824036 198 205 209
1.1092105148611515 -0.01723957921066645 -0.4008335332937236 141 149 150
1.0090875693826438 -0.0647186153812787 -0.39646796840975035 187 198 196
1.0090875693826438 -0.0647186153812787 -0.39646796840975035 187 198 196
0.8764431363393619 0.047088427776593784 -0.37624337940573876 33 33 35
0.8764431363393619 0.047088427776593784 -0.37624337940573876 33 33 35
0.9032820546811232 0.04375612833201618 -0.374435386142254 41 38 42
0.9573905190766537 -0.05646184760958213 -0.37624888905895226 39 47 46
0.9605944224020031 0.029247968017108553 -0.37189217584829987 202 202 204
0.947365975006765 0.02716801200023089 -0.3726323187613906 49 55 57
0.9428627248399735 0.02262166086219878 -0.3730199780620803 203 203 203
0.8678653523147334 0.10423354306226609 -0.39239792207463087 26 31 30
0.8709298854450314 0.061603899723450255 -0.38801149681060193 33 39 39
0.8813050248029938 -0.039448248240511685 -0.38969747092406676 32 35 36
0.8872975793246038 -0.03961881740763283 -0.3898378661751426 189 195 197
0.8870787450870321 -0.07136400201418198 -0.38750811351126385 30 35 36
0.9497130326761092 0.0358007500879607 -0.35909898517423583 48 51 50
0.9360707063151682 0.013268301265040073 -0.35940887371955205 40 48 50
0.9360707063151682 0.013268301265040073 -0.35940887371955205 40 48 50
0.949733100973478 -0.028740152327544247 -0.35953702737007337 51 59 60
0.9609183739036743 -0.07427965518324375 -0.3596365373241747 188 194 194
0.8788585653142914 0.049221897371516825 -0.3649615073319786 34 37 38
0.8793035626984366 0.013771558871359791 -0.36598339923903417 35 37 43
0.8793035626984366 0.013771558871359791 -0.36598339923903417 35 37 43
0.8659386358437744 0.05517760175957708 -0.37122036576709305 30 30 32
0.8746930924289005 0.05042077161565319 -0.37051888184481396 184 187 188
0.8744799442336355 0.044103303121739976 -0.37008651592474096 32 31 33
0.8744799442336355 0.044103303121739976 -0.37008651592474096 32 31 33
0.9398577069996388 -0.009884220302299816 -0.36676814257294216 34 42 41
0.8311691854930777 0.11380069051166844 -0.38037012053959235 191 187 187
0.8318798683609016 0.04422791727718753 -0.38173517996862166 137 133 134
0.8310784490823975 0.04207903603178081 -0.3790213131148798 171 174 177
0.9633235023695602 -0.0901617462173923 -0.3759253033354671 38 36 38
0.8898338894575647 -0.09290498427620177 -0.3755291266981022 149 153 148
0.8287457633321308 0.08985487683857822 -0.38099226208677456 186 186 186
0.9144222834734187 0.08659304156205763 -0.37911986468666187 26 32 30
0.8311591033150211 -0.022055807349869457 -0.3778676505137293 152 162 161
0.829206856051051 0.07694878973426006 -0.3821173031828406 181 187 187
0.8457633668815505 0.05909869122384861 -0.384662194204578 179 185 183
0.8888936273149569 0.030807565665971415 -0.38333748443809784 41 33 26
0.8888936273149569 0.030807565665971415 -0.38333748443809784 41 33 26
0.8335659752896706 0.11072690500828175 -0.3925538695518097 136 128 131
0.9100038688485433 0.08183726041810685 -0.38489425840544694 28 31 32
0.9100038688485433 0.08183726041810685 -0.38489425840544694 28 31 32
1.002766683420016 -0.03672092758495262 -0.38005717222230934 61 71 74
0.902730846093509 -0.09568902720216918 -0.3770875392097357 17 22 20
0.956599512682314 0.043814682948588396 -0.3849223409940123 184 188 189
0.956599512682314 0.043814682948588396 -0.3849223409940123 184 188 189
0.8317162217417474 0.07245520298095716 -0.38524206708664643 187 187 187
0.8293545790139785 0.047889813580792834 -0.3835695198934782 179 182 185
0.8333388493462497 -0.032982417825757226 -0.38525434110958523 89 81 86
0.9857144352341108 0.0806804871533635 -0.3877753986960247 61 69 70
0.8290862702871376 0.047541053463228115 -0.3815552754952985 176 182 182
0.8328754960136051 0.047888072895058545 -0.38373773113983156 173 175 174
0.8328453164820087 0.009181114048065483 -0.3831380556501135 160 160 160
0.8314051643838979 -0.012319657553155717 -0.38365205672586955 166 167 163
0.8326497385585208 -0.01521785706887211 -0.3863696574617237 162 168 166
0.8318786000504319 -0.016097599579279677 -0.3835557918631798 160 163 164
0.8322022225425708 -0.02364620265196971 -0.3869722117495814 128 128 128
0.8334372425552237 -0.028804932556874482 -0.3877428437368911 99 98 98
0.8297446055292851 -0.030617744001632436 -0.38708261620629997 165 168 167
0.8676132096248321 -0.05805305214670183 -0.3908205682908762 161 161 161
0.940087472318378 -0.06577753339611458 -0.39042758124743604 22 25 24
0.8310819666250754 0.06191770304736891 -0.3820700921231537 189 187 188
0.8531432270823173 0.0490722279647055 -0.3834900618299439 28 31 32
0.8313654899699143 0.04313142513833198 -0.38317533329699816 171 174 177
0.8333723718097185 -0.012711242910463648 -0.3832661294423749 168 168 170
0.8330099602288081 -0.0260272850165659 -0.3883233598163395 160 160 160
0.8326435519135362 0.0980855811661363 -0.38292238756232666 190 188 190
0.8319340677310657 0.03709104097881196 -0.38180134535899396 114 113 112
0.832474388381175 0.03613416282314195 -0.38155497286506784 177 176 178
0.832600954319734 0.02810385997828118 -0.3828754984791808 107 103 106
0.8305674005746689 0.025482806918220295 -0.38234004879573935 143 144 146
0.9870837565893048 0.01375969561498884 -0.38735810571221146 48 61 60
0.8926422791840916 -0.030012560973188593 -0.388418403671531 157 164 162
0.9300247174520414 -0.06420248102720062 -0.38839219967087146 149 155 149
0.9300247174520414 -0.06420248102720062 -0.38839219967087146 149 155 149
0.8841088516340879 0.0822675954002052 -0.3846437765200307 21 27 29
0.8783065100291222 -0.07508852813340479 -0.379760225033442 17 17 17
0.9151211746747369 0.11194304802225787 -0.3811172063770346 27 33 35
0.8308185831831968 0.07955120055067569 -0.3831749555139918 182 182 182
0.8291577808526762 -0.02378775381853212 -0.3811498602670687 159 167 168
0.8328061588684309 -0.025494113255471403 -0.3801397816117842 110 116 118
0.8292661569987408 -0.02604723209894528 -0.3787554050684332 155 166 166
0.9050992098230554 -0.03503031528534137 -0.3779132975241075 18 24 22
0.9344315067410153 0.010071357893324256 -0.38819904072214495 179 185 183
0.93295730107145 0.009925025619502566 -0.38483461972773014 173 179 177
0.93295730107145 0.009925025619502566 -0.38483461972773014 173 179 177
0.85859566076664 0.061395391871020985 -0.37960552429631667 198 198 200
0.8316876964859201 0.06231707040737297 -0.3817374900255481 121 120 116
0.8838812113734591 0.024284223458240158 -0.3819228519741668 167 175 172
0.9418536898737006 0.024601780313825705 -0.38256733590803205 47 55 54
0.8309030137042063 0.004638138019388371 -0.3801143114125698 163 170 173
0.8317381383156419 0.06297349414355112 -0.38485460952331285 171 170 174
0.831568816224177 0.03273622248127673 -0.3844161358952727 189 189 189
0.8321065505161478 0.020621911556348873 -0.38600361077133666 107 106 110
0.8307696985290519 0.014720283957776529 -0.384896732554519 122 123 125
0.8310378815750837 0.0032834234600224287 -0.38566507698622987 115 114 114
0.8300027101695305 -0.00022425766430663233 -0.38662858749677587 168 173 175
0.8331840004548786 -0.017090090056817886 -0.3877294299238952 166 166 164
0.8308187951434105 -0.02055227527428268 -0.3838660540606429 122 126 129
0.8332754371585834 -0.024072213802570214 -0.3878517021969964 107 106 108
0.8332754371585834 -0.024072213802570214 -0.3878517021969964 107 106 108
0.8977699443082018 -0.03266684250326246 -0.38943415045160684 155 161 159
0.8977699443082018 -0.03266684250326246 -0.38943415045160684 155 161 159
0.9454765645441071 -0.04495374678890422 -0.3907261735485169 170 173 172
0.8333694734287057 -0.036561215262034416 -0.38722928635311393 116 116 118
0.8333694734287057 -0.036561215262034416 -0.38722928635311393 116 116 118
0.8315325903150916 -0.037218486357881705 -0.38383693179334577 111 110 112
0.9421131798666923 -0.06292549763558579 -0.3942981921371345 19 25 22
0.8869661645917418 -0.07208509782219083 -0.39196486346363435 20 24 19
0.8633101826887314 0.07485238596294451 -0.3840917698664362 184 187 188
0.8789463763114512 -0.006461285069183445 -0.38527903573050165 160 166 164
0.833131357194794 -0.014444203573051545 -0.38530317622950844 111 110 110
0.832884566539786 -0.029110010582500952 -0.3864897836290463 168 164 165
0.8304615954750382 -0.030138627769436363 -0.3863778768716783 132 132 133
0.8304615954750382 -0.030138627769436363 -0.3863778768716783 132 132 133
1.0089154850893627 -0.0017947609258477926 -0.3953984730487007 54 60 62
0.9082513180945869 -0.018673146042041937 -0.39382588859535267 28 31 32
0.9947875721618207 -0.06639577131050638 -0.39653763499705524 199 199 201
0.8330906683825837 0.1320450248445594 -0.3854293037921718 195 195 195
0.8311901724424484 0.09647567752616686 -0.3836880664201285 128 125 120
0.8325977184826501 0.08982469447680491 -0.38226389512935355 189 189 191
0.8522317698034007 0.08673837445140282 -0.3792947156421368 25 29 28
0.8307678590227592 0.08355934180147169 -0.38289435373541636 191 192 194
0.8294966823011273 0.08050083586602444 -0.3844004469759562 185 188 189
0.9425723357535907 0.05098729169647817 -0.38560726738837175 32 38 36
0.8312315049802048 0.047765391539052 -0.383286670523667 181 181 183
0.8307974277418391 0.02428670788912754 -0.38418891147343875 115 116 117
0.8307974277418391 0.02428670788912754 -0.38418891147343875 115 116 117
0.8330332031377491 0.02170757040635992 -0.38505574974991136 173 175 176
0.9110134676017159 0.019588325879852 -0.3856355514182302 25 25 25
0.832377140899205 0.0055379454970434176 -0.38602802488127236 128 127 131
0.831295601688206 0.005059679670550389 -0.3829831409449127 174 176 178
0.8680649424509892 0.0004267846611438329 -0.3852804625317416 25 25 25
0.8310921814178514 -0.013279706957941511 -0.387135422331134 107 107 107
0.8539955252857321 -0.03882447956277948 -0.3892596073915867 20 23 22
0.9705118395416015 -0.09777189024970306 -0.38349141575793866 41 47 47
0.8288148149357686 0.06855049774539214 -0.3836636959351197 186 188 188
0.8338089447351394 0.010118529125643497 -0.3838025046508382 172 175 176
0.829926723975821 -0.0034745150543408487 -0.38552963793961414 127 127 129
0.831085775022365 -0.010108435969825162 -0.3843775452104777 108 108 107
0.8301352110356924 -0.01267616591429235 -0.3858071695176164 165 167 169
0.8326840976929256 -0.025818531020099185 -0.3863983761456868 170 176 178
0.8316026957096184 -0.025661606901200378 -0.3856721022694766 160 160 159
0.8317548924604817 0.04080063624697392 -0.38519749663911934 129 128 131
0.86006473101604 0.011793567704297497 -0.38490921783027626 167 173 173
0.8331365545892514 -0.016773247272855653 -0.38525931707035915 164 164 164
0.9977124961697881 0.03829160150049155 -0.3882104262370831 57 65 64
0.9433024289092106 0.025246687253119317 -0.38769824305360057 32 40 37
0.9192443239019709 -0.013267777043900952 -0.39183718579629667 34 34 34
0.9592815181876779 -0.035721428886636854 -0.39238517170566417 44 44 57
0.9567019650214927 -0.036813158317583056 -0.39388231436751237 41 44 47
0.9899367704615156 -0.06949093746181344 -0.39379317588148866 41 44 47
0.9862769329536278 -0.07871107534392963 -0.3934330608722235 37 40 43
0.9174901864332774 0.11235563409288099 -0.3837317031199863 31 34 35
1.0037767678994234 0.05019069591165397 -0.38206784134800215 58 69 69
0.8317472249425932 0.04006538577093015 -0.3834433766522055 176 176 178
0.8319190637302486 0.04035429253377909 -0.3849423799166563 176 176 178
1.0022958292467965 0.025349994067546306 -0.3797624419767104 66 77 77
0.9723005280135323 0.024693524355575418 -0.3811195778698112 181 187 185
0.9103506181088251 0.01943375700672526 -0.3834468576806246 21 24 23
0.8846108750271239 0.018969085830477187 -0.38407031294926225 23 26 27
0.9543463156982179 -0.03099307205105572 -0.3822157417684994 176 184 183
0.8325081361519178 -0.025815767651245897 -0.3843959216731739 170 176 178
1.003082005742756 -0.03731736692317593 -0.3805488165823529 48 54 54
0.8309296105552741 -0.028294862112193914 -0.3827934124807935 108 108 110
0.9161467424925814 -0.0437582559737669 -0.3832833625799576 157 160 159
0.8313195174823435 -0.038847726016467035 -0.38531083109368425 88 87 89
0.8955830325078269 -0.08317797678819278 -0.3835105687971285 23 23 19
0.8771065638254827 0.11274881197582712 -0.3873060978466667 26 29 28
0.8316359862802726 0.0362396482959193 -0.3849382365272361 117 113 114
1.000872580080691 0.034230155158217035 -0.37951509893729723 58 69 69
0.8321123130620872 0.02437604356695017 -0.38479628387286235 116 112 115
0.8321071499412586 0.02445267168864135 -0.38498726906097747 116 112 115
0.8328985351017946 0.009133039640580314 -0.3846806536878386 169 167 170
0.8330903423116897 -0.013749385813300883 -0.38461573843653585 162 165 164
0.8312739698693783 -0.004895351448981024 -0.382194679206409 179 179 176
0.8318749915019932 0.11025341564382762 -0.3822372279776753 190 185 188
0.9924147055911112 0.07601263864903306 -0.3801929627273122 65 73 74
0.8313715737698871 0.024817873836873665 -0.38278445045776294 176 176 178
0.8312640996561735 0.03403277459480027 -0.3832815180808565 178 178 180
0.831844986482918 0.0273772437568116 -0.38386528045988727 174 174 178
0.8319147022887146 0.024294635600243728 -0.38365265830152273 116 112 115
0.8309125156001482 0.012985026748749564 -0.38428342111472213 112 111 114
0.8309125156001482 0.012985026748749564 -0.38428342111472213 112 111 114
0.8308136673921573 0.009594819156082785 -0.37774137009301695 175 175 177
0.8324240123919219 0.008259075031348892 -0.3844728930887676 101 95 99
0.8314774053706386 0.0024217764561691325 -0.38279168378990286 177 176 178
0.8322729781877566 -0.010410710564456563 -0.3859586559592014 106 105 107
0.8321337114267354 -0.02204459537891694 -0.3876207608374939 161 164 165
0.8636417223883633 -0.025592410096515573 -0.3862422556325739 18 21 20
0.8334881121401078 -0.03531831245900777 -0.38843725756037045 121 117 120
0.8330014616985799 0.0706932310113434 -0.3845470033163113 125 121 122
0.8780069034914367 0.01879722225400172 -0.38126005925064943 167 170 169
0.831754518968731 0.001766525582698368 -0.3812914467244317 108 110 118
0.831754518968731 0.001766525582698368 -0.3812914467244317 108 110 118
0.8312101874458313 -0.0026023917216752485 -0.3819595888681124 161 172 172
0.8968757755903591 -0.023136665665806407 -0.3801717629523587 154 165 162
0.8317621972229964 -0.023221834780650114 -0.38197463878268034 135 132 133
0.8291403504298286 -0.023121729380349426 -0.38128284610028473 167 170 171
0.9595351854304534 -0.056729055505287625 -0.3809984452979459 29 35 33
0.9155950121679716 0.11231618796175176 -0.38160839160055515 33 36 35
0.879291683369837 0.08842504045292514 -0.3859805003721567 27 27 27
0.879291683369837 0.08842504045292514 -0.3859805003721567 27 27 27
1.0805988677626897 0.03888141451101824 -0.38476351422578015 119 123 118
1.070604558420433 0.034800295681418 -0.3782813878376171 120 126 124
1.071357757193553 0.02285858317808824 -0.3822165610033785 114 117 116
0.8325725535427384 0.0048255632786270135 -0.3852526807574264 132 129 126
0.9889047707214265 -0.0022169244752744946 -0.38028323597724933 55 59 59
0.9107962989116983 -0.043520896843565825 -0.3838592400774619 20 23 22
0.9821159527958778 -0.06574843465122374 -0.38032034239977874 41 49 49
0.9513203576468815 -0.07830843838468333 -0.38183731102714025 29 34 36
0.8327500405009362 0.10614350708605769 -0.38342800794379406 146 142 143
0.8308837323374104 0.10086579972191517 -0.3835683571508221 199 194 194
0.8309744922281049 0.06498301730022818 -0.3809104649701566 184 184 183
0.8834472846922328 0.055043666915485616 -0.37976727741470134 24 27 26
0.9145139713591828 0.049713450808312444 -0.3802940819751446 28 31 32
0.8743255263499704 0.014731598951751194 -0.37985214524237754 22 23 19
0.8743255263499704 0.014731598951751194 -0.37985214524237754 22 23 19
0.9140612521956025 -0.01237412844431268 -0.3789422957617628 24 30 30
0.9140612521956025 -0.01237412844431268 -0.3789422957617628 24 30 30
0.9527191161091266 -0.030917041573429418 -0.3792433818109274 170 177 175
0.9083898042279254 -0.03828930257013023 -0.37847280486357077 167 177 170
0.9595361504915492 -0.09274748118839779 -0.3778180772076044 32 37 39
0.8318877543873215 0.07994182791567006 -0.38341592814811654 129 128 130
0.831279146410932 0.06214689195499684 -0.3833559089789171 202 202 206
0.9777221351128593 0.02454779550009774 -0.37951464087330755 74 82 80
0.9777221351128593 0.02454779550009774 -0.37951464087330755 74 82 80
0.8312291160327887 0.07122472325133257 -0.38074713318565756 192 190 193
0.8318599341808659 0.029628389364124815 -0.3835897144230592 183 183 185
0.8291921114225288 0.0709372206419167 -0.3807950543012983 178 180 177
0.8309639656735399 -0.02833160768280941 -0.38282095865181404 120 124 124
0.8311420365768607 -0.03117859969655391 -0.38289437768020385 156 163 160
0.8308049106582182 -0.035474905556145006 -0.3836891757721583 174 180 179
0.8291490600471905 0.07641305145079177 -0.3869626048004636 202 202 204
0.8599064241634968 0.004539922167823348 -0.38244576204921926 192 192 193
0.8328977520801519 0.0803612285825724 -0.38239338458130595 200 200 202
0.9990346301002645 0.013643427560369863 -0.38061862853919143 68 74 72
0.904975917591751 -0.017382111138042153 -0.38336154666200345 28 31 30
0.9528938538782212 -0.030830675598029884 -0.3795896057655693 200 200 202
0.8297711505875521 0.07184743256029935 -0.38203014740937496 197 197 198
0.9297518597867144 -0.055069049526986755 -0.3832184864413084 166 174 171
0.8281721088395152 0.07415840452404564 -0.3809656995570782 183 183 179
0.8290806333907088 0.06980682535900506 -0.38043222756628065 181 182 179
0.8305163226506099 0.06890465125408096 -0.3805588279724794 176 175 173
0.8290573829496685 0.020455684623377428 -0.3809409646557918 170 174 173
0.8312597300161501 0.00871727606611317 -0.38145796859905795 161 169 169
0.830612320687655 0.008022890962721173 -0.3819063922531152 109 114 116
0.8306411042398952 0.0006245973078452826 -0.38204271807046836 117 123 125
0.8307553036637502 -0.0183895987996527 -0.38180778782034025 110 113 112
0.9524971287174895 -0.03353192639590965 -0.37912500185410974 45 44 46
0.9374313326230244 0.07756618315715048 -0.3883629875274966 198 204 204
0.879552645318246 0.050501356589609935 -0.38730667134848407 29 32 33
0.9094728291581281 -0.007044375347477158 -0.3826810121993249 32 35 34
0.9481534389398106 -0.006133347115307828 -0.3815632437680894 41 47 47
0.9704751851713851 -0.006696537706218254 -0.3790662865698989 56 59 62
0.9087649772282357 -0.03842899975625992 -0.3809783868181127 184 187 186
0.8311096884541957 0.07219880531787676 -0.38436689215939635 203 203 205
0.8332061173213517 0.04336698826595434 -0.3792541277464977 199 199 201
1.091214791807711 0.07502243814882502 -0.38587446183860147 121 127 125
1.0986299525230991 0.05615246993208311 -0.386146233971322 109 112 111
0.994712184433871 0.028105914183323973 -0.38453896320711595 71 82 81
1.0878624317994043 0.0391864829835835 -0.3862886845979695 130 132 134
1.088469885123244 0.03112241604570728 -0.3855957363145376 107 107 107
0.8786649893604647 0.024782420891588268 -0.38366102295849186 25 31 29
0.8551046652865713 -0.038879200402802495 -0.39286907472764027 23 26 25
0.8818200162969974 -0.04553184734661803 -0.3936021104716002 169 169 169
0.8669160129196611 -0.062060028446761756 -0.3964150945956575 166 166 166
0.9147478907340012 0.10834927066483613 -0.3750987638194937 32 35 36
0.9924939008611705 0.08289655332372789 -0.3643662944409468 65 73 72
0.8874285406377292 -0.017549229165969064 -0.37628087489325257 30 30 30
0.9665454307500695 0.027445667883993885 -0.3774255950795474 59 69 71
0.8718591080527832 0.07435198697163006 -0.3809188764331548 29 35 37
0.9918393927765558 -0.011720213695005364 -0.3651130675256895 63 69 71
0.9518777872756733 -0.022339147457383825 -0.36985607824894995 198 201 200
0.8313941579790765 0.10972171536912205 -0.3827482025359584 148 145 142
0.8313941579790765 0.10972171536912205 -0.3827482025359584 148 145 142
0.8321697582876401 0.08343832741800485 -0.38576182728571584 181 181 180
0.8320302536087418 0.0628361975152959 -0.3834707686648471 121 120 116
0.8320302536087418 0.0628361975152959 -0.3834707686648471 121 120 116
0.8294222184861586 -0.0035421470332035504 -0.37735304818928866 155 162 165
0.8298103718831195 -0.01596853861213864 -0.37788738594677584 133 132 135
0.8298103718831195 -0.01596853861213864 -0.37788738594677584 133 132 135
0.8312922111482737 0.03630093389829138 -0.37783147568260844 122 119 120
0.8326756992945861 0.03768702201334022 -0.38405339654089293 117 117 117
0.8837629308694356 0.08042953200093059 -0.38038765765230864 29 32 33
0.761949708975417 0.099765308832602 -0.3879863598944632 21 19 18
0.7620072481055963 0.07904518944602276 -0.3909880288058764 32 28 30
0.83252310432786 0.12181972841532529 -0.3876413060020694 182 178 179
0.83252310432786 0.12181972841532529 -0.3876413060020694 182 178 179
0.8316504317958622 0.10858404363641021 -0.38549973366170087 182 178 179
0.8337121926531492 0.10754579331570106 -0.3867894482454546 136 134 130
0.7718180148609608 0.09816788471813248 -0.3820236305449574 21 20 14
0.7669548305175545 0.06721332781352403 -0.3821719476259822 25 25 21
0.7681028893388204 0.06424203108881867 -0.383276226627039 55 58 53
0.765693014119236 0.08175720684177006 -0.39437468509088025 31 31 27
0.8331551761722358 0.12398834865319794 -0.38714690616762787 128 122 124
0.7713786691592981 0.07642443890685303 -0.39385825661039053 39 40 39
0.7628396393392304 0.06999842792108005 -0.3929994147060778 52 59 53
0.7646834403210804 0.04094017230877145 -0.39244580486470937 41 38 33
0.7644106425441833 0.03580526141316528 -0.3919980738888717 33 30 27
0.76659482876247 0.02379237788601561 -0.3914506471376764 56 56 50
0.8312044786318039 0.05983748674968987 -0.38558296172090323 143 142 142
0.7675644477817793 0.01982541730016253 -0.390295979533162 26 26 23
0.8301688317674645 0.05301816397038389 -0.3848611167892389 176 176 177
0.8800576833575877 0.056887151893541224 -0.3868018000534801 173 176 175
0.9177022129501182 0.051789278404897596 -0.3864107500530346 31 37 37
0.8859955636385977 0.020205940302262745 -0.387217167147364 24 27 26
0.8346440781240914 -0.014763507226448794 -0.3842935113270009 164 170 170
0.9859155277850294 0.04361788801576929 -0.38522378435686977 56 67 66
0.8313458954817181 -0.03000513077090846 -0.3874577008009716 129 131 130
0.8828522769827731 -0.07672008488466807 -0.3923177299430515 17 18 14
0.8332335271412072 0.12414464925552052 -0.3875327760985226 146 140 142
0.7667385906414929 0.08233764466200677 -0.3894776803988206 53 54 50
0.8326728505344428 0.10661571799191656 -0.38751601268377217 190 192 194
0.775995646224511 0.07643268048220557 -0.39338959984957017 53 52 52
0.767802988493276 0.07319506579442668 -0.39345889510751253 55 59 54
0.8322882980302969 0.0906067890853785 -0.3867740587068821 125 125 128
0.7753171485694559 0.06679330702563475 -0.3916461750925276 20 20 16
0.7684456079608881 0.06136903662272677 -0.3946937507669532 58 57 55
0.7690718870593205 0.05803290538008779 -0.3919207139362458 61 61 59
0.7690718870593205 0.05803290538008779 -0.3919207139362458 61 61 59
0.7696924268228688 0.053581739145182924 -0.3941790829523326 64 65 61
0.8617093467872072 0.0753321733213234 -0.38626094183730775 38 31 24
0.7677386346040792 0.04145445439237724 -0.39202977479102624 47 48 44
0.8726909500057453 0.06741646095333642 -0.3854596493458452 176 184 185
0.8326523382358306 0.03673033653722476 -0.3862776788311721 107 112 119
0.8332979217960241 0.024821645399370824 -0.38606232628327736 113 113 114
0.8326210313208662 0.005470290213141809 -0.38539134066706204 176 182 183
0.9316949501560934 0.009562723715328871 -0.38343648848489725 188 191 192
0.8330693943336952 -0.01730787154366643 -0.38638039354445736 171 176 178
0.9862289015268698 0.005629182075222988 -0.38090678632270414 187 190 191
0.8336822823104898 -0.03898996194839885 -0.3859614612691118 169 173 174
0.8328059537938631 0.04689460483655531 -0.3870468908151114 137 140 139
0.8734931350329527 0.0130886702495575 -0.38443710979458756 21 24 23
0.8329296258598478 -0.030885497455543188 -0.3867842664254515 165 171 169
0.9528266357892452 -0.016104425168896666 -0.3806661834672821 85 93 97
0.9163568635341599 0.11297452282241638 -0.3822313093775827 40 43 44
0.9162050439589275 0.08238193547308897 -0.38290937844369316 186 189 188
0.9254883617271757 0.06719853189829329 -0.3822828893816716 187 191 190
0.8329026055133799 0.020528213472162965 -0.3848417630821144 152 150 149
0.8341689535108094 0.0207812714917903 -0.3851106761598864 177 174 172
0.8537967109583269 0.025170759058196414 -0.3837832030103166 27 33 31
0.8963564057787775 0.03624395129288677 -0.3834765803578287 175 180 179
0.8667478396367235 0.014041405850425815 -0.38366178207277485 25 28 27
0.9866872217781025 0.03814138297316818 -0.38073658075992795 75 83 82
0.9415980944000433 0.02027990784868451 -0.3815366475204462 184 190 188
0.9735111058616812 -0.006048839984408945 -0.3806437237985687 54 62 63
0.8547672139802522 -0.07483753350654178 -0.38407660522651454 20 23 22
0.8649848762903587 -0.08844962688151475 -0.38196269063124405 17 20 19
0.8649848762903587 -0.08844962688151475 -0.38196269063124405 17 20 19
0.8768789011217364 0.11169233277576618 -0.3835455784819774 28 32 32
0.8336463133040909 -0.0285452393177764 -0.3842738480940134 168 171 173
0.9406532120380501 -0.011444436513536126 -0.3797798815861457 39 45 47
0.9351804423407232 -0.049058571635700765 -0.3804219632578027 172 183 183
0.9351804423407232 -0.049058571635700765 -0.3804219632578027 172 183 183
0.8326859495303006 0.10097385219146297 -0.38706469039942343 181 180 179
0.9346000444415932 0.012978601056693522 -0.3811090871989293 178 184 183
0.9346000444415932 0.012978601056693522 -0.3811090871989293 178 184 183
0.8354589725576845 -0.02787944107045511 -0.3848024616523764 165 164 163
0.834303265776786 0.08038474923177127 -0.38890369722287055 181 184 185
0.8348529743163022 0.07353491858832921 -0.38851180009263103 186 188 187
0.8348529743163022 0.07353491858832921 -0.38851180009263103 186 188 187
0.8609644813825871 0.06356187327425872 -0.38675046761245413 177 183 183
0.9720364875657616 0.057045645565163526 -0.38072920928862414 65 73 74
0.830921817817892 0.021396599288756427 -0.38705494681732333 173 181 182
0.8333852244739134 0.09808221232966109 -0.38701795845373166 190 189 190
0.879460974422426 0.08829539712388686 -0.3859682614668395 31 34 33
0.9380832068401773 0.06018350902855826 -0.3824883884778408 47 55 54
0.832452738901981 0.03761726117069609 -0.38651842985318274 176 182 189
0.9073179161667977 0.028864689000700293 -0.3841253424143357 35 38 39
0.9107574521057202 -0.01146961858096767 -0.382999948955603 168 174 172
0.8742401286710385 -0.04828035170543224 -0.3840566431261176 23 26 25
0.8742401286710385 -0.04828035170543224 -0.3840566431261176 23 26 25
0.9727772405834837 0.05146614352692244 -0.38148667235488587 191 191 191
0.8983431770539149 0.006820301671243426 -0.38392754477976415 18 24 22
0.8328557724928483 0.005504792677038933 -0.3862977844349414 176 182 183
0.9106919368544447 -0.03717183393699841 -0.38219300097508674 182 188 188
0.8856488436950153 -0.07392644011685408 -0.3826386018502863 181 181 181
0.8856488436950153 -0.07392644011685408 -0.3826386018502863 181 181 181
0.9413222870509544 -0.09869393985438503 -0.3804220627805825 32 32 33
0.8256199210430035 0.16938435326504092 -0.3935718917789951 22 22 18
0.8331386849027922 0.106894850942194 -0.3889709118752737 190 192 194
0.9389380122463783 0.11187573082138424 -0.3871531249492428 33 39 39
0.8854431577731329 0.08220672157439728 -0.3856803246396964 31 34 35
0.9771647636691937 0.02586361521761006 -0.376731758100105 32 40 37
0.972534691742719 -0.036732927096284014 -0.37930139848259253 184 190 188
0.9416159166722997 -0.07363548573836559 -0.3803751124951447 21 24 25
0.9658175869900563 -0.08032715770759308 -0.37984742731055215 164 168 163
0.9887664250237973 0.0012824671275995568 -0.3789971402730854 187 193 191
1.0842619998020238 0.10200642713259145 -0.3851030822145127 91 90 92
1.092194529875148 0.10063693465907739 -0.38403576855560034 103 102 104
1.096003188882483 0.09745503697419998 -0.38381469349650055 108 107 107
1.0930156283626506 0.09455621170959902 -0.3845042378570337 107 106 106
1.086583557499983 0.09024722785338925 -0.3830096308440499 169 174 174
1.0976819433216642 0.08971536981119241 -0.3821149117292973 163 166 165
1.091072703190558 0.08851156644758526 -0.3835878269610913 169 169 169
1.0954869988817153 0.08831144861112024 -0.38296998496998597 91 91 93
1.0925736846084595 0.08544882314987645 -0.38054622322947745 157 160 159
1.090993473917884 0.08550274589130594 -0.3833928381478558 166 169 169
1.0972265126638165 0.0811467560414278 -0.3833340424707762 107 106 107
1.0972265126638165 0.0811467560414278 -0.3833340424707762 107 106 107
1.097457855734942 0.08094363185521444 -0.3863912117479382 172 177 177
1.0798379876648945 0.08025611699444068 -0.38452869373889825 98 99 95
1.0943284454296802 0.07641132738156141 -0.38197154243424514 165 170 170
1.0877012738070413 0.073055919161553 -0.3844099312915228 109 109 112
1.0934621483910414 0.07083216238168671 -0.38316501509280837 112 112 116
1.0912324263194324 0.07103084715811976 -0.38479679514343157 166 169 170
1.0986295020406935 0.06449695488408208 -0.38353800005188654 111 114 114
1.095078125282555 0.06319098519154782 -0.384278572625627 109 109 112
1.095078125282555 0.06319098519154782 -0.384278572625627 109 109 112
1.0994919690172462 0.05962715096428812 -0.38352897890893173 109 108 110
1.0994919690172462 0.05962715096428812 -0.38352897890893173 109 108 110
1.093990254323453 0.05780180363602416 -0.38175766059928407 135 138 139
1.1006543290836188 0.0552562566893518 -0.3821606363461522 163 166 160
