ply
format ascii 1.0
element vertex 675
property float x
property float y
property float z
property uchar red
property uchar green
property uchar blue
end_header
0.8595933621281069 0.06295397376210345 -0.3840052676551673 193 196 198
0.8325019364152009 0.020840123460003555 -0.38524613543181246 162 161 167
1.0776169017778259 -0.0012561604011873985 -0.3863501419136782 115 115 119
1.0881732199043457 -0.007348434301794569 -0.38547426569071036 97 96 100
0.9167004078783199 -0.011808497947994923 -0.38355787487274784 26 32 32
1.091835349914124 -0.014917047895035366 -0.3888333003565696 96 95 97
1.0023231025456927 -0.035423032219308384 -0.38040108352050744 49 59 61
0.8306424979133702 0.12902122700536275 -0.39019880417033453 204 203 203
0.8460275738602633 0.10058134339188755 -0.38990444160918264 204 204 206
0.8300336250048516 0.07924767822256365 -0.3851088126283429 184 191 193
1.003902649905755 0.027232506713054418 -0.38283400559917613 60 70 73
0.8299500765447096 0.01261208497258715 -0.3839555192055433 191 197 199
1.0938903310627952 0.10835427203799493 -0.384383585249023 142 148 143
1.080144529592578 0.10411608532301829 -0.3876464774017502 163 161 158
0.8297426280109054 0.06623668162806268 -0.3844927563242215 192 195 197
1.087718143022551 0.09018557115850055 -0.3883234525080936 111 112 108
1.0919135536496272 0.06551612443578857 -0.3878317897230145 105 104 104
1.1019171849021752 0.03530555401814992 -0.38603445842806705 127 133 131
1.0742702503857204 0.03173257860499918 -0.38758474599767107 189 193 188
1.0037265115231881 -0.01166756448063781 -0.381579644307883 54 60 62
1.0755464661255578 0.07855021143346666 -0.3896316306603817 190 194 189
1.1031430342292965 0.0725544578988413 -0.3934187710666404 109 116 116
1.0837903042282366 0.06922116096286107 -0.3907750252009872 158 162 161
1.0837944508660904 0.06120612143847986 -0.39778686483858555 188 195 189
1.0788594672990726 0.0535530527060912 -0.3894817751214808 110 109 110
1.0936050945025177 0.054027108109984595 -0.39114339659415276 142 148 148
1.0867180934847933 0.04603680355205534 -0.39159958964274705 145 147 148
0.8552380564422611 -0.07565171118675065 -0.3872190992177319 28 31 30
0.8552380564422611 -0.07565171118675065 -0.3872190992177319 28 31 30
0.8550820742279434 0.09058557961528384 -0.3905990113252284 34 39 39
1.094206299652071 0.03933678181174078 -0.3998734506173015 169 170 172
1.1087462568011879 0.005802793164549723 -0.4011915594720509 100 103 106
1.0855791965457924 -0.0293046629177577 -0.3986110662602077 128 132 131
1.014082658163848 -0.07664553617089347 -0.3957646135129163 49 57 61
0.9696475889948989 0.04983823020817321 -0.37647084931486613 192 195 196
0.871530559552494 0.06369235369118481 -0.382880962846358 43 43 45
0.8317039416637747 0.06977069887528385 -0.3848513188098125 190 191 193
1.0773532041584848 0.06985216991658427 -0.38331318432218897 125 124 126
0.8730514074615778 -0.0010580451476113425 -0.3839863740743115 27 30 31
0.8309059079506561 0.08101986604782889 -0.38540989898758243 144 142 143
0.8319492391300216 0.07864679836944405 -0.38570751298116007 161 156 154
0.8323475201207999 0.06300330655240562 -0.3856120700214492 177 169 171
0.8318622464038938 0.043891152222102416 -0.3852513599078697 187 186 188
0.8319049519022246 0.1207950365126753 -0.38614710950006886 184 184 184
0.83182271792536 0.083584242273393 -0.38550527551454383 157 153 156
0.8317870757578395 0.04665413289198335 -0.38449807734591274 140 142 138
0.8311064584833566 0.10797301148955964 -0.38183572984933833 120 115 117
0.8310985682274997 0.08766098331681774 -0.3813314274038617 135 130 132
0.9545364734051998 0.09647957015635358 -0.3839350943815155 58 60 65
0.9794646471082309 -0.03682684204102595 -0.3812930332967186 28 34 32
1.100636471955029 0.10266960537705414 -0.39096858685501856 165 168 165
0.8288325495341164 0.06785431400179172 -0.38167629463621433 204 204 206
0.8325805891287131 -0.02123353724223378 -0.3853092259562322 177 176 180
0.8318658471421079 0.008024177191154485 -0.38191378858068664 176 175 178
1.0981420737035241 0.02829632059275577 -0.3919877948142254 104 109 113
1.0900130587544248 0.01189540657165691 -0.3901528616551048 144 152 151
1.0900130587544248 0.01189540657165691 -0.3901528616551048 144 152 151
1.085767814746833 -0.030919133052295114 -0.39275711302214855 125 131 129
0.9719945379593246 -0.06789070170682991 -0.3810509154014545 39 45 45
0.9719945379593246 -0.06789070170682991 -0.3810509154014545 39 45 45
1.1169813015275807 0.1108871847669698 -0.4143074485261163 140 143 142
1.1180177674741345 0.05468669315871182 -0.40439318557721315 126 132 130
1.1001747368766723 0.03747197986839744 -0.40491236558751664 106 109 110
1.12415041219464 0.03321079703351737 -0.4058293236510843 109 111 111
1.116773994419142 0.015727696636618816 -0.4072002916686064 125 131 129
1.113168611073492 0.010326339865279586 -0.40692733607326415 107 107 107
1.1146269250733392 -0.0014923867347106815 -0.4091757201254386 142 148 146
1.1077621620680396 0.05648819169672585 -0.39387666200401755 127 135 135
1.0906750448990923 0.051345306513806754 -0.394679414336374 129 137 136
1.1053100447911395 0.04888041281611293 -0.3932832530493972 110 113 116
1.08123723614251 0.02933307224822321 -0.3940010541506823 174 175 174
1.095748759896506 0.01977264349477921 -0.3917861692540879 139 145 145
1.095748759896506 0.01977264349477921 -0.3917861692540879 139 145 145
0.9710202171401477 0.08168335761694936 -0.3796162190334533 42 47 52
0.8634352380243104 0.06686350641822872 -0.38268736668605763 185 192 193
0.9090381579017469 0.08130321283164706 -0.38293637506408285 37 40 43
0.9090381579017469 0.08130321283164706 -0.38293637506408285 37 40 43
0.8331934057676178 0.06531641967835379 -0.3845980851523632 190 190 186
0.8319224327980685 -0.01710112035532505 -0.3837570308798328 193 198 197
0.8300416746177494 0.11147224649571763 -0.38835012168833194 191 191 193
0.9263532635261772 0.07560759706711848 -0.38360761003813204 185 185 184
0.8329065539827722 0.0434743828981781 -0.38467040432752436 191 190 190
0.8299867010713782 0.0810156401929253 -0.3856538718943558 183 186 189
0.9528242567117579 -0.016499953153903367 -0.3808475262926573 174 185 185
0.8645072823356463 -0.062496663338226434 -0.3760536294591753 18 24 24
0.8317156967402153 0.09196764805204986 -0.3854092314648697 132 130 132
1.0858218133558104 0.10465712433313874 -0.3903517246081281 151 154 153
0.9795234919207904 -0.005814734212867413 -0.38231429048120597 172 177 179
0.8851512460594263 0.056702309689308054 -0.3850122202107577 34 40 42
1.006575957696214 0.04913466635356264 -0.38893049096014104 62 69 72
0.9092854079213094 -0.005488670996501129 -0.3814936009322835 34 37 36
0.9533444497633666 -0.0162547924154492 -0.38184555673346127 90 97 102
1.0839163199818125 0.10232438343134521 -0.3930280188939371 155 161 161
0.8537030938524057 0.08819682065902003 -0.38506071394384184 34 37 37
1.0031870236270308 -0.03586829057392359 -0.3811499216926151 43 49 49
0.9658923184959455 -0.0896494928150649 -0.38137247423669296 38 37 46
0.8293700855545736 0.12102413331175392 -0.3864694490724564 192 196 196
0.9267363250037777 -0.05516914685357555 -0.38156035982469605 207 213 213
0.8335061336774626 0.06686897360753039 -0.3847704433651916 177 180 181
0.955412639115418 0.04359194325950248 -0.38213618000295285 179 185 185
0.9589527312211176 0.03745702437132467 -0.38274184104384235 53 61 62
0.9483381122414998 -0.0055528135668330815 -0.38286874608031507 39 47 46
0.9483381122414998 -0.0055528135668330815 -0.38286874608031507 39 47 46
0.8309784232765426 -0.03699262567088894 -0.3828389595328933 169 176 179
1.0031255752757002 -0.07467079736041139 -0.3799018033097643 44 46 51
0.8431589982873156 0.007861527000320454 -0.38097529743625047 172 178 178
0.9554211739498187 0.04361526796326593 -0.3821439885229436 188 191 192
0.9104481653000136 0.01963241679071765 -0.3842973350363824 28 31 32
0.9705258756707271 -0.06723459391493077 -0.3777093826647868 34 37 38
0.9705258756707271 -0.06723459391493077 -0.3777093826647868 34 37 38
0.9762213593986091 -0.07239885892443636 -0.37608904531477677 28 34 37
0.9016816368105381 0.1053228131794889 -0.3820877444902358 186 186 182
0.9103632367549782 0.08803076661536234 -0.38456357266345914 180 188 185
0.9101502416235843 0.08206141696414239 -0.3849481241173432 30 36 36
0.9101502416235843 0.08206141696414239 -0.3849481241173432 30 36 36
0.8295124760876221 0.06896085004546412 -0.3847809049715729 187 190 191
0.8335293070185725 0.06306195264028583 -0.3846889350375039 181 183 182
0.9163279854929973 0.05056976610765797 -0.3834122898604018 26 32 30
0.9163279854929973 0.05056976610765797 -0.3834122898604018 26 32 30
0.8325364484730088 0.09914190799732532 -0.3848886401588887 142 138 142
1.0786132075092099 0.11281733044328685 -0.3835237969347103 98 97 100
0.9282091704230956 0.1032285696414114 -0.3839398760925581 24 30 28
0.9777564417495239 0.08792535737035875 -0.38056191864144495 33 41 38
0.8309402733600988 0.08088485433452221 -0.3851323727401904 139 140 144
0.9376437282483304 0.06003540533308938 -0.3822755384689634 34 35 35
0.8300992260451657 0.021290367515639827 -0.3856140931519628 176 182 182
0.9267587917906829 -0.0016398219318860593 -0.38203186936567096 29 28 35
0.9737114823900671 -0.005477751042864958 -0.3840495654289766 30 36 34
0.8726737290700662 -0.001121484748289948 -0.384810237175041 24 30 29
0.9680204591957281 -0.016149733411357756 -0.38192305992896947 28 34 36
0.8320593172407872 -0.027001302260220437 -0.3834737366396105 176 176 177
0.8850559528757866 -0.06868651379851849 -0.3824819688214457 24 27 26
0.8544756184896798 -0.013408407827798957 -0.38348991489557327 37 38 39
0.9900732645644744 -0.04639117285101251 -0.38052818446228664 36 42 44
1.0840266744303892 0.08324931481626795 -0.3918567787969115 160 169 168
1.0793932210051327 0.08279023147812645 -0.3928467481464326 187 192 186
0.8604761422329783 0.0662276045390688 -0.3835281372663318 48 35 35
0.8604761422329783 0.0662276045390688 -0.3835281372663318 48 35 35
1.101420367070429 0.059856258654248706 -0.3916264878883485 141 145 144
1.0907225627580317 0.049475813424650406 -0.38597845577784007 103 106 107
1.0905034727894471 0.047546252476982444 -0.39173207519999703 147 155 154
1.1096654983531562 0.03207038463375998 -0.39054593888114936 110 110 110
1.0067510183488035 0.024037292661497237 -0.3829041298281941 78 81 84
1.0067510183488035 0.024037292661497237 -0.3829041298281941 78 81 84
1.0990546344386294 0.02033128977671183 -0.3923192197717692 112 118 120
0.8568473216692024 0.015629081182533783 -0.3832353785396793 39 39 42
0.8607542093346299 0.012154030991060152 -0.385345558772281 178 184 185
0.9522228531935938 -0.015114139826707592 -0.38358676872935304 47 51 58
0.9482714421037722 -0.0430598478505763 -0.3816756430317925 32 37 42
0.9482714421037722 -0.0430598478505763 -0.3816756430317925 32 37 42
0.91608216856782 -0.0682664357624133 -0.38177856980761543 168 172 170
0.91608216856782 -0.0682664357624133 -0.38177856980761543 168 172 170
0.9036978440684484 -0.08191409391506839 -0.37737694475460976 28 28 28
1.0868686668942502 0.10248509964493499 -0.39046484244319063 153 159 159
1.1063265849328165 0.09530273977751863 -0.3898148902936568 101 106 102
1.0837973769208276 0.0898135947054025 -0.3906121627111814 133 141 141
1.0837973769208276 0.0898135947054025 -0.3906121627111814 133 141 141
1.0909251236180997 0.013096043372741634 -0.3884026910851688 97 101 96
0.9808164096456048 -0.03776032604441317 -0.38416943475403914 44 52 53
1.109180871885986 0.07817054136490208 -0.3978569078325738 138 144 144
1.0848747617381937 0.07601729382519296 -0.39955137454763223 191 195 190
1.1020261251916568 0.045073800709296764 -0.3978800052669958 100 106 105
1.1103101453528326 0.04026732611387692 -0.40022651940260406 135 141 140
1.1046700597110977 0.024036508944542685 -0.39912293151152695 96 99 94
1.1046700597110977 0.024036508944542685 -0.39912293151152695 96 99 94
1.097159490087416 0.019548363430768205 -0.4009515774569715 106 110 108
0.9548609442636544 -0.07951527048079321 -0.3882581604599912 40 45 52
1.0842690506526944 0.07211239720769842 -0.3916023231538384 163 174 172
1.084405534214358 0.06482831121507354 -0.392093114398955 160 166 164
1.1019637947543512 0.018584650050320135 -0.39126368036701714 126 130 126
0.8312214962983085 0.0912039204602353 -0.38233868409314165 130 129 133
1.002167436158147 0.050512071580669775 -0.37973844489842457 63 76 76
0.8325769136621435 0.0377740842370182 -0.38418940899903914 117 117 117
0.9572098254062739 0.10574131415723272 -0.3809058252231683 55 51 51
0.8296807004580398 0.048092384961499125 -0.383350463288652 185 185 185
0.9541602670135604 -0.07853016407211152 -0.37946091694796125 174 184 182
0.8326000954076327 0.06719529183851825 -0.3854676291285893 136 133 135
0.8345503716461748 -0.025969633792631532 -0.38095189519670747 178 178 180
0.857660861781054 0.07613850113248878 -0.38358090627730557 33 34 35
0.8637948222876546 0.06641382454881228 -0.3836524070160986 179 185 187
0.8324440611787608 0.021041365502888414 -0.38480900926058526 129 129 133
0.8322975775736519 0.004095625815349382 -0.38465890951380416 144 140 145
1.0850236613647959 -0.023048357323168473 -0.3867673652522729 75 72 77
0.8328385748062392 -0.02279413159187468 -0.3846762134367895 142 138 142
0.8909741033448034 -0.02886392208331358 -0.38196962002620966 163 169 171
0.9066303451034785 0.1099050670887149 -0.3847645311615607 42 41 43
0.9588219923087165 0.09500837249934423 -0.38290400842083616 43 33 25
0.8851870628628459 0.019168846268008174 -0.3835354269111851 30 30 32
0.8852003500439304 0.019136310946447736 -0.3836271275510308 34 37 38
0.8640561120116981 0.00365676201349318 -0.38398549854644287 192 195 196
0.8640561120116981 0.00365676201349318 -0.38398549854644287 192 195 196
0.8640561120116981 0.00365676201349318 -0.38398549854644287 192 195 196
0.9433756751451218 0.11443692807622632 -0.39344874004598707 39 47 48
0.9507692024377707 0.08357787695074677 -0.3892196597939052 41 47 46
1.0094207790290102 0.05159231907551746 -0.39058792378998475 59 69 76
1.1010106117800482 0.024570896810485895 -0.39494684864937973 97 96 99
0.8801951453687993 -0.07455322082499397 -0.3854520206151336 25 25 27
1.1044530930946193 0.08424071275030734 -0.395862228717775 112 115 114
0.8608118072122904 0.06628748635682942 -0.38472845983699694 56 45 45
1.1136884253084056 0.11800754339837571 -0.4014615674835494 132 140 139
1.1068488418851155 0.07898084396803123 -0.3982667763381478 112 117 118
0.890829027951055 0.046009114046229094 -0.38842448442572985 29 32 35
0.8547354624476586 0.08967690516377208 -0.38550697501909137 29 35 35
0.8329665727522569 0.05488153151528385 -0.3843448773100895 110 110 112
0.83297142888778 -0.022766445776750098 -0.3852966602193845 139 139 141
0.8292161171129364 0.1249686438490669 -0.3851164422915299 195 195 197
0.8289009710887814 0.11979362677975687 -0.38309782367793843 195 195 195
0.8321791588546082 0.038887791499609387 -0.38436087190539253 182 184 187
1.0872712431995533 0.027991363659963485 -0.3875555865828159 147 153 153
0.8300569895337157 0.024225653450066904 -0.38480107761032467 185 188 191
0.88462418219309 0.019464086591235503 -0.3822851122606159 25 28 29
0.8327527544585129 -0.03363096296627192 -0.3837924384779736 176 176 180
0.8892692440517859 0.03116547654563714 -0.38311696778631515 83 65 63
0.8542587269881756 0.02587213643144213 -0.38617478193050947 34 39 39
0.8872556841799522 0.019718973551517947 -0.38970678872043246 36 38 44
0.8873876465902819 -0.011801394628160733 -0.39082415944483484 199 202 205
0.9181766830339295 0.08919076149269747 -0.38710585960210503 36 39 39
0.9525212268181386 0.08450515349537703 -0.3928973472358843 44 51 54
0.9029718486640091 0.00742195662694797 -0.39799784551901796 25 31 31
0.9117799012365215 -0.08669326994722563 -0.40626279799685144 44 44 40
1.1061853204209333 0.08196481779649376 -0.39497619498654674 138 147 143
0.8596132048944672 -0.0007990600891691667 -0.390012972169422 35 38 41
1.079481114682204 -0.004415069587152765 -0.39358287604000497 193 198 196
1.1021205333465476 -0.012671657517932868 -0.39443082960567255 142 149 148
0.8896968062458035 0.03157198751849856 -0.38515354421729464 94 86 80
0.9288781250393164 -0.054309580940977 -0.3810469106926423 180 183 184
0.9835606028926424 -0.06517611201438925 -0.38244429948727554 32 35 36
0.8792311738368696 0.01939228397023442 -0.38440737061666636 192 194 200
0.8803602069627916 0.08852490142030475 -0.3881311452669882 31 32 29
1.0921907776020794 0.09683090855010659 -0.39411262868992175 122 126 127
0.8605922186428758 0.06379517743732492 -0.3879941201759977 201 202 206
1.0936613972952687 0.04738977814072936 -0.399213136848291 156 162 163
0.8547992309201478 0.026872764704960053 -0.3862183151280929 37 40 41
0.9704888027230765 0.033393990203882104 -0.3897606772144116 190 200 203
0.8814705088076784 0.020302689281143853 -0.39146460007523926 197 200 203
1.1010700653330938 0.033238094506553476 -0.3976644747850503 151 160 159
0.9522333633716186 0.021016738474208957 -0.3916174674288764 46 51 54
1.1113078419281393 0.027643885684051114 -0.3950287816695966 128 136 135
1.109737823743747 0.015258163124295553 -0.3946825932509433 95 102 103
1.1030058654668586 -0.0008566420900410305 -0.3976576671097374 154 162 159
0.8880058677228435 -0.011538753126894927 -0.39276030028850495 192 194 200
0.9584521518602285 -0.01667434536769499 -0.3920144375355561 198 205 209
1.1069429256269916 -0.01646154009996588 -0.3988818291604604 145 151 151
1.0071507277071552 -0.0635563301865 -0.3944090174743962 187 198 196
1.0071507277071552 -0.0635563301865 -0.3944090174743962 187 198 196
0.8774187665105033 0.04869013772787206 -0.3798981249252926 33 33 35
0.8774187665105033 0.04869013772787206 -0.3798981249252926 33 33 35
0.9040314147014665 0.04501506247296963 -0.3767842048265202 41 38 42
0.9578107387735005 -0.05567930407518119 -0.37739866406877537 39 47 46
0.9632369535812034 0.03098532038107141 -0.3772180585396084 202 202 204
0.949854346796365 0.028895067062509026 -0.37805909772930313 49 55 57
0.9452695389732079 0.024279797853288418 -0.3784417711059371 203 203 203
0.8675645933994326 0.10457886485424128 -0.3919711124272863 26 31 30
0.8705289711035878 0.06190944320916712 -0.38749152038548873 33 39 39
1.0874297190036677 0.02650955964985123 -0.3850894137464047 104 107 110
0.9828655467656919 -0.046308516790867005 -0.38157702906010016 42 45 51
0.878175981523698 -0.038600330930321204 -0.38299368754169305 32 35 36
0.8840035338433938 -0.0388104817201065 -0.3827845592640294 189 195 197
0.8826972391726017 -0.06997933534085538 -0.37738944522566803 30 35 36
0.9555128088269229 0.09184116087341583 -0.3630131895139376 38 44 43
0.9529247501175878 0.03852335532499975 -0.3651015506127964 48 51 50
0.9393542160320639 0.015658364938597815 -0.36615556262912274 40 48 50
0.9393542160320639 0.015658364938597815 -0.36615556262912274 40 48 50
0.9508535356117744 -0.027833599896611026 -0.36187716096228795 51 59 60
0.9815451672679344 -0.05136200457682267 -0.3569493080745824 61 71 74
0.9586361494286592 -0.07361840128767237 -0.3560929843025675 188 194 194
0.8831975464361976 0.055051956006254066 -0.37947530757277265 34 37 38
0.8827310476065529 0.017340591425223893 -0.37800759800838946 35 37 43
0.8827310476065529 0.017340591425223893 -0.37800759800838946 35 37 43
0.8686699796791727 0.06060574933981778 -0.3831507600587926 30 30 32
0.8775116309588423 0.05536556899126804 -0.3816426973897068 184 187 188
0.8771950209344704 0.04874068372742748 -0.38093753233814154 32 31 33
0.8771950209344704 0.04874068372742748 -0.38093753233814154 32 31 33
0.9410710182541122 -0.00851353658160387 -0.3703996633549092 34 42 41
0.8317566989986434 0.11520732781759076 -0.38418656404597024 191 187 187
0.8323541786897788 0.044919721811975385 -0.38377416105984785 115 111 112
0.831588663808281 0.04289742679928124 -0.38156217709047396 171 174 177
0.966173973951452 -0.08970219723713943 -0.3816469517473889 38 36 38
0.8918939644029871 -0.09271891762958735 -0.3825365436126054 149 153 148
0.8292125103678459 0.09053935351387118 -0.38345789387791135 186 186 186
0.8320999599678348 -0.020984040233980546 -0.38363438308512454 152 162 161
0.8294666963873522 0.07686322017061922 -0.38292589971356933 181 187 187
0.8459810496083436 0.059111214348450056 -0.3855177540941251 179 185 183
0.889076096194835 0.030901272371716835 -0.38407167848403817 41 33 26
0.889076096194835 0.030901272371716835 -0.38407167848403817 41 33 26
0.8331922326766459 0.10711197319885787 -0.3862234621709167 136 128 131
0.9092415772177252 0.08154087843274797 -0.38377161062865817 19 25 25
0.9092415772177252 0.08154087843274797 -0.38377161062865817 19 25 25
1.0024857904259685 -0.03570073739712692 -0.38068048517804803 61 71 74
0.9037611734995903 -0.09473219558933495 -0.38126425099536976 17 22 20
0.955291494528948 0.04359667713578979 -0.38314042928819975 184 188 189
0.955291494528948 0.04359667713578979 -0.38314042928819975 184 188 189
0.8902515103014069 -0.02858563778183397 -0.38168185832472556 178 186 185
0.8296835683101252 0.04823654247813475 -0.3845777711112227 179 182 185
0.8333976168480227 -0.032333871806115806 -0.3843376315919026 89 81 86
0.9814797546223192 0.07916763424916021 -0.38220880545636127 61 69 70
0.8293951187466406 0.04759531605250753 -0.38151653682071424 176 182 182
0.8331313657289543 0.0478771530159481 -0.38334551343906714 173 175 174
0.8331644078601401 0.009564416949410267 -0.38335533289986995 157 157 159
0.8317054149947194 -0.011790561485543766 -0.3834009098949174 166 167 163
0.8326749267223689 -0.014360170320582665 -0.383126996902435 162 168 166
0.8321682650617267 -0.015564861809647822 -0.38323217050876013 160 163 164
0.832185945447617 -0.022563125265563443 -0.3831210932935959 128 128 128
0.8333684024986102 -0.0275477990773753 -0.38340390852991807 98 89 92
0.8297603374048974 -0.029316345606060387 -0.38276401629352397 165 168 167
0.8660874470391613 -0.055501493828881546 -0.38329079793769555 161 161 161
0.9357358954498742 -0.06267905045916031 -0.38111410193665174 22 25 24
0.8314793912400283 0.0623014035429438 -0.3835619922388424 189 187 188
0.8534454936577823 0.049469743994346976 -0.384615152716573 28 31 32
0.833686240802673 -0.01220926606784938 -0.3832273990616318 171 177 177
0.8330126426404 -0.024869061250928783 -0.38437459795165146 160 160 160
0.8330309826762001 0.09830896160067101 -0.38450349936326694 190 188 190
0.8323450203086677 0.037653146645130045 -0.3832849891271672 116 113 111
0.8328334805697839 0.03651237546616287 -0.3821985936037314 177 176 178
0.8329216055207951 0.02853710779554081 -0.38358430599749227 107 103 106
0.8309148268984081 0.025879120238691763 -0.38247844812459136 143 144 146
0.9836412272474475 0.01419643453051246 -0.3829035657191522 48 61 60
0.8910721276330279 -0.028645374515340563 -0.38364636291354326 157 164 162
0.926568348649507 -0.06144731298679664 -0.38105158454544424 149 155 149
0.926568348649507 -0.06144731298679664 -0.38105158454544424 149 155 149
0.8837655946975597 0.08199569453872334 -0.3839197208477078 21 27 29
0.879722605598466 -0.07426236159844679 -0.3848877252334796 17 17 17
0.9156306844582784 0.1130460455950713 -0.383321155816645 27 33 35
0.8312519010193034 0.07984201898486415 -0.3846996648277527 182 182 182
0.8298085613437342 -0.022717713775216676 -0.3841793637614848 159 167 168
0.8334466516358743 -0.024417526177426378 -0.3831737014827834 110 116 118
0.8298945043664275 -0.024978670344688866 -0.38178462453192935 155 166 166
0.9058589935478109 -0.03386066778912787 -0.3808439345956373 18 24 22
0.9315829639900474 0.010358796300459128 -0.38288218710592353 137 155 151
0.9320746803122893 0.01042133674902016 -0.3839779983558118 173 179 177
0.9320746803122893 0.01042133674902016 -0.3839779983558118 173 179 177
0.8322150008051749 0.06318173761264202 -0.38426169245364544 121 120 116
0.8837763182466977 0.024817131341451085 -0.3822611344611477 167 175 172
0.9417885569381532 0.025353446236539574 -0.38344751669794575 47 55 54
0.8315109731009193 0.005462240072562673 -0.38259743649800615 163 170 173
0.8318530449374213 0.06260988926235068 -0.38319446138024177 171 170 174
0.8317917044674573 0.03288667753271741 -0.3837728324437325 182 181 183
0.8322021668950725 0.02087991449669361 -0.3838295113312442 107 106 110
0.8310291882638748 0.01505439260440119 -0.3842285359143759 122 123 125
0.8311916426462624 0.003772476373138917 -0.38350890967465245 115 114 114
0.8300811470477777 0.00037640690438292567 -0.38372910136237337 168 173 175
0.8331258510368964 -0.01611254067089581 -0.3838137523043133 166 166 164
0.8311197476936137 -0.02005870253311565 -0.38364163330040874 122 126 129
0.8331792796447929 -0.022904324921607405 -0.38352458169541337 107 106 108
0.8331792796447929 -0.022904324921607405 -0.38352458169541337 107 106 108
0.8953838410362225 -0.030871789463979178 -0.3820910256361071 155 161 159
0.8953838410362225 -0.030871789463979178 -0.3820910256361071 155 161 159
0.940972635147079 -0.04250975076600783 -0.38144901370647666 170 173 172
0.8334523925934822 -0.03537589166491071 -0.3839034056617174 116 116 118
0.8334523925934822 -0.03537589166491071 -0.3839034056617174 116 116 118
0.8318327780219651 -0.036455037207359646 -0.3835754778979618 111 110 112
0.9370374031938743 -0.05946529254170427 -0.3833640132241952 19 25 22
0.8843475841003703 -0.06846615763351722 -0.38219594272021673 20 24 19
0.8784280613813816 -0.005981685572825852 -0.3832224456551847 160 166 164
0.8332537285077491 -0.013829198555364935 -0.3835789868249989 128 128 130
0.8329569767036605 -0.02826396166840091 -0.38412245227119085 175 175 177
0.8305684089242067 -0.029272261378513246 -0.38400054236691017 140 141 145
0.8305684089242067 -0.029272261378513246 -0.38400054236691017 140 141 145
0.9064288090004138 0.0857931877987198 -0.375757854766714 181 187 184
0.9576432013076476 0.0373496500217184 -0.3815176053522996 41 47 47
0.833478619263641 0.13251786435633886 -0.3879556495109408 195 195 195
0.831599490409476 0.09698010448414811 -0.3860438414212724 128 125 120
0.8330060111978642 0.09033803497997794 -0.384565218854828 189 189 191
0.8526268675233061 0.08725861039396113 -0.38137490757156806 25 29 28
0.8310332651197013 0.08379760878297474 -0.38394120959823663 191 192 194
0.8298942132378652 0.08091849306498415 -0.3863690606761065 185 188 189
0.9418551159535407 0.051177621010218964 -0.38461901611670857 32 38 36
0.8310564548214631 0.02464598814705233 -0.3838299557965863 115 116 117
0.8310564548214631 0.02464598814705233 -0.3838299557965863 115 116 117
0.8332635690784614 0.022075056533189318 -0.38447707117866436 173 175 176
0.9103545514551713 0.02000853568565903 -0.3839606834056089 25 25 25
0.8325388736550162 0.00605531587465742 -0.3844044583001665 128 127 131
0.831680600567511 0.005545162720728428 -0.38349215660601915 180 180 182
0.8677435448635238 0.0010511994731335133 -0.38310933010051307 25 25 25
0.8312609731101263 -0.012511232589014397 -0.38459598772921694 108 104 108
0.8534219436512503 -0.03721526765147704 -0.38411091775275225 20 23 22
0.9676844514677966 -0.09536730864593922 -0.3788888308020815 41 47 47
0.8292381076366554 0.06894898329375661 -0.3854288444126778 186 188 188
0.8340565028018567 0.010538323290922028 -0.38345513442610535 172 175 176
0.8302016345557085 -0.002936554987101727 -0.3842858404834488 116 115 116
0.8312929039305113 -0.009572161242896273 -0.384003042711584 108 110 110
0.8303647719004362 -0.01211403933053426 -0.3848997749980226 165 167 169
0.8328426155550105 -0.024971410099011163 -0.3844058790132902 160 164 163
0.8318044375378629 -0.024990213078778488 -0.38451889729903416 160 160 159
0.831956876436837 0.04106601727534789 -0.38485764004171835 129 128 131
0.860132905967132 0.012210889472275867 -0.3843792953068679 167 173 173
0.8333369764353573 -0.016229399125896778 -0.3844309746772249 164 164 164
0.8951360530513555 0.03612739675439552 -0.38279221551837544 172 178 178
0.8871287239082806 0.03108529641899027 -0.37846622094890203 46 32 20
0.9470904561996528 0.020144292174576257 -0.3824641114765279 31 38 37
0.9154816191374716 -0.0058458002258163855 -0.3820258960144255 159 168 165
0.9268605151989378 -0.05026123844647601 -0.3828544979232622 24 27 26
0.9168642964685163 0.11188669755415272 -0.383205577299582 31 34 35
1.0035269564254454 0.05077312836424975 -0.3824651485712958 58 69 69
0.8321421745121297 0.04046370825539589 -0.38446416497740327 176 176 178
0.8321473953396192 0.04045239572506385 -0.38440238797120097 189 187 187
1.0018953682082314 0.02600919664837653 -0.3798673263760079 66 77 77
0.9719344830418049 0.02530559691527675 -0.3812536783774958 181 187 185
0.910212593851782 0.019988244400288447 -0.3836776966134472 21 24 23
0.8846140477138321 0.019494040053709548 -0.38436254418229554 23 26 27
0.9537909633412875 -0.030060715526953132 -0.3816609922406487 176 184 183
0.8328377645517151 -0.025003481762593628 -0.3845197085320956 179 179 182
1.0024831412048856 -0.03634112790865273 -0.3800570379672834 48 54 54
0.8313273331663578 -0.02756847335275005 -0.3836200898314445 108 108 110
0.91568379860871 -0.0427014259530282 -0.3824434549055689 157 160 159
0.8316000346639307 -0.03782262054197675 -0.3842930712813302 88 87 89
0.895086236596978 -0.0815778381915929 -0.38191808335986077 23 23 19
0.8767039492382929 0.11191482484454884 -0.38619956182746396 26 29 28
0.8318460916076845 0.036444464416531354 -0.3843572285352068 117 113 114
1.0006638322370076 0.03488072506263962 -0.3798964137252273 58 69 69
0.8323438867308268 0.02472852873205561 -0.3843690918280578 116 112 115
0.832341930224408 0.024790163363936094 -0.3844938887087247 120 114 116
0.8331574569780151 0.009648017477007295 -0.3844474838562203 169 167 170
0.8334773065930668 -0.013025976995360268 -0.3845566686009021 162 165 164
0.8316924593999524 -0.0042826725612320525 -0.3834809320723903 179 179 176
0.8315205733928704 0.03429459200181761 -0.38295659061006904 178 178 180
0.83210233237158 0.027686734811303106 -0.3833792526599013 174 174 178
0.8321626739069217 0.024611562551237382 -0.38295351441662706 116 112 115
0.8311476390537317 0.013374325923446811 -0.38290945290165335 112 111 114
0.8311476390537317 0.013374325923446811 -0.38290945290165335 112 111 114
0.8314631987493492 0.010320162885980713 -0.38127120466312764 175 175 177
0.832664978417177 0.008723735681235117 -0.38319044688881887 101 95 99
0.831915771645246 0.0030623404410630686 -0.38385907118784685 163 168 177
0.8324992537052325 -0.009693650749649008 -0.38386136222653205 106 105 107
0.8322867962808795 -0.02108856631045584 -0.38441824897278787 171 172 174
0.8631682822090678 -0.02445462967374348 -0.38331658177293215 18 21 20
0.8336438768737447 -0.03407690956393649 -0.3850535893442866 121 117 120
0.8332468724123093 0.07099927744862528 -0.3855120380804607 125 121 122
0.8783346777834983 0.019404826248476434 -0.3825372142633196 167 170 169
0.832233754833539 0.002383700816809394 -0.3830439049477709 108 110 118
0.832233754833539 0.002383700816809394 -0.3830439049477709 108 110 118
0.8318211084699055 -0.0019339505267175533 -0.383950026338205 161 172 172
0.89740080800278 -0.022485435690622054 -0.38166447425878347 154 165 162
0.8323419940985302 -0.022653207500163378 -0.3841057675898481 135 132 133
0.8297156779088134 -0.022552482959628927 -0.38344130670029264 167 170 171
0.9607329439731516 -0.05622438324341568 -0.3831588829822886 29 35 33
0.9160291896824885 0.11310943404456535 -0.38366481288468796 29 32 33
0.8781394021141061 0.08624191507712947 -0.38208972843831984 27 27 27
0.8781394021141061 0.08624191507712947 -0.38208972843831984 27 27 27
1.0817269854720188 0.039992031611461996 -0.38617858344238676 119 123 118
1.0716219271929 0.035926300108928 -0.37972146671580886 120 126 124
1.072450616939179 0.023945216244248863 -0.3835899686773787 114 117 116
0.8328011506540134 0.0052832958469342 -0.38472668710002367 132 129 126
0.9892823530534489 -0.0012664719159509565 -0.38139962671235195 55 59 59
0.9113937069133534 -0.04252895575488683 -0.3856379563346669 20 23 22
0.9830273623778625 -0.06481460592121012 -0.3820641603397406 41 49 49
0.9523310590812508 -0.07744501877965529 -0.3841000725664939 29 34 36
0.8330294953913484 0.10542238644900158 -0.38363754926419363 146 142 143
0.831203101464676 0.10030838677026742 -0.3839619890862924 199 194 194
0.8315115166102729 0.065954447874681 -0.38365214087399524 176 176 176
0.8836187812976134 0.05556085629432762 -0.381071249521375 24 27 26
0.8747253132291234 0.015616472459944701 -0.38182113505486864 22 23 19
0.8747253132291234 0.015616472459944701 -0.38182113505486864 22 23 19
0.9144263355250002 -0.011406246428770557 -0.3806567925807631 24 30 30
0.9144263355250002 -0.011406246428770557 -0.3806567925807631 24 30 30
0.9511404650028409 -0.030241503120511506 -0.3774648128952811 170 177 175
0.9087820370166418 -0.037278187581965924 -0.38022968313470157 167 177 170
0.9594109640928181 -0.09154900816338167 -0.3782997847591389 32 37 39
0.8318407975562871 0.029190510610534827 -0.3803464081491159 183 183 185
0.8312536567408793 -0.025782150577916458 -0.3830686433841173 118 117 120
0.8298563330756105 0.07226130956440169 -0.3844510914299289 178 180 177
0.8312407614187639 -0.027587313559891705 -0.3830574161011122 120 124 124
0.8314087122869465 -0.030421358654397188 -0.38304613927811837 176 179 182
0.831060826688017 -0.034685776731560695 -0.3836971700534437 174 180 179
0.8298874291566212 0.07099213519100805 -0.3814627745511777 197 197 198
0.9282974724210413 -0.05425234198791118 -0.38120290160281084 166 174 171
0.8287725078750967 0.07549544711532388 -0.38429953219001967 183 183 179
0.8296700168023652 0.07106783347828421 -0.38363113998075954 181 182 179
0.8311003401576903 0.0701253708519758 -0.38367105002762697 176 175 173
0.8295162525353649 0.021169450746258298 -0.38287094751370965 170 174 173
0.8316684110896786 0.009345734304176045 -0.3829706366693241 161 169 169
0.8310242751517001 0.008651159014553914 -0.38342248700195497 109 114 116
0.8310281036290802 0.0012243021209576274 -0.38333947137558977 117 123 125
0.8310650127218839 -0.017815462750053274 -0.3824677185042349 110 113 112
0.9516827389302269 -0.03278103364691039 -0.3786455550760911 45 44 46
0.9303181061742375 0.07467674106115968 -0.3830117228969592 198 204 204
0.8744070307675167 0.04856250067711266 -0.3816190702775201 29 32 33
0.9038734670087948 -0.007111300860867081 -0.3780893294526694 32 35 34
0.9416739648537507 -0.006258046363941862 -0.3775150939151714 41 47 47
0.9633460766591108 -0.00677957587527735 -0.37505059136454383 56 59 62
0.904595790705129 -0.03846684046771301 -0.37980440364090995 176 175 176
0.83045948226102 0.07015945292948063 -0.37828440412454534 203 203 205
0.8329222489842265 0.04257626807564386 -0.37482580876091387 199 199 201
0.9825697157682696 0.026995307087453818 -0.3724122721510316 71 82 81
0.9942996198120616 0.03912209611884174 -0.383073259521654 60 71 69
0.9668015994291268 0.0328559336994151 -0.3835349283888076 185 196 192
0.8787864857662882 0.025490597579977552 -0.3845978766426631 25 31 29
0.8529718658935732 -0.036728905550995825 -0.3813437532558937 23 26 25
0.8779698960320209 -0.042745965144659316 -0.38064853661255227 169 169 169
0.9839354353800848 -0.0633336940910733 -0.3777229048988817 40 42 52
0.8633424092575271 -0.0579869981271285 -0.38084369545840363 165 168 167
0.9038803362281502 -0.09472528453370645 -0.38100976562054745 21 27 25
0.8639784233763554 0.06795610848120387 -0.36094386614301494 29 35 37
0.8310022106672885 0.10871156833852683 -0.381351817199399 148 145 142
0.8310022106672885 0.10871156833852683 -0.381351817199399 148 145 142
0.8319760917933728 0.08310595580413913 -0.38512337948788417 181 181 180
0.8321275872406718 0.06307836414904815 -0.3839455475154826 121 120 116
0.8321275872406718 0.06307836414904815 -0.3839455475154826 121 120 116
0.8306690751492768 -0.0025970892855441334 -0.3828503711398819 181 181 185
0.8312514610232339 -0.01519565545709226 -0.38427777346269704 133 132 135
0.8312514610232339 -0.01519565545709226 -0.38427777346269704 133 132 135
0.9311420443352871 -0.054401048538966566 -0.3845450249431379 165 170 168
0.8321578764268716 0.037433480677756585 -0.3823482789679881 122 119 120
0.8323078087174518 0.03762124992202812 -0.38303948945983296 117 117 117
0.8813991909426907 0.07842624347327533 -0.37517008996478585 29 32 33
0.914546260961152 -0.04221648529248341 -0.3784604365763848 169 175 175
0.9407605040004063 -0.07351123341553296 -0.3801272589011494 27 30 29
0.9407605040004063 -0.07351123341553296 -0.3801272589011494 27 30 29
0.8910488175684735 -0.09181437328081576 -0.3796559255868999 164 164 164
0.7619498860001708 0.10136234744630945 -0.39163131740286933 21 19 18
0.7619812501391651 0.08053885633427522 -0.39487497930659626 32 28 30
0.8327002412817753 0.12232620141196189 -0.3891701908398854 182 178 179
0.8327002412817753 0.12232620141196189 -0.3891701908398854 182 178 179
0.8317851034809087 0.10898561594273061 -0.3867568515965881 182 178 179
0.8334405753132846 0.10712875606893116 -0.38635272016452815 136 134 130
0.7719420334394659 0.10082908710995578 -0.3875525991241591 21 20 14
0.7669604343645882 0.06942674201223253 -0.387885431295846 25 25 21
0.7681231330314827 0.0664168596551396 -0.3890682190031573 55 58 53
0.7657624779181567 0.0820904924043842 -0.395391987638687 27 24 21
0.8331462237828444 0.12390608611619254 -0.38767733620877703 128 122 124
0.7715108785482679 0.07653810435681634 -0.3943221905685064 39 40 39
0.7629848758134634 0.07015313529371671 -0.3935116017422486 52 59 53
0.7648442155678512 0.04105512935762559 -0.3924125344806539 41 38 33
0.7645761623522394 0.03592600390425592 -0.3918775634673195 33 30 27
0.7667733486320197 0.02392099234600986 -0.3910137178650094 56 56 50
0.8308776054523436 0.05953661104440718 -0.3843813908863789 143 142 142
0.8298168646883017 0.052737304552702736 -0.38347194039929006 176 176 177
0.8789784371049639 0.0563911765249406 -0.3848414447134861 173 176 175
0.9158918126373586 0.051225159466484066 -0.3839786793723012 31 37 37
0.8843237561632018 0.01999941005280764 -0.3838998859359554 24 27 26
0.8338563471782188 -0.014381816863681588 -0.3804682490077248 164 170 170
0.9827633253632678 0.04305977445490847 -0.3824247031035637 56 67 66
0.8305771493534081 -0.029331136308130265 -0.38302035011556895 129 131 130
0.8799161299640554 -0.07445038310333878 -0.38490391541914365 17 18 14
0.8327943499635669 0.12336958297524867 -0.38626776735286744 137 136 136
0.7667135067744206 0.08198088839202948 -0.38809655134493665 53 54 50
0.8321696567377437 0.10586338438474405 -0.3859892937285076 188 188 190
0.7758965282598713 0.07612011877693858 -0.39211156616675114 53 52 52
0.767745875997819 0.07290494468147031 -0.3921109103943766 55 59 54
0.8319295683378903 0.09017019344886557 -0.3858416853949091 125 125 128
0.7752077902113378 0.06652239917857597 -0.39026810505812265 20 20 16
0.7683616537605722 0.061148303388210354 -0.39331997749615216 58 57 55
0.7689851844463852 0.05782086875177012 -0.39047776758588076 61 61 59
0.7689851844463852 0.05782086875177012 -0.39047776758588076 61 61 59
0.7695892160016075 0.05340405128167602 -0.3927777932516917 64 65 61
0.861046959195899 0.07484682742128461 -0.38504514346480223 38 31 24
0.767632377589622 0.041351234450125285 -0.39055845482828344 47 48 44
0.8720650578008116 0.06703454648770193 -0.38455727039564486 176 184 185
0.8321545320967135 0.0365621647948324 -0.38501700177034387 107 112 119
0.8327819278747274 0.024729427534550243 -0.3848002605622005 113 113 114
0.8320957610336214 0.00550263905203347 -0.38416307217666307 176 182 183
0.9307177608704851 0.009417369499168375 -0.38269646310217587 188 191 192
0.8324953294526298 -0.017215148459297253 -0.38519213794026086 171 176 178
0.9850623410867609 0.0054217422055631535 -0.38043811272487765 187 190 191
0.8331850706470469 -0.038753371955058735 -0.3851077757427168 169 173 174
0.8321418285928239 0.04648085843078476 -0.385103607720505 137 140 139
0.8726393481010789 0.012980626523806911 -0.38306599717770135 21 24 23
0.8323581243462382 -0.030658666013586734 -0.38558285123104824 165 171 169
0.9520993866876996 -0.016146497725537473 -0.38050362223421147 85 93 97
0.9153544843784557 0.11206826401391468 -0.3808846810165312 40 43 44
0.9152146784754751 0.08174814900001083 -0.3817028371001622 186 189 188
0.9245051729790009 0.06669582645107955 -0.38128888680954565 187 191 190
0.8321991180631448 0.02043967173996603 -0.3827280584661559 152 150 149
0.8334562449931411 0.02068863080607279 -0.383008917580809 177 174 172
0.8529788408433866 0.025017390978714582 -0.3819469967610299 27 33 31
0.8955968520889371 0.036053111932089196 -0.3826288011412418 173 181 178
0.8658619962616695 0.013966063070243515 -0.3820465114108603 25 28 27
0.9858684007777664 0.03780781190922151 -0.3807060524445409 75 83 82
0.940630820110603 0.020066237034541093 -0.38093629062946266 184 190 188
0.9726076648646097 -0.0062003949750290025 -0.3805161641982471 54 62 63
0.8538365670344937 -0.07424337529558173 -0.3825887885462878 20 23 22
0.8640001918257092 -0.08781553071511565 -0.38063778460180586 17 20 19
0.8640001918257092 -0.08781553071511565 -0.38063778460180586 17 20 19
0.8761393337557819 0.11093131765827928 -0.38201194683897194 28 32 32
0.8329280211153223 -0.02825638941863503 -0.38263876396916435 168 171 173
0.9400377916086425 -0.011493726859463331 -0.3798948255805227 39 45 47
0.934522507327567 -0.049006632216063974 -0.3806244684832519 172 183 183
0.934522507327567 -0.049006632216063974 -0.3806244684832519 172 183 183
0.8319966537211216 0.09993894470141611 -0.38427268672825415 181 180 179
0.934292699386101 0.012942788766262803 -0.3815952915627282 178 184 183
0.934292699386101 0.012942788766262803 -0.3815952915627282 178 184 183
0.8347620752649236 -0.027660168261864116 -0.38324772718485656 165 164 163
0.8336007185095794 0.07961171562314068 -0.38637631551115553 181 184 185
0.8341423853722028 0.07283382879221517 -0.3860134989437313 186 188 187
0.8341423853722028 0.07283382879221517 -0.3860134989437313 186 188 187
0.8601424818569918 0.06304984315481688 -0.3849021989030613 177 183 183
0.9726265358039514 0.05706058006161285 -0.38254230026938474 65 73 74
0.8302840941134144 0.021245214400336696 -0.38505180479023826 173 181 182
0.8326844643386327 0.09714245337613699 -0.38438049079321046 190 189 190
0.878605357232046 0.08771624474707196 -0.3844388335086797 31 34 33
0.9378879091419977 0.06014780257837769 -0.38297170809217806 31 32 28
0.8317981878257399 0.03733649680894475 -0.38438339962024615 176 182 189
0.9066805509078508 0.028717519719680822 -0.38370452725366133 35 38 39
0.9104020467437144 -0.011572836576709622 -0.3833045088811032 167 173 173
0.873625012748802 -0.04819127390732756 -0.38352901424897873 23 26 25
0.873625012748802 -0.04819127390732756 -0.38352901424897873 23 26 25
0.9732228352712878 0.05151379621029344 -0.38294616441880536 191 191 191
0.897868049078284 0.0067388003992083865 -0.3838246761787983 18 24 22
0.8323117479824115 0.005483675437394832 -0.3850129161191825 176 182 183
0.9104440960060711 -0.03732794132130975 -0.382821766202094 166 172 170
0.8852419576492522 -0.07409847081274967 -0.383098509656066 181 181 181
0.8852419576492522 -0.07409847081274967 -0.383098509656066 181 181 181
0.9415027527232982 -0.09933624312343016 -0.38208815901210824 32 32 33
0.8249731552705027 0.1675201795182537 -0.39014753828038656 22 22 18
0.832434738836469 0.10584292379828383 -0.3861812706720609 190 192 194
0.9378200801697385 0.11129562241679165 -0.3853144918516631 33 39 39
0.8845037321470833 0.08166988829294908 -0.3838879728820214 31 34 35
0.9779356668813947 0.025899013182410627 -0.3789853899253744 32 40 37
0.9733463218827508 -0.0371407926911504 -0.3818289855765393 184 190 188
0.942768210738384 -0.07472419391797823 -0.3845987651349859 21 24 25
0.9680614279098066 -0.08194488399324877 -0.3855947602572497 164 168 163
0.9895768675323376 0.0011835566872675986 -0.3810572410406384 187 193 191
1.0871091748524 0.10319627268514046 -0.38818987710031455 91 90 92
1.095219352245838 0.10183634855497294 -0.38717573023971896 103 102 104
1.0990890566875526 0.09861502611793896 -0.38695154488923567 108 107 107
1.095995803017344 0.09565408173238575 -0.3875782180970008 107 106 106
1.089385866523883 0.0912616412094631 -0.38598289655886553 169 174 174
1.1007331151876882 0.09075542629301402 -0.3851659686144038 163 166 165
1.0939380466813209 0.0895024345052376 -0.3865541777255465 169 169 169
1.0984811378948054 0.08932355128712283 -0.3860030732728924 91 91 93
1.095501201755435 0.08642006917071156 -0.3835401455413562 157 160 159
1.0938530592868132 0.08645470023073722 -0.3863542969159735 166 169 169
1.1001708499592338 0.08204172120859776 -0.38627729487240353 107 106 107
1.1001708499592338 0.08204172120859776 -0.38627729487240353 107 106 107
1.1003462827895634 0.08181226331591945 -0.3892820792583981 172 177 177
1.082370561852083 0.0810845398242988 -0.3873047716959796 98 99 95
1.0971660544113613 0.07722890316400643 -0.38483395395847714 165 170 170
1.090342189223513 0.07379841818077057 -0.3871741594552604 109 109 112
1.0962048595173668 0.07155526985119783 -0.38593791149640505 112 112 116
1.0939145316401195 0.07174587019604975 -0.3875476394189559 166 169 170
1.1014232448313532 0.06513648705562639 -0.3862801925401123 111 114 114
1.0977766535203357 0.06380278099290007 -0.3869771817783751 109 109 112
1.0977766535203357 0.06380278099290007 -0.3869771817783751 109 109 112
1.102259059768376 0.060198381892069656 -0.3862250340100583 109 108 110
1.102259059768376 0.060198381892069656 -0.3862250340100583 109 108 110
1.0966532224377803 0.05834791672180968 -0.3844204625848786 135 138 139
1.103412789584415 0.05577079552696559 -0.38481783001376 163 166 160
1.100230403692138 0.052588689907735804 -0.385469586664242 165 165 167
1.0976888825169082 0.050584077662160276 -0.38503750095390654 96 95 100
1.0870034410280658 0.049498340978170415 -0.3855170476016744 98 97 99
1.08546127154492 0.04777004339395255 -0.386319913988697 147 153 153
1.0866356693810184 0.045295696738700306 -0.3848957663993453 87 87 91
1.0934212984423701 0.042179324808016644 -0.3864443754847491 152 160 159
1.0844749167314442 0.040710863321672716 -0.3850657531697231 151 154 153
1.0985826149546734 0.03410635045272529 -0.3848192178136051 101 102 106
1.0985826149546734 0.03410635045272529 -0.3848192178136051 101 102 106
0.9288265492226011 0.03732681222411618 -0.3826818788194425 19 26 24
1.086169510575738 0.031127223659591655 -0.3828822110061048 99 99 101
1.0891452292134909 0.028801875153435397 -0.38451060496200273 166 169 167
1.0891452292134909 0.028801875153435397 -0.38451060496200273 166 169 167
1.078989807366283 0.018927039596372486 -0.3857639482212727 147 153 153
1.0927209720161204 0.013182641089332895 -0.3843912863479858 102 101 104
1.0883800076831818 0.008843307467138751 -0.38515186427956627 102 101 103
1.0874342423475483 0.007846521769110559 -0.38734163744157024 149 152 153
1.0960819416012326 0.00426077539217814 -0.385121907289964 161 165 164
1.0900050449855845 0.001972765871199671 -0.3851031455518016 160 162 161
1.0874691219823787 0.0012517201754682007 -0.38382644183022274 93 89 92
1.0874691219823787 0.0012517201754682007 -0.38382644183022274 93 89 92
1.0947746686877473 -0.000882320029209397 -0.3858289762241463 107 106 109
0.9901443528181929 0.001229522645381745 -0.38235567750489596 171 177 177
0.8792771305158147 -0.006049603428416809 -0.3839712986324658 190 193 194
0.8792771305158147 -0.006049603428416809 -0.3839712986324658 190 193 194
0.9419096224860901 -0.011494357881629176 -0.38370673273128875 26 27 31
0.9611642410275929 -0.022522259294027267 -0.3861127733143545 165 171 171
0.9546132173237997 -0.03011758221299598 -0.38214849937994855 163 171 170
0.9514585940860341 -0.033578152442660936 -0.38258579772733137 40 43 48
0.888887998241785 -0.03390419386990566 -0.3840199316284349 39 38 45
0.8792475135350992 -0.0373732298233579 -0.38379004110258813 34 33 33
0.8792475135350992 -0.0373732298233579 -0.38379004110258813 34 33 33
0.9366566525131028 -0.0620578968627505 -0.38155677220985795 29 32 31
0.9214770610465994 -0.0635877817210214 -0.38228429916126433 32 31 33
0.9214770610465994 -0.0635877817210214 -0.38228429916126433 32 31 33
1.0035078972834826 -0.07459119547332348 -0.38002788653651576 34 37 38
0.9545000410932225 -0.08085561697798191 -0.38092262404311295 177 183 183
0.9545000410932225 -0.08085561697798191 -0.38092262404311295 177 183 183
