ply
format ascii 1.0
element vertex 677
property float x
property float y
property float z
property uchar red
property uchar green
property uchar blue
end_header
0.9743362238074658 -0.011160737842148858 -0.3837686221702541 170 176 176
0.8546616667077304 -0.03701744710269455 -0.3844426403926949 28 32 27
0.9366898502349211 -0.04950535565397445 -0.3844937434551797 161 169 170
0.9366898502349211 -0.04950535565397445 -0.3844937434551797 161 169 170
0.9039971371557406 -0.08152547154965835 -0.3843516024044633 33 34 30
0.9435145260313623 0.08913393581023153 -0.3872226572139753 33 34 30
0.8332493969710963 -0.0016773271449830006 -0.3884677406104245 196 196 200
0.8935352788443645 -0.019487874978175793 -0.3857562434880048 50 40 44
1.0023109092010343 -0.06479224308466987 -0.38283724549476594 45 47 52
0.8321499881610142 0.14084552393205318 -0.3876821613032671 155 154 154
0.8325452324537724 0.1114352761168738 -0.38766353199735554 186 185 186
0.8325486074905696 0.11142829124462623 -0.38762952230070086 186 185 186
1.082821919970401 0.1412689323479265 -0.391646925021288 161 167 165
1.083121251814817 0.1332126920495724 -0.3896447652423907 108 107 111
1.0825717981848533 0.1296596851528081 -0.3873829227760248 142 147 147
0.8325719653227971 0.08943382500500391 -0.3870826407318516 167 166 167
0.832665497911437 0.08954997095983758 -0.38762901566651736 148 149 151
0.8791816581080761 0.056197763353152505 -0.38409203585276797 185 191 192
0.9603527192826264 0.03771146609075538 -0.3850195727602538 44 47 46
0.8765576344013144 0.016083040830603107 -0.3859718503375233 30 29 28
0.8765576344013144 0.016083040830603107 -0.3859718503375233 30 29 28
0.8328206469288058 0.004112857253683819 -0.38458685771557727 141 140 141
0.8332017753229914 -0.021217643003544326 -0.38533661931150465 178 181 184
0.8898245821801194 -0.03392072853639205 -0.3852621482855428 31 31 31
0.9108176130171849 -0.04284148994932846 -0.3835081137745734 21 24 25
0.9603820869136939 -0.055490332994238924 -0.38155250538705926 27 33 33
0.9811805626905478 -0.0687979663695951 -0.38351830128989295 186 189 188
0.9811805626905478 -0.0687979663695951 -0.38351830128989295 186 189 188
0.9065486633756766 -0.08344713390601659 -0.383532551309339 25 31 29
1.0778892662420556 0.14615692804547042 -0.38412771757606723 104 103 103
1.092788128907779 0.14382701494692823 -0.3814847788085647 121 122 118
1.09757072190909 0.1394858840722234 -0.38856863285728854 90 89 91
1.099072379154649 0.12519299552243074 -0.38871356854619116 103 106 107
1.0965595283585552 0.11296112214383136 -0.38741336769054346 142 147 144
1.0965595283585552 0.11296112214383136 -0.38741336769054346 142 147 144
0.9833107030476044 0.07973227355521287 -0.3841071040457286 62 64 67
1.0840585552447144 0.07354801060252546 -0.3885465039973652 108 108 108
1.0840585552447144 0.07354801060252546 -0.3885465039973652 108 108 108
0.8302626613827552 0.0545983473962692 -0.3848747148180591 190 193 194
1.0885926521694675 0.04463811061459764 -0.38319335639463853 102 108 109
0.9036628975913112 0.032261276119622914 -0.3858557654472424 178 186 187
1.081351242095227 0.03118949327465452 -0.3878411795285253 150 158 157
1.072967618833137 0.018060577477933396 -0.3857695475979616 188 192 187
1.1086282012167423 0.014241141741184578 -0.3910006795517381 119 122 121
1.0829288080661112 0.012281059630911955 -0.3866399166980458 154 155 158
0.8720232919517672 0.007720202732432972 -0.38453733582873767 46 42 45
0.8316568812320911 0.126563517055144 -0.384978010742627 145 144 144
1.0907310768987777 0.14600799600208594 -0.3836503162403274 135 135 131
1.0827350753475806 0.13741860563340608 -0.38280235896288106 113 110 106
1.0747686662563916 0.13449273006170515 -0.38300856433685143 150 151 150
1.096874137110699 0.13697612439269724 -0.38874069806643435 137 138 135
0.8324918466362233 0.09205958835522762 -0.38666695463379086 146 144 144
0.9551377216230755 0.09896283278775109 -0.38465303092934894 190 198 198
1.0787308974446803 0.10599676074055657 -0.39037148121604864 125 124 126
1.0853940212007878 0.10426625393415652 -0.3896258553171819 153 158 158
1.0968810148284347 0.10152039682872498 -0.3867651509952273 133 139 137
1.0873888510172183 0.055262858288169896 -0.3846841864727309 121 127 127
1.0935530064006502 0.04603805706217573 -0.3905717117890488 140 148 145
1.0958467680730912 0.03842449609630577 -0.3887449775615635 138 144 144
1.0900753500944065 0.03207116074832715 -0.38121889382648705 129 137 137
1.0911714422381118 0.025415409089361407 -0.39063296790551727 155 163 161
0.8330762542930824 0.020665253458758488 -0.38489011740058304 169 170 172
0.8743330423659397 0.01336288231241325 -0.38734756852578905 25 28 29
0.8858179203191181 -0.005866685276135511 -0.38437562409272175 29 35 33
0.8860693415128577 -0.011696167790590392 -0.38544172976680713 173 179 179
0.8860693415128577 -0.011696167790590392 -0.38544172976680713 173 179 179
0.9622617584733483 -0.024828436410379302 -0.3822253314269115 50 47 50
0.9800626347767007 -0.03636821915473198 -0.38165872615026986 41 49 48
0.8330228898197749 -0.0346879959535596 -0.3841377167569567 94 94 94
0.8330228898197749 -0.0346879959535596 -0.3841377167569567 94 94 94
0.9432497929265566 -0.04279838004721609 -0.3845336055451025 185 188 189
0.9427333751367284 -0.04262344568088571 -0.3835300989292572 184 190 189
0.9361518697075005 -0.06215497396802984 -0.3802239731760672 30 33 32
0.9361518697075005 -0.06215497396802984 -0.3802239731760672 30 33 32
0.8701640451886649 -0.05893973312362636 -0.3857670865318949 153 159 158
0.8701640451886649 -0.05893973312362636 -0.3857670865318949 153 159 158
0.9489927403674553 -0.06827271376049673 -0.38285812471739333 33 39 37
0.9678319310011344 -0.08979087043367642 -0.3838134082217544 42 37 43
0.9322921170471629 0.06734149356210406 -0.3850080185001067 33 39 37
0.9322921170471629 0.06734149356210406 -0.3850080185001067 33 39 37
1.102302411332141 0.048819324230278294 -0.38999113379472533 110 113 116
1.0964700258884266 0.028584766768921573 -0.3900195776197523 104 109 113
1.0822940200272109 0.021595541202044405 -0.385399074977631 124 124 126
1.0907096757168107 0.0042793066645892075 -0.39042226334927793 149 155 155
0.9852688447358521 -0.0007757530000530588 -0.3833047011466536 56 63 65
0.9728660809248544 -0.06759765341198125 -0.3817808047182355 39 45 45
0.9728660809248544 -0.06759765341198125 -0.3817808047182355 39 45 45
0.9616450105428317 0.09635411666183874 -0.3873317936376431 51 50 50
0.9915225786255574 0.07165943503199042 -0.38448827907377897 65 70 71
1.0836279481207394 0.07191981281253729 -0.3898876970320323 157 161 162
1.107967169130834 0.0366070541189308 -0.38945343657217935 106 108 108
1.0964261090556153 0.030540146426450306 -0.3899199082285649 100 106 110
1.095216889950485 0.022136796520798724 -0.39127360180570203 148 154 154
1.0970633396487492 0.010466160273374497 -0.38957676084499687 107 107 107
1.097793842956326 -0.0007516548002273195 -0.3910448142571525 142 148 146
0.905961113301367 0.0928830060301252 -0.38683653739364965 47 56 61
1.1044147002543232 0.05633412484589895 -0.3903148742477154 127 135 135
1.098094543057557 0.013345114025001669 -0.39063041039372415 105 111 113
1.0906474694570112 -0.009910432223240184 -0.3899183359800335 138 142 141
1.0827268080302659 -0.030145012160596677 -0.3891284339581718 125 131 129
0.9063415399097813 0.1095770232729449 -0.3838473403028531 46 49 50
0.8923291377108447 0.10205151449948502 -0.38659091589822886 32 35 34
0.8344868946853565 -0.020450522264227333 -0.38561394133193766 133 133 137
0.8343077141512286 -0.03788679114584277 -0.3855899916950719 112 109 115
0.956178162347585 -0.09466703852237593 -0.3820976299974975 35 41 43
0.8327863333711998 0.12415490323108158 -0.38884003291913666 163 163 165
0.958925842004632 -0.033352775399393624 -0.38241560347190545 52 63 63
0.8339045749464677 0.09081041697490873 -0.3863260993511183 185 186 186
0.8552969646183215 0.04839128702799652 -0.3858280117838436 28 34 34
0.8895869332185601 0.045339965128755065 -0.3836273534244203 30 33 36
0.8323341831379799 0.07430855309587533 -0.38473162475629874 189 188 188
0.833190362816513 0.008624095330739552 -0.3837357513494017 102 103 103
0.8325444385863829 -0.03761794846685971 -0.3832331876957048 119 118 118
0.8745004486321891 -0.047992819493915574 -0.38405342490033917 26 27 27
0.8745004486321891 -0.047992819493915574 -0.38405342490033917 26 27 27
0.8308985759976445 0.07135290047686195 -0.3844778101767064 128 125 125
0.83142969208609 -0.02030744058224335 -0.38321863024993713 122 126 129
0.8320345514033022 0.13340997558867146 -0.3865307697942209 135 131 126
0.8320345514033022 0.13340997558867146 -0.3865307697942209 135 131 126
0.9552625803962135 0.10961717091785304 -0.385893076137675 41 49 50
0.8328270022960037 0.014073716743427396 -0.384596239440184 178 185 186
0.8328966522354091 -0.017278941855419384 -0.38575578365164803 186 186 188
0.8329896008818007 -0.017278172981231493 -0.3862450524593786 171 176 178
0.9666147675325457 -0.029747742394873055 -0.38483649002865594 185 191 191
0.9670285246367922 0.10143491878811388 -0.3835950611505002 64 70 70
0.9670285246367922 0.10143491878811388 -0.3835950611505002 64 70 70
0.833183741808119 0.07397900649708178 -0.3884260004484939 130 128 125
0.8342489219321297 0.028715352751172606 -0.3872592554497566 109 109 109
0.9730458924287448 0.02020298548865445 -0.3819251640505174 66 72 76
0.9730458924287448 0.02020298548865445 -0.3819251640505174 66 72 76
0.8326443279135365 0.060874681905089406 -0.38681816548136133 184 190 192
0.8306546867840999 0.05927407704013605 -0.37753088034978227 199 199 203
0.8335219740075457 0.057212904726281544 -0.3861037076142471 106 109 116
0.8893994914063432 0.02866879528246172 -0.38586760217492944 34 37 37
0.8335817396200941 0.008630541047492292 -0.3849308937632792 102 103 103
0.9235471904192532 0.004936331908750571 -0.3840097887982464 176 182 182
0.8322033051100146 -0.002180294614069014 -0.38424777833579205 178 184 184
0.8908754383310197 -0.016745088123578142 -0.38510379822909024 23 29 29
0.8317226307694228 -0.0305654735952614 -0.3858085900332232 140 142 142
0.8315427450159937 -0.030508620240576836 -0.38505998434139377 140 142 142
0.8325409601264637 -0.03799904199210527 -0.3847460452044008 101 102 102
0.9315492909426867 -0.049077449432411095 -0.38382261247249394 184 190 190
0.9315492909426867 -0.049077449432411095 -0.38382261247249394 184 190 190
0.8598977032988282 -0.04854906024193731 -0.38562532273656924 24 27 28
0.952190268773926 -0.07736563617399111 -0.3825761850935856 30 35 40
0.8327308721859736 0.10540000627435722 -0.38518432172482453 190 192 194
0.9697388211674418 0.110757914387659 -0.38361269200261366 71 74 77
0.8305554476440479 0.09127740352319515 -0.38731792313622654 184 191 192
0.9455213516080601 0.0521163133796861 -0.39074854003346554 34 39 40
0.9800751204249107 -0.0364044505455534 -0.3816805845962369 35 41 41
0.9127609111377417 -0.03788392336750158 -0.3879535775171303 159 170 166
0.9791156070012222 -0.04217637277388825 -0.38089184911365426 186 189 188
0.9791156070012222 -0.04217637277388825 -0.38089184911365426 186 189 188
0.8339927497151394 -0.03425024219193759 -0.38918605289504504 182 185 182
0.9277199010168342 0.0759330124226061 -0.38557303751712874 178 189 189
0.8309763670311768 0.06676887709316637 -0.3879052726259611 185 188 189
0.9040944980554337 0.041872130055429946 -0.38667237443486363 25 31 31
0.8344677856989755 0.015014848194810674 -0.3864525783755699 131 131 135
0.9801965105395781 -0.00567612735741827 -0.3828597939241875 172 177 179
0.8357790767571132 -0.027908461405215492 -0.3865477613330763 173 173 173
0.9488249269553746 -0.0738556797118378 -0.3829899160391348 167 169 168
0.8776388042372975 0.11198259330133951 -0.3879712961780261 34 38 39
0.9488828732062192 0.0886361920751034 -0.38566546159302134 193 199 199
0.9914876868868117 0.06435787320185377 -0.38334727070684405 188 191 191
0.8860324347333097 0.05682501241251571 -0.386153803654194 34 40 42
0.9000562942366703 0.03549041356548445 -0.3852753763061804 41 43 45
0.8791315609392347 0.11330709600508455 -0.38846210125719 36 36 38
0.8717470021624456 0.07030608037122991 -0.38457425184385796 29 29 26
0.8729979582000299 0.0672714209598181 -0.38611831957325227 197 200 205
0.9104223838698821 -0.0053998169902878335 -0.38332154529872836 34 37 36
0.9696169803135212 -0.03336354916412891 -0.38172636298601287 44 47 51
0.9407901058932208 -0.03626413798839603 -0.3807241760052208 29 34 34
1.0784318159959212 0.0561671054842083 -0.39173038755376827 187 187 187
0.9632611248891111 0.03244442895352884 -0.38368287455856925 47 53 54
0.9245390705609677 -0.05408806403291458 -0.3832425986528773 166 170 166
0.9742657861287831 -0.03749181266240226 -0.3832319707572508 188 191 190
0.937861651445503 -0.055117150879349076 -0.385318734974996 168 176 175
0.937861651445503 -0.055117150879349076 -0.385318734974996 168 176 175
0.8323274147579328 0.09653182073321878 -0.3861182465579337 149 149 152
0.8323274147579328 0.09653182073321878 -0.3861182465579337 149 149 152
0.9666457427594265 -0.08965331835903784 -0.38235840347365063 52 54 60
0.9597476790228887 0.10706244562263978 -0.3853880017971946 44 40 38
0.8329582026909438 0.08409757047009075 -0.3876669608181425 146 152 154
0.8648345891247496 0.06735341711375609 -0.3865603418181729 177 185 184
0.885467113597615 0.025088424576308277 -0.3851499097531941 167 177 175
0.8342451148452243 -0.032577506999981284 -0.38528505707034383 100 100 102
0.9275921334519373 -0.055056455337585235 -0.3827990207598483 207 213 213
0.9665351592401848 0.1076857743615003 -0.38567873057470814 182 182 182
0.8331459876338576 0.0993961515250863 -0.3862608716472905 133 133 135
0.8331198257703735 0.09931925900178737 -0.38619270696910735 133 133 135
0.8889321583265142 0.09155420911733739 -0.3860849772621124 36 36 36
0.8327208113249456 0.039046259191728244 -0.38590922321972765 179 185 185
0.9603550124280837 0.03771278547620268 -0.3850226106238421 53 61 62
0.8334206875632526 0.037994856478823336 -0.38616668787157693 117 117 117
0.8334206875632526 0.037994856478823336 -0.38616668787157693 117 117 117
0.9820759246757755 0.026290572615173785 -0.385613465952013 60 71 69
0.8613818768601212 0.0014213228557811268 -0.3844800670618473 37 28 24
0.905939360822621 -0.09581403981339608 -0.3855587564837122 22 25 24
0.9214003118555889 0.07671577975784669 -0.383929305065926 32 38 39
0.8690506384073494 0.0012026526810195314 -0.3862507974655798 34 33 33
0.8328653711608487 -0.007169379488509791 -0.38627440009418723 112 112 114
0.8336143807754575 -0.038792667372410244 -0.385265637870208 164 169 170
0.9335846723922174 -0.05178746255151282 -0.38328757821443443 173 176 175
0.9702787449394722 0.0922484680789627 -0.38435561614586455 71 74 73
0.9492164878116651 0.08854696601781839 -0.3857292688340185 189 190 186
0.863380535754524 0.07430047156708425 -0.3830834294880691 194 202 201
0.8647091132738587 0.07517968443353883 -0.38671159553350487 178 184 184
0.9726874038957721 0.05154168617952032 -0.38231971420126176 191 191 191
0.8329422598999765 0.049493748553004535 -0.3876764555287642 117 118 120
0.832967183276334 0.04949444662008589 -0.3878094455956803 123 123 125
0.832484200794798 0.038643907788197276 -0.38906640973765283 120 121 123
0.963631761020611 -0.0253311149925509 -0.38444310295803236 43 45 51
0.9610951193589469 -0.033916361636075996 -0.38528852147087195 39 45 47
0.8942714179678338 -0.029724740470513353 -0.3904525187841534 159 167 166
0.9181685376282249 -0.037644684107415866 -0.38609120529447744 28 34 34
0.9181685376282249 -0.037644684107415866 -0.38609120529447744 28 34 34
0.9745492135346946 -0.068542760405903 -0.3837417375289342 22 28 26
0.9745492135346946 -0.068542760405903 -0.3837417375289342 22 28 26
0.8322149055148184 0.13190417008775973 -0.38743725371941506 198 198 202
0.834641686369869 0.06738305643736181 -0.3889036716833657 177 180 181
1.00287847197937 0.06116121183179903 -0.3849439768071708 61 67 69
0.9569397523091057 0.04383782303336621 -0.38462087297162134 183 186 185
0.9117599072728181 0.01964661575642723 -0.3867513778664891 25 28 26
0.9117599072728181 0.01964661575642723 -0.3867513778664891 25 28 26
0.880560349535863 0.019546748530606353 -0.38772299240673536 166 177 175
0.9848927558513643 0.0093741705693256 -0.38473435041989595 46 53 55
0.9885127745938731 0.0023458998917448887 -0.38446883395285264 55 57 63
0.9885127745938731 0.0023458998917448887 -0.38446883395285264 55 57 63
0.8336660608061237 -0.03793611418481335 -0.38645044060759554 126 122 123
0.8860171517587474 -0.043145751619304666 -0.3845008179462442 23 26 25
0.8860171517587474 -0.043145751619304666 -0.3845008179462442 23 26 25
0.9304005216733355 -0.05749932624437289 -0.3825449430001976 172 178 176
0.9171856709131582 -0.07396025151279277 -0.3825976246487278 23 26 27
0.9171856709131582 -0.07396025151279277 -0.3825976246487278 23 26 27
0.8298945589607305 0.12112184859877255 -0.38747848351621966 195 195 195
0.9914988023404975 0.06441374728880767 -0.3833963992053994 184 190 190
0.8308140862228488 0.05493274130265613 -0.38748917939536537 185 188 189
0.9749308332282053 0.02560619911241921 -0.3852211199938826 177 184 182
0.8440185620542631 0.007960424757141003 -0.3826471928747067 178 181 182
0.928059529666874 -0.0016111645579417295 -0.38428888970278724 29 28 35
0.8329702259200967 -0.002146427477589703 -0.3867919975544979 179 183 183
0.9116129397041833 -0.01162867539921806 -0.38564731827989307 167 173 173
0.9692626330846043 -0.016171078332160034 -0.38384543659444137 28 34 36
0.9692626330846043 -0.016171078332160034 -0.38384543659444137 28 34 36
0.9692626330846043 -0.016171078332160034 -0.38384543659444137 28 34 36
0.979774240206964 -0.036495107335438474 -0.3811054131718398 28 34 32
0.9796942158617232 -0.04221303164827695 -0.3815617212673004 191 193 192
0.880631733854558 -0.0747279174874661 -0.38593139732004667 25 23 24
1.0021722673888687 0.07236142328336599 -0.3842248342523268 70 77 81
0.9634653569204709 0.03241307801230071 -0.38413642722214236 40 40 38
0.9426900966859065 0.026030583348250633 -0.38513480371568287 34 37 36
0.9238215803729494 0.01297732905341523 -0.38445531473834466 184 192 191
0.9238215803729494 0.01297732905341523 -0.38445531473834466 184 192 191
1.085369515690046 0.16548427733075105 -0.39057108836845394 148 148 148
1.0819295197101986 0.11063537642886902 -0.39100637509526326 167 175 172
1.0960226603771284 0.09571016598634442 -0.38562798210781524 141 149 148
1.0973991111774242 0.09605123208906699 -0.38711859555225475 137 143 143
1.0874601000593593 0.09032046104717244 -0.3880674400632958 113 115 115
1.1043703481315434 0.08450224747429866 -0.3884692295392858 133 142 142
1.0815613122147536 0.0830022226459964 -0.3891716077749193 160 169 168
1.0987376105628237 0.0805764886346022 -0.3896098267289127 110 110 110
1.0952908178313048 0.06636867070291193 -0.39288176004769193 111 118 117
1.0881941598857716 0.04765362510883131 -0.38921224199547794 147 155 154
1.1022786284502744 0.035596855524993955 -0.3865046666419426 124 131 128
1.0941436121079005 0.03002736605682793 -0.387716904812358 106 107 109
0.953647966410808 0.03037267147935395 -0.3844276958746609 40 48 49
1.0005463093554374 0.014819808315194615 -0.38294047209313276 61 69 70
0.9863027282482403 0.005504257660341877 -0.38223397751766697 176 183 182
0.8687770673845187 0.009153843650660088 -0.3842410335351596 187 192 197
1.000801846070479 6.927507289903778e-05 -0.3831297598951137 59 70 70
0.9529158670730983 -0.014922560615440918 -0.3842003060839062 47 51 58
0.8930625601454506 -0.019446881113462103 -0.3841518408264245 45 38 39
0.8932782958099938 -0.01948153698974919 -0.3847591423322258 44 34 36
0.9304918685060052 -0.05767656629132013 -0.38298025844848105 175 178 181
0.9050237999409364 -0.08224405875680513 -0.3793278222476499 28 28 28
1.087715600161326 0.10213947963782614 -0.38823020473869 110 115 117
1.0877270868605333 0.09274379255206054 -0.38869863750160816 121 127 121
1.100431061959612 0.09188474368614923 -0.3877605097226642 108 114 112
1.100431061959612 0.09188474368614923 -0.3877605097226642 108 114 112
1.0818135126342738 0.08959544116437686 -0.38837444407761185 133 141 141
1.0818135126342738 0.08959544116437686 -0.38837444407761185 133 141 141
1.0952158414836755 0.08409656546888655 -0.385892647867543 115 118 117
0.9799641197204968 0.05659748615864457 -0.3831301382746855 191 199 198
1.0936438531448485 0.03979556908262411 -0.38838612590398736 97 103 103
0.932008465498866 0.009584608787361863 -0.3843232713893585 196 202 204
0.8612585670380114 0.012255605434116338 -0.3857217324087141 178 184 185
0.9839589204606596 -0.04615819761127666 -0.382852135740827 45 47 55
0.8735127821257742 -0.054057866150124055 -0.38556424750215 173 176 175
1.081727250610518 0.10699655917195795 -0.3880835067616444 122 125 128
1.0889560233071283 0.07764969310302243 -0.38928133770199347 106 109 108
1.0994241226334083 0.10395800144632378 -0.38995257493816954 140 146 144
1.081185437203169 0.08029637920783793 -0.3888861734247422 164 173 170
1.0950972533269345 0.07159414895020609 -0.39045829995188136 148 153 153
1.0818540391601212 0.06474556019888021 -0.3892900780842815 160 166 164
1.1049122194784315 0.06207773198339772 -0.38905925673434616 100 103 102
1.1046205151999893 0.06044023929755664 -0.38895444190332673 101 104 105
1.0989639802881792 0.01897594621973341 -0.3880646245957913 126 130 126
0.9833151568953743 0.07975596926346482 -0.3841504344021928 60 59 63
0.8317448487144079 0.07183458765352646 -0.3868127740033131 147 144 148
0.9299666921076692 0.07197611277001792 -0.3873805994659191 187 194 194
0.9695319026586613 0.03645293783275984 -0.3824862741045523 55 61 60
0.874885203464128 -0.048363209882340406 -0.3850694641404866 28 27 27
0.8326225587417996 0.06986575720241991 -0.38645788019109417 181 187 189
0.9042143092143028 0.042064481104904336 -0.3865696711701961 26 34 33
0.9313699565453116 0.00963836377900181 -0.38323333834708123 179 185 185
0.8329317894915151 0.07297134524241362 -0.38760121361761657 191 190 186
0.8995049397653636 0.006892319444266337 -0.3871868891026406 21 27 25
0.8678163588538332 -0.06386754643067669 -0.38470865168043855 18 24 24
0.9692685827041192 0.09177653114159445 -0.38259771545508486 46 49 52
0.9787436654485099 0.08815198161314672 -0.3815708097310463 43 49 49
0.8588668375377652 0.07662216521029643 -0.3872449132974935 35 38 39
0.8334184038648556 0.06750543260089525 -0.38791203211109965 136 133 135
0.8746271387677234 0.06132758802358529 -0.3859503131195095 28 31 30
0.8904364635974327 0.045786896253156135 -0.3853114557940212 28 34 36
0.8904364635974327 0.045786896253156135 -0.3853114557940212 28 34 36
0.8349645701164587 -0.02062329995245762 -0.38770276603069936 122 126 127
0.9596257314970349 -0.033430282926411564 -0.38280523505684677 35 38 38
0.9510830346344612 -0.033256757473761854 -0.38086895158668893 33 34 35
0.9893665385973215 -0.06353133538784236 -0.37861459338736203 43 42 44
0.8321373639977364 0.12743595866843005 -0.387814164706609 126 125 127
0.8324067705848477 0.12100186838826814 -0.38703758612860506 201 200 202
0.8324067705848477 0.12100186838826814 -0.38703758612860506 201 200 202
0.8322801187570609 0.10883836362083317 -0.3873232177713033 197 197 199
0.9487360526846143 0.08844068389571437 -0.3851460891234216 183 191 189
0.9487360526846143 0.08844068389571437 -0.3851460891234216 183 191 189
0.855283826344265 0.04879553556726492 -0.3859587371845145 28 34 33
0.9627427721999571 0.029129305338940013 -0.3826525950943466 31 34 35
1.093667023245245 0.015806472856651595 -0.3874649493651129 96 95 99
0.8313069885942294 -0.011963328326904296 -0.38726807018036224 179 182 184
1.080073945927842 -0.03704343258167983 -0.3841209110006328 74 77 79
0.9555438683382684 -0.032892450447739675 -0.38326783682603216 28 27 34
0.8806112432382774 -0.03773755139339701 -0.3876344780588446 25 28 26
0.9420002883376358 0.11359619592787429 -0.38728330668491895 42 48 50
0.9594371893141637 0.10691807335995727 -0.3848299505729065 43 31 23
0.8852519842583201 0.08788142252151092 -0.38560816512425716 189 197 198
0.8852519842583201 0.08788142252151092 -0.38560816512425716 189 197 198
1.0985028460283492 0.0872602266282315 -0.3874339576607914 148 153 153
0.8603099001934972 0.0038262011752100904 -0.3854185725277057 194 198 202
0.8548508850442776 -0.0126448733249132 -0.38587633759497664 37 37 39
0.9009380997664385 -0.08119855408604364 -0.3841329347194401 178 178 178
0.9416653537752172 0.11321574213438995 -0.38946796068182665 39 47 48
0.9704146359271206 0.11093487325990947 -0.384819205689828 61 61 65
1.113316037408459 0.11180055206555424 -0.40006067434964504 128 136 133
0.9492791355054832 0.08286309433225342 -0.3858425572965983 41 47 46
1.0959506705993716 0.0894463588062146 -0.39025342827216575 146 152 153
1.0825036147792853 0.07702334277395541 -0.3912406210478662 160 171 169
1.0868539079972706 0.06419656729847317 -0.38840375958148676 157 165 164
1.0063077200153667 0.05108553739012446 -0.38577984196693377 59 69 76
1.0063077200153667 0.05108553739012446 -0.38577984196693377 59 69 76
1.1052979561684018 0.04762302788834644 -0.3886473489303904 101 104 104
1.0835302509507667 0.018751609693385064 -0.38328242193441514 139 147 146
0.8651176260577105 0.008455372552834906 -0.38547465436246126 44 44 46
0.955265169368455 -0.017897523833173713 -0.3836431263937713 187 198 196
0.955265169368455 -0.017897523833173713 -0.3836431263937713 187 198 196
0.9602476244749928 -0.05530356793297957 -0.38114332816864216 26 32 30
0.8675589345652044 -0.055972492054138484 -0.38571342107415507 185 185 187
0.8860855079032282 -0.06850622640644204 -0.38390037108280345 27 30 29
1.0873203868738721 0.09530267603914093 -0.3887084077236081 122 126 127
1.0837040870808357 0.09213391083030942 -0.38822904960595084 113 118 116
0.9835278170966126 0.07969901228590356 -0.38414276694985994 63 66 69
1.081244295933006 0.04173379074183937 -0.3898367348205195 162 172 170
1.086699099857567 0.03561746139757517 -0.38762151148458024 153 160 158
1.104083211325068 0.035521807168062615 -0.39083402457665006 97 97 97
1.0921053443192097 0.03346151555051771 -0.388064999994635 141 149 147
1.086553557448504 0.02793848207089302 -0.3894573624638234 108 109 110
0.928456716823159 -0.0577128039539726 -0.3841308610985533 47 39 45
0.9111097906239422 -0.06829041277004132 -0.38392609060034233 31 34 33
0.9632277426895557 0.10403102700369857 -0.3850097295620698 56 51 54
1.1026968524216092 0.09243910707060932 -0.39007890571742204 111 117 117
1.0948588130257841 0.07680541354174779 -0.3852431514268596 112 117 118
1.0807581277840705 0.058298946990336935 -0.389406523553836 167 176 174
1.1039337957386355 0.055148878303450034 -0.3878701311289588 107 113 113
1.1081850670819104 0.0580883039826822 -0.39041077474111063 128 133 128
1.101145009531502 0.05107921811757301 -0.38919060587422705 100 103 102
0.894524005056348 0.03606758646832391 -0.38708314291479823 181 189 186
0.8645093582637667 0.07498302802262319 -0.3855168536204472 184 190 190
0.979439133688317 0.05674629819926687 -0.3823106122418619 188 191 190
0.9597128892566719 0.04460343872062034 -0.3847390382502209 195 203 204
0.9036460448954478 0.04184136410035145 -0.38512935627489275 22 28 26
0.8853625674132782 0.025075274912085513 -0.38439375428517203 178 186 185
0.8334767718956891 0.013076190461474258 -0.3875409796242877 124 126 127
0.8334767718956891 0.013076190461474258 -0.3875409796242877 124 126 127
0.8916221183116864 -0.028525508923732127 -0.38236259718575183 175 181 181
1.0075275516913846 -0.07611442748052422 -0.38619131187733824 33 38 43
0.8301137422266617 0.1254319237041518 -0.38700427918783964 195 195 197
0.8889323315322957 0.09140555593905622 -0.38564511315023287 32 32 32
0.83275789241965 0.08179228620194666 -0.3871304970777068 193 193 196
0.83275789241965 0.08179228620194666 -0.3871304970777068 193 193 196
0.831843691953418 0.081211006310503 -0.38723748513406014 139 140 144
0.9314975259749786 0.07833741678479497 -0.38425094519030983 40 43 43
0.8617797330660102 0.06655672918727111 -0.38687282198874445 47 32 23
0.8339747915408477 0.05513946269485033 -0.3868119745379238 109 108 110
0.8330898574530008 0.039051878946468783 -0.38673584558336177 182 184 187
0.8342775055321007 0.028680855679357315 -0.38724874521390057 115 115 120
0.8342775055321007 0.028680855679357315 -0.38724874521390057 115 115 120
0.9478951703140283 0.025466986143259093 -0.38237469064901514 176 184 182
0.8733192955854097 -0.0009715209064855394 -0.38434197794278874 24 30 29
0.8347957640383271 -0.012312030808372044 -0.3852553061874561 175 175 176
0.9640676714053189 -0.030302411920140857 -0.38409062920831133 166 174 173
0.833476716030962 -0.021203327252637856 -0.3856887481200399 170 173 174
0.8895170223829963 -0.033703020814574304 -0.3839572013864373 31 31 31
0.8801623308226423 -0.043268897650902506 -0.3851636588848645 186 186 186
0.8801601760760311 -0.043266781688529515 -0.3851402816333796 184 187 188
0.9062125647868011 -0.09595936051880094 -0.3864581972783731 25 26 26
0.9038037850646687 0.10642416789502156 -0.3869253276328527 192 198 198
0.9038037850646687 0.10642416789502156 -0.3869253276328527 192 198 198
0.9740676059202936 0.08853467811580168 -0.38443176268027085 193 201 202
0.8331829670404046 0.004152356310914379 -0.38583909285665197 165 161 165
0.8329926976524763 0.00018141455170921916 -0.3861400871291116 134 131 135
0.8336831010781081 -0.02272872405751624 -0.38639952389925314 139 139 141
0.8346155389200061 -0.03770712124934107 -0.38560759981914816 110 103 111
0.8346155389200061 -0.03770712124934107 -0.38560759981914816 110 103 111
0.9912451741032189 -0.061052264641962804 -0.38273333310288055 48 44 49
0.8988254287193459 -0.05582407206169549 -0.3848645250964351 22 25 24
0.8583270152596444 -0.06520356326110861 -0.3850741885899587 32 35 37
1.0796873527477784 0.13178932273849134 -0.3845073228967102 151 157 157
1.0869085191661767 0.09172254498244772 -0.389860017868045 165 173 174
0.9837533659961215 0.07894374515515928 -0.3834803201638702 63 69 71
0.9424109707514811 0.05689981350629445 -0.3844377550042485 195 203 204
0.8548839013840646 0.049852097956406737 -0.387450513801024 38 39 42
0.917935085094707 0.05086694833392123 -0.3859751047327706 34 40 43
0.917935085094707 0.05086694833392123 -0.3859751047327706 34 40 43
0.8908832451525502 0.04591718539937986 -0.38600650915697754 35 38 39
0.8908832451525502 0.04591718539937986 -0.38600650915697754 35 38 39
0.8908832451525502 0.04591718539937986 -0.38600650915697754 35 38 39
1.088047475462591 0.05358816139576755 -0.3890543302377549 169 177 176
1.079547224292475 0.03744199302329211 -0.3873760732333713 171 179 178
1.074612488052577 0.032073916711174794 -0.38663311322627525 188 194 192
1.0952156757469116 0.0325204984637936 -0.3890301905398821 103 109 109
0.9429110654213767 0.02010511658570161 -0.3846199039872843 197 203 205
1.0821147752708213 0.023705089777633696 -0.3924721817211379 107 107 107
0.9320927003619389 0.00952757977412433 -0.3844088776030432 190 196 198
1.098089820291417 0.010441766089905248 -0.39098073965430463 111 111 115
0.8616942999524864 0.005629557579321107 -0.3863550686240607 201 203 210
0.8613409615435801 0.005535165754387432 -0.3848881816841179 192 195 198
1.0864802719084568 -0.01261930705854451 -0.3855743985012233 154 160 158
1.0860389240777875 -0.02870135788343786 -0.3880871256555661 103 109 111
0.9113027056545163 -0.06834925561824978 -0.38436925537338634 29 32 31
0.9600364867862373 0.10709349174474123 -0.38563748760313155 56 48 41
1.0841179383555166 0.11124275747125609 -0.3905374478509827 133 140 134
0.9808280035945227 0.08910063733111537 -0.38453519815839876 52 63 61
0.9497662545208242 0.08307447438927765 -0.3865885869938612 44 51 54
0.9817971421832441 0.08357090724830514 -0.3864232084319895 196 202 204
0.9817971421832441 0.08357090724830514 -0.3864232084319895 196 202 204
1.0858085848519834 0.09411314187983057 -0.3890995393663378 157 165 166
1.1059170396635642 0.08790535175319246 -0.3902206729736191 137 145 142
1.0969067023253585 0.08306445122602736 -0.3907999111425785 153 161 158
0.987965933312781 0.06496157681361334 -0.38479240387288344 74 68 69
1.0948756623639568 0.07135677700199823 -0.3884657221956327 149 157 158
1.1021287934423545 0.06951376254653839 -0.3923041910756319 126 134 135
1.0867090052954953 0.04788852069974907 -0.384273459522818 117 124 123
1.1038485294702023 0.01885555282942204 -0.38938332048448215 94 100 100
1.0866849224632995 0.009432476114243226 -0.38950543568552126 111 114 113
1.0919176618866289 0.008532912724773281 -0.38653402289279426 154 163 162
0.9003842772546472 0.0071430455132312646 -0.38908146646702096 25 31 31
1.1034712400910751 -0.006806437055510871 -0.38457421987283463 126 132 129
1.0894917353493019 -0.018762909310737395 -0.3889127230198577 147 154 155
0.9321842848904365 -0.024271096199209533 -0.388830409905114 27 33 33
0.8701620551660728 -0.05881378459091786 -0.38587193760301935 182 183 185
0.870018857549024 -0.05878920741367184 -0.38529543208867545 182 183 185
0.904055504939732 -0.08166882896256303 -0.3837872206901293 44 44 40
1.0920258990909357 0.08042424730016255 -0.38954951399716353 122 129 133
1.0971809642896937 0.020928616626492764 -0.3903145708836112 112 117 115
0.8594154730384034 -0.0008956253747127584 -0.3868956416031411 35 38 41
1.0985435662266618 -0.012008505370894944 -0.3905177894214808 142 149 148
0.8618058904657283 0.07505538045388466 -0.38648576561455106 38 31 24
0.8740176859292011 0.07607253183393833 -0.38681743905066307 29 35 35
0.9951431531643767 0.06820084103290026 -0.38426748259442783 75 71 74
0.8734684227510031 -0.053950206590372356 -0.3851295457547826 182 185 186
0.95249272675401 0.04762908133877659 -0.38452604746357544 52 52 56
0.8896094842559353 -0.07776646140725084 -0.38406242095113735 29 32 35
0.8896094842559353 -0.07776646140725084 -0.38406242095113735 29 32 35
0.9009513785642409 -0.0812748690296592 -0.3842356303962228 164 167 165
0.8646330553094885 0.07510760388153592 -0.38583265653708365 181 185 187
0.8679877525371738 0.0742617640180213 -0.38525755609903356 35 30 29
0.8589726140680223 0.07256967591183937 -0.38577618061760893 31 34 35
0.9268811956069324 0.06746712428544285 -0.38563393080039077 181 187 185
0.9268811956069324 0.06746712428544285 -0.38563393080039077 181 187 185
0.8671589130801504 0.014063573616851796 -0.3855905913847725 23 29 29
0.9321660845057806 0.009517305945052018 -0.3845632871360196 174 180 180
0.8549474416735412 -0.012668133790898348 -0.3859047434059439 24 27 28
0.9806277008127495 -0.03680597743362358 -0.3828510019833146 28 34 32
0.8859345346076809 -0.037537326903656805 -0.3848232708642332 163 171 169
0.8800574081061642 0.025752252373464193 -0.3862829284625085 35 37 33
0.8800574081061642 0.025752252373464193 -0.3862829284625085 35 37 33
0.9692402368126833 -0.016096856172026726 -0.3834334276133579 38 41 42
0.9692402368126833 -0.016096856172026726 -0.3834334276133579 38 41 42
0.9598058694825962 -0.033442822551243354 -0.3833113546229334 34 35 37
0.8547991952849899 -0.03724368411044186 -0.3858106602518452 30 35 34
0.880925987854823 0.08905279227429777 -0.388964855396323 31 32 29
0.880925987854823 0.08905279227429777 -0.388964855396323 31 32 29
0.911530583489562 0.08859156579901983 -0.38647637773980364 201 201 205
1.0010729914569663 0.06948522589846472 -0.3865841996803397 190 201 201
1.0900574907105482 0.08079559769667624 -0.3929465790939064 162 172 172
0.9403000110259793 0.060677731153246615 -0.38658360547249415 45 44 44
1.0822760364522668 0.058726141332858146 -0.39106654645122657 170 179 177
1.0894432240976275 0.046922289980512455 -0.39447555024594666 156 162 163
1.0963532138136798 0.032893216390180044 -0.39249562130082 151 160 159
0.9184277051638329 0.020238722004637593 -0.38766030162089277 194 200 202
0.9184277051638329 0.020238722004637593 -0.38766030162089277 194 200 202
0.950592758440755 0.020740211121600856 -0.387779193184523 46 51 54
1.1061838735050236 0.027356187034725633 -0.38963842913326713 128 136 135
1.101675913041855 0.004943596852748457 -0.39123152498506475 144 155 153
1.1011549141089458 -0.01609377883702919 -0.39253316776151415 145 151 151
1.1019335277075473 -0.017678866038311435 -0.3915660176385747 102 107 108
1.086449586655821 -0.025081089009220618 -0.3888270316608346 113 116 115
0.9017103360029427 -0.02571580568321396 -0.3874408442375117 189 194 199
0.9017103360029427 -0.02571580568321396 -0.3874408442375117 189 194 199
1.0803455860538627 -0.033181149318883864 -0.39030752459062573 165 173 174
0.9047932741528286 -0.0947654601610636 -0.3807092353552563 30 33 32
0.8799924814109812 0.02573812653218406 -0.3863496604251115 31 35 34
0.8799881324328357 0.019585370657709798 -0.38555482525177714 197 200 203
0.8968003066586091 0.10756361571002304 -0.387430806765289 200 201 203
0.9796592802132587 0.051327519057959736 -0.3833987627811923 69 70 69
0.9796592802132587 0.051327519057959736 -0.3833987627811923 69 70 69
0.9663785180966005 0.032377551205395004 -0.3825170637286737 202 202 204
0.8866737525659418 0.01954075757684948 -0.3871548676358076 35 37 43
0.9267863911405501 0.06751552596607095 -0.3847445551004732 195 201 203
0.9267863911405501 0.06751552596607095 -0.3847445551004732 195 201 203
0.8555195757692117 0.027144132743913776 -0.387078589402258 39 45 47
0.9083935844811288 0.02926498690210865 -0.38669609888500694 37 39 40
0.8999538879523415 -0.019299448376046933 -0.384355154192315 185 191 191
0.9831180759630449 -0.046162785242967005 -0.3812150640255036 42 45 51
0.928308644101528 -0.05036767170085361 -0.3834879105366771 50 47 46
0.928308644101528 -0.05036767170085361 -0.3834879105366771 50 47 46
0.968733269537374 0.10186749586102391 -0.3854998613241441 44 52 53
1.079030761812205 0.09790753178025323 -0.39031619457413247 126 124 121
1.1035967434313505 0.09869691672712147 -0.3937942817925831 137 143 143
1.1113669871316265 0.09826870870030087 -0.39435372718092876 107 107 102
1.1119760438977442 0.07928011976219855 -0.4007055200495517 141 147 145
0.9507468473487058 0.05227803687708257 -0.3881178786460119 196 201 204
1.083914990964276 0.05850396999692188 -0.3877382334271454 149 156 156
1.0850028021547722 0.051940188896729314 -0.38918905984009333 161 169 168
0.8804645786385017 0.019730874860357617 -0.3867349714449917 198 201 204
1.088392100482513 0.03142465424272489 -0.39346749348432786 169 177 176
1.004429138202581 0.015514283061546704 -0.38826875838196645 70 78 79
0.9343186025214029 0.009934616844434866 -0.3888471953548303 196 201 206
0.9343186025214029 0.009934616844434866 -0.3888471953548303 196 201 206
1.108407327412418 0.01772485267769005 -0.391195020342376 127 135 132
0.988619424500779 0.005704553973238463 -0.38570291467567647 190 203 202
0.988619424500779 0.005704553973238463 -0.38570291467567647 190 203 202
0.943875627867377 -0.005789628365629246 -0.3862467256545104 196 202 204
0.8560884278500701 -0.012337415612508191 -0.39074131456285105 35 38 41
1.094610862861327 -0.007841337720832573 -0.39235173381723454 111 114 115
1.094610862861327 -0.007841337720832573 -0.39235173381723454 111 114 115
1.0072879526644494 -0.011825063182325105 -0.3864712863165605 70 76 78
1.0997176924250718 -0.010459525901011605 -0.3902021713765956 107 114 117
1.0911425740967136 -0.012443111966660633 -0.39053257265727936 164 175 175
1.0796247464125026 -0.014606528460729596 -0.3895840175279778 177 185 186
1.0919187166002833 -0.030114317580063936 -0.38830469446281524 124 127 128
1.1117566097258949 -0.03088309342167071 -0.39165735053250156 115 115 113
1.080199304045355 -0.04471403749300958 -0.39038185113075013 168 179 179
1.103538329312805 -0.04660423919094894 -0.39767215145755164 141 149 150
0.8878560989773698 -0.04341843324816215 -0.3889633024334026 33 36 39
0.8878560989773698 -0.04341843324816215 -0.3889633024334026 33 36 39
0.9451929096014525 -0.06901782487478965 -0.38774836585522554 191 196 196
0.9461930589553359 -0.07460819988836256 -0.38950377005669284 38 38 43
0.9461930589553359 -0.07460819988836256 -0.38950377005669284 38 38 43
0.9859635990631003 -0.09945142507472755 -0.38753381926127184 46 55 56
0.8808670467420056 0.08926121752446682 -0.38922195297174694 35 33 33
0.8785275392437548 0.04942778013584276 -0.3830201772754312 32 31 33
0.9487712226662298 0.01981925535749858 -0.38405035166650564 40 48 50
0.9487712226662298 0.01981925535749858 -0.38405035166650564 40 48 50
0.9220912397995806 -0.0010515217434721859 -0.3844648811649386 35 41 43
0.9220912397995806 -0.0010515217434721859 -0.3844648811649386 35 41 43
0.9220912397995806 -0.0010515217434721859 -0.3844648811649386 35 41 43
0.9685010216358145 -0.01634904619371605 -0.3822113731187601 51 61 64
0.9685010216358145 -0.01634904619371605 -0.3822113731187601 51 61 64
1.003853069581383 -0.03641088871580532 -0.38103279400807993 68 78 81
0.9728238939135133 -0.07375348402852479 -0.3801370817171601 188 194 194
0.9041945373045275 0.10698414782199463 -0.38756886612013186 201 204 207
0.9398042769797215 0.1117274572605208 -0.38368618248546954 42 48 52
0.8760492298112337 0.10958689410499253 -0.3819805682281312 29 32 33
0.8545068147229092 0.08913737606948482 -0.3836778412294636 32 35 34
0.8786792399264325 0.05583048471381238 -0.3827065392441803 184 187 188
0.8786792399264325 0.05583048471381238 -0.3827065392441803 184 187 188
0.8539026030326208 0.04841863077361613 -0.3828432379052955 39 39 43
0.9401899837118574 0.055370710436847256 -0.38009167444188796 198 201 202
0.9706039240459469 0.02439744929754458 -0.37814113613184336 182 188 186
0.984998886451962 0.001791412566887689 -0.3801303134893403 66 68 74
0.8892882640907495 0.09212056284664485 -0.3872377909631867 44 38 40
0.9577167825181371 0.04342485143157561 -0.3811069472149624 200 202 199
0.9682734291936118 0.035658525095244045 -0.3803711537641361 63 66 67
0.9326517841151033 0.009770291535422217 -0.3855340245764823 202 205 206
0.9326517841151033 0.009770291535422217 -0.3855340245764823 202 205 206
0.9652896566235294 -0.019429978972125374 -0.3811695931762017 39 40 44
0.9617173024637055 -0.020596049577847424 -0.3748553024730715 64 60 61
0.8739530689808744 -0.04861409989422442 -0.3817959271569537 34 34 36
0.8739530689808744 -0.04861409989422442 -0.3817959271569537 34 34 36
0.9855068736359235 0.062279310764293654 -0.3702539752771795 65 61 61
0.8302094526875492 0.12277298771957694 -0.39084136547658593 195 194 194
0.8317525928200065 0.0709570077055056 -0.3822508945155508 195 194 194
0.8287429447772414 0.04729764656072176 -0.3737013589425556 189 191 192
0.859198073337579 0.03145880560623713 -0.36852708901806036 23 28 26
0.8315677158885064 -0.0035906566781009194 -0.38336866071946196 120 119 123
0.8315282550958879 0.10752696409890541 -0.38236929828062804 117 109 108
0.8319169299766522 0.10026047368750346 -0.38460655860799864 186 186 190
0.9324107360125924 0.0744251873929692 -0.3931015718231543 153 166 163
0.8311343741471618 0.03136967388977943 -0.38369528159354066 112 111 115
0.970927751515665 0.029561008490158865 -0.38488861587309486 32 45 43
0.9686523901161608 0.028751664112992546 -0.3813970557208134 49 57 58
0.9660125211074765 -0.08952670615553995 -0.3813870108954769 38 36 38
0.8281325647733027 0.060664452257652615 -0.373701645732899 191 191 191
0.832671033035286 0.02670396170858042 -0.3793410053438129 119 116 114
0.832671033035286 0.02670396170858042 -0.3793410053438129 119 116 114
0.832340382489034 0.0020080318540736126 -0.3757768755836768 185 187 187
0.8309269868078505 -0.02121678877257502 -0.37887599083393764 126 124 128
0.9160527892722893 0.08809291290802498 -0.38374548924163754 26 32 30
0.9710887020432388 0.09338047981022393 -0.38636105714920355 36 39 38
0.9898655866493546 0.07109157377972442 -0.38248652234752756 67 74 68
0.8736266099029922 0.013134760134830255 -0.38579382132321294 12 18 17
0.8595001685109208 0.003564319905069876 -0.38315161368189193 138 154 152
0.8595001685109208 0.003564319905069876 -0.38315161368189193 138 154 152
0.8543008250449209 -0.012736093196872406 -0.38537848163715843 24 27 28
0.8319507457678306 -0.0381086572367756 -0.3832159511006105 90 88 83
0.9650899077444173 -0.08403968151329491 -0.3796759948343166 39 37 42
0.9578162246899607 0.037016646900087796 -0.38146235405355583 43 47 42
0.957735315899754 0.03702952652452637 -0.38131647570089244 56 58 59
0.9025626150769183 0.03179565379523985 -0.38366660217459325 167 175 172
0.8897194936435857 0.03067422320553733 -0.3851134853044189 41 33 26
0.8897194936435857 0.03067422320553733 -0.3851134853044189 41 33 26
0.8339205264393701 -0.02058652049221626 -0.383949514517187 113 113 115
0.8837338930776277 0.08696320042769902 -0.3830106982455219 164 172 171
0.8837338930776277 0.08696320042769902 -0.3830106982455219 164 172 171
0.95161797523798 0.09231533455724625 -0.38174661399103155 35 43 42
0.9523275002640703 0.09295998929796578 -0.3830254749775064 23 29 30
0.9089351726696098 0.08086186974640742 -0.38251221670345276 19 25 25
0.9089351726696098 0.08086186974640742 -0.38251221670345276 19 25 25
0.8723325427471581 0.07492308147863755 -0.3832083983606652 19 22 21
0.8723325427471581 0.07492308147863755 -0.3832083983606652 19 22 21
0.9322527680795655 0.07097396879875136 -0.3801642985962528 151 164 159
0.9410359767140805 0.01988173357391031 -0.38179465343220925 142 157 154
0.8638765931710322 0.008161149849441935 -0.3828000333532314 18 25 23
0.9309033466420994 0.00952390840956606 -0.38280770100183176 137 155 151
0.8638102216479243 -0.088126659594326 -0.37947677707440247 13 17 15
0.9574840086905392 0.10562054937693657 -0.3817874884198685 59 61 60
0.8604200926383068 0.06565059782052521 -0.38332716480700063 35 31 24
0.9551161181775824 0.043371765196032114 -0.38224234135523955 184 188 189
0.9551161181775824 0.043371765196032114 -0.38224234135523955 184 188 189
0.8324402272219444 0.026902157095962782 -0.38346261597133924 172 175 176
0.8312127804523557 -0.007921468073202459 -0.383299749303607 165 168 168
0.8312127804523557 -0.007921468073202459 -0.383299749303607 165 168 168
0.8321628390580313 -0.017304583684983547 -0.3833690827546434 159 162 163
0.8308654833156242 0.07106994915601107 -0.3839869076375214 130 127 128
0.8308654833156242 0.07106994915601107 -0.3839869076375214 130 127 128
0.8315701433373145 0.027979355764100548 -0.3832089886316147 107 107 111
0.8639230698859973 0.008160852736608892 -0.3829668806961857 31 32 32
0.9849045402267971 -0.052927897455690494 -0.3799861433174879 185 188 189
0.9538558118243188 -0.0804314113150846 -0.38035353378739084 184 190 190
0.9538558118243188 -0.0804314113150846 -0.38035353378739084 184 190 190
0.8779542224299692 0.08004240884394054 -0.3811533531074772 187 186 188
0.9789228405379696 0.08879402756823299 -0.38228568126804974 29 35 33
0.9355483607229452 0.07644358126712487 -0.37864859165679965 35 32 29
0.9768970217375117 0.0811345207416697 -0.37949886323593657 185 186 182
0.8560903835343595 0.01427088095369999 -0.38030955465875127 31 34 35
0.8314687642528743 -0.03326086201534316 -0.3792806254044458 108 108 108
0.8533192439063896 -0.0366916479550117 -0.3767180931074024 25 31 29
0.8315834285141117 0.08833156192987358 -0.3837815713890467 130 130 130
0.8296712015563306 0.047336357525863675 -0.3818002510926917 176 182 182
0.8334082250244761 0.04762265107144608 -0.3835991614613577 173 175 174
0.9094395634361322 0.05038035911194412 -0.38219188736715365 145 158 157
0.9094395634361322 0.05038035911194412 -0.38219188736715365 145 158 157
0.8303334871981193 0.03122628556618003 -0.38429379253317836 170 178 177
1.0028066053773437 0.02586409793285395 -0.38025789815439115 70 81 81
0.9155752943792902 0.01957035930130899 -0.38261167207519975 166 174 171
0.9581311557549663 0.006402381776339446 -0.38031320952970016 27 33 31
0.8321881175377086 0.0014368046981015948 -0.3827860095503981 155 155 155
0.8319119201305599 -8.228992461843031e-05 -0.38314329202565856 90 90 92
0.832030111885823 -0.0172924729552428 -0.38285909580771793 173 175 180
0.8318593836382092 -0.03278644062319743 -0.3835240417572054 86 86 85
0.9900152061755371 -0.053051088739520455 -0.3803821431727559 31 37 39
0.8788927773966907 -0.0683633164563128 -0.3820421686725117 142 150 149
0.9025458116069954 -0.08098036605298772 -0.3817497045228903 22 25 22
0.8330151895670208 0.10592449688483474 -0.3843269916243759 131 125 127
0.8317211909803591 0.049869202164894114 -0.3833144987864347 184 187 190
0.8678608049879113 0.008829189024189665 -0.383045087468645 165 171 171
0.9632783541468579 -0.029704235456323693 -0.3798978706558728 184 190 188
