ply
format ascii 1.0
element vertex 677
property float x
property float y
property float z
property uchar red
property uchar green
property uchar blue
end_header
0.9238841393916216 -0.05425816050348446 -0.3827210252794727 166 170 166
0.8576577369125463 -0.06541277161085983 -0.38459235628587696 31 31 31
0.9031492290202434 -0.0813997216137991 -0.38291094423639066 33 34 30
0.9618162810971974 -0.08827086526842548 -0.38149478266148523 167 170 171
0.8325834630656183 -0.0019635306722913925 -0.3862448194034548 196 196 200
0.8665567083938407 -0.05576283163688555 -0.3828628222372405 186 186 186
0.8665567083938407 -0.05576283163688555 -0.3828628222372405 186 186 186
0.8316808990125744 0.13995211370771335 -0.3859657922541292 155 154 154
0.8316808990125744 0.13995211370771335 -0.3859657922541292 155 154 154
1.0777827474004196 0.13901149550156344 -0.3863957632987833 161 167 165
1.0814075542610928 0.13227430496182052 -0.38803085973670004 108 107 111
1.080892684684834 0.12875252045462723 -0.3858154530784812 142 147 147
0.8643103818252086 0.1015118180560663 -0.38547710574548255 27 33 31
0.8643103818252086 0.1015118180560663 -0.38547710574548255 27 33 31
0.83212905570531 0.08887978110156629 -0.3856491075915197 167 166 167
0.8321480754111332 0.08889694406121516 -0.38575520668358065 148 149 151
0.888075657619012 0.09079860811138366 -0.384232411697256 34 34 32
1.0767801197818405 0.08523485574639368 -0.3841094452211739 158 161 164
1.0817772045527814 0.08054821447982466 -0.38663742303840987 112 113 115
1.0795995579448376 0.07627702252932776 -0.3880856276592507 160 166 168
0.9592087453160335 0.03729566338712247 -0.3833383314590858 43 45 46
0.8337419026020882 0.028412138739522613 -0.38558597655105487 108 109 111
0.88516719403826 0.024792485094714545 -0.38477742765098827 167 177 175
0.8759366010337978 0.015834003551566053 -0.3846906376228356 30 29 28
0.8759366010337978 0.015834003551566053 -0.3846906376228356 30 29 28
0.8983638791103307 -0.022716595673150198 -0.38300967133593955 160 170 169
0.8968083007740522 -0.03145899933670955 -0.3836807087017632 157 165 163
0.8966691230548892 -0.03143396297542075 -0.38325232872244464 157 165 163
0.8321436071873429 -0.03285512786337781 -0.38417355300822836 110 112 113
0.9100274028640647 -0.04287284375515212 -0.3822044039943677 21 24 25
0.9576753724692935 -0.05492515666574249 -0.3773226031940506 22 28 28
0.989573803447902 -0.06409928866042515 -0.379544257261536 39 41 47
0.8644991789420206 -0.05872529772216525 -0.3838935990118068 167 170 169
0.905745268978266 -0.08331361150669563 -0.38219901779350346 25 31 29
1.077716393741392 0.28611228566031754 -0.39379784836334664 32 32 26
1.0815194791710414 0.13572503654477575 -0.38890047300207187 102 101 97
1.097032639476939 0.10321441293500598 -0.3875827743808183 140 146 144
0.947681033631376 0.08228417234074012 -0.3836638175045476 42 48 48
0.947681033631376 0.08228417234074012 -0.3836638175045476 42 48 48
1.0834008619877844 0.07314958131579118 -0.38804413232717416 108 108 108
1.0834008619877844 0.07314958131579118 -0.38804413232717416 108 108 108
0.8333425142197003 0.05472231030409171 -0.3853844538734247 123 119 126
0.8300949478305159 0.05429751422155482 -0.3844902325652185 190 193 196
0.9374976405413306 0.05924535279811425 -0.3815204145223841 43 43 44
0.9374976405413306 0.05924535279811425 -0.3815204145223841 43 43 44
0.9779132872048494 0.056039239753455136 -0.3803571689742961 190 196 195
1.0878275345899195 0.04427024675408915 -0.38260928812636025 100 106 105
1.074118241825213 0.03293975718759541 -0.3841521152872322 106 106 110
1.0789839618193062 0.03217451522349854 -0.38151925962800826 95 99 100
1.080575198111194 0.03084765496591671 -0.3872317408770703 150 158 157
1.0771766422884446 0.02751628455413815 -0.38518054877819424 162 170 171
0.9487152514862285 0.019414243723059665 -0.38386900242741473 37 46 46
1.1078867547096516 0.013921370081993602 -0.3904783074081613 119 122 121
1.0821157174060396 0.011972715357193171 -0.3860069300857882 154 155 158
0.8330500154228377 0.008483400332902043 -0.38349750668044946 106 102 103
0.8333896226377122 0.008471106279016845 -0.3849253669813704 124 123 128
0.9421518513103205 -0.04285375799226812 -0.382853494868264 184 190 190
0.9412015837881823 -0.042509634205244874 -0.3810001637624388 185 191 189
0.9789702299571379 -0.0683209746274824 -0.38054477231511685 188 196 195
0.97920838191857 -0.06841037973133823 -0.38090284721245055 186 189 188
0.9954473869809648 -0.1504610081815571 -0.3677519078122493 34 33 33
1.081970999043476 0.13685183392265307 -0.38212199843877154 113 110 106
1.0740060222738277 0.1339304864603769 -0.3823163452317694 150 151 150
0.8536755824322324 0.08782639797276628 -0.38390475902084337 32 35 35
1.0776930316473021 0.10540677471296997 -0.3893851248221251 125 124 126
1.0843118217765355 0.10366988146599368 -0.3886127775660932 153 158 158
1.0872033172047035 0.10280857975545074 -0.3883264768213381 91 90 92
1.0957179886350206 0.10091235621715436 -0.3857087260205532 133 139 137
1.0957179886350206 0.10091235621715436 -0.3857087260205532 133 139 137
0.9777315914015525 0.08728436201348422 -0.38129035851085497 52 63 61
0.9777315914015525 0.08728436201348422 -0.38129035851085497 52 63 61
0.9409457615460496 0.08199901533536434 -0.3821963275862904 184 184 184
0.9789658801620381 0.08224101797626722 -0.38239866383851845 192 195 194
0.959736594057064 0.06895093132963877 -0.38322049395330887 40 51 49
1.0823127720330432 0.07005927279731852 -0.38714825268024056 98 102 103
1.0789498523475864 0.0509831320428984 -0.38285405346657575 155 161 161
1.0919044237485342 0.045541410716284376 -0.3890113809859156 140 148 145
1.0893549102375428 0.02500197373995293 -0.38889387572788564 155 163 161
0.9783832972888477 -0.036345221623765335 -0.379383334313908 41 49 48
0.9345964881688339 -0.0618721893008424 -0.3776549411754401 30 33 32
0.8611465540128938 -0.05805629942258918 -0.38433481199862185 34 29 33
0.8692709330558599 -0.058771894351464425 -0.38381185472147594 164 170 168
0.8692709330558599 -0.058771894351464425 -0.38381185472147594 164 170 168
0.9469626140233955 -0.06765984897128344 -0.3793705171355909 33 36 36
0.8896345949637261 -0.07818581660770559 -0.3849096110299088 29 32 35
1.0990924209493653 0.1251638115347523 -0.3890418736878753 100 100 102
1.0997097276447827 0.09117825756539535 -0.38968701451246784 136 142 143
1.0883950691590654 0.077750741448174 -0.3888380932172097 115 115 116
0.9310791616574675 0.06663888928458987 -0.3829483973671637 40 41 43
0.9310791616574675 0.06663888928458987 -0.3829483973671637 40 41 43
1.098690422617737 0.04799264972906678 -0.38655245111264874 111 111 111
1.0935557131262885 0.03790953616857028 -0.3865875658712596 143 149 149
1.0941162406422347 0.028105296624224483 -0.3878209831868103 104 109 113
1.0801133854637892 0.02117418286666413 -0.3833213457733162 124 124 126
1.0885748663307808 0.013308235548452405 -0.3860544008306288 100 104 100
0.8691037342688296 0.0009027906450373682 -0.3861131676063984 50 49 56
0.971812649303967 -0.06756590521965697 -0.38050532280695065 39 45 45
0.917940891925719 -0.09936701299724744 -0.3826240108225461 31 34 33
0.8780068360429832 0.11212592076227831 -0.38563706694475475 31 33 34
0.9025672883722836 0.10560339905856717 -0.384332692492381 190 196 196
0.9625399245820995 0.10375346787812278 -0.38443682040340477 62 60 62
1.0855306016820325 0.0686642435834477 -0.3875943433822255 149 155 155
1.0830995164626527 0.03578295172449276 -0.38608102146402123 106 109 110
1.0830995164626527 0.03578295172449276 -0.38608102146402123 106 109 110
1.0929085786704504 0.03549600331551098 -0.3868758891742263 114 116 119
0.919834570611916 0.01591306860781092 -0.38279009165140776 34 37 40
0.9420290778555452 -0.0685961215229888 -0.3821238855353928 182 188 188
0.8576531001260495 -0.06539508933007886 -0.38439971702459547 37 39 45
0.9172048181158324 0.11157331934555145 -0.3830141681221588 37 43 45
1.0912126631897106 0.051876842602064266 -0.3867390678103057 97 97 98
1.0844573882873192 0.050473554959192514 -0.3880157922072302 129 137 136
1.0964740488033484 0.03240616940179937 -0.38817808413475413 129 137 137
0.9276677406698428 -0.05049193289900964 -0.3828315367310775 54 52 56
0.95518849385096 -0.08105015172613775 -0.3825334117889119 164 170 170
0.8301064394813846 0.11027542596513325 -0.38620454661322395 192 191 191
0.8641544192028332 0.06691251525833974 -0.3850332481422928 185 192 193
0.8641544192028332 0.06691251525833974 -0.3850332481422928 185 192 193
0.8320637081634077 0.05230902706666644 -0.3853437210206909 144 144 148
0.9694712609985181 0.02890147558671448 -0.38252561162759713 56 62 64
0.8763380875682791 0.11067398307023987 -0.38481901083637393 34 38 39
0.9534884362536613 0.09796544707954849 -0.38242161488316007 180 186 185
0.833589860883893 0.06500620337441716 -0.3853415590142596 190 190 186
0.8599719299883949 0.06271026666015904 -0.38476551511671747 186 189 190
0.8599719299883949 0.06271026666015904 -0.38476551511671747 186 189 190
0.9311687094874183 0.00938811234158479 -0.3833266802753856 182 188 188
0.8607531822875487 -0.054054357664647314 -0.3839822151447072 170 174 169
0.9281036784094352 0.0709265142992002 -0.3842222621554466 185 188 187
0.9210154763517684 0.061301007052533545 -0.3837780293479235 26 29 28
0.832344203832249 0.07425068851819071 -0.3851375464035104 182 185 188
0.889584056217201 0.04527039204730504 -0.38381872611412277 29 32 34
0.8324230510233441 -0.037743267242745536 -0.38315326891172136 119 118 118
0.8318165895283434 0.06922405435574516 -0.38424967244665753 180 181 181
0.9611239642781038 0.035201550351802065 -0.3806452217104457 39 42 41
0.8300512838435546 0.002540781922868866 -0.38346877464466145 175 181 180
0.8608036030553917 0.0011442833942361765 -0.3830017904386713 37 33 34
0.8608036030553917 0.0011442833942361765 -0.3830017904386713 37 33 34
0.9284678092631635 -0.0892801547490668 -0.38040712821541933 16 22 20
0.9862694725713536 0.06452024238488246 -0.3822185189215937 72 77 81
0.9862694725713536 0.06452024238488246 -0.3822185189215937 72 77 81
0.9586565618714551 0.04420848798507433 -0.38340467732076045 183 191 190
0.915752524399868 0.019454149092180507 -0.38232619612357577 178 184 182
0.966336759370219 -0.03000097632878531 -0.3847400132132738 178 181 182
0.8322204051251169 -0.038121572683855194 -0.3842989043605196 95 96 100
0.9933862426580742 -0.08898489395192223 -0.3817041682271909 30 35 35
0.9933862426580742 -0.08898489395192223 -0.3817041682271909 30 35 35
0.8326039328880951 0.07280510911719136 -0.386909517527814 191 190 186
0.8322779080552454 0.028316448612144194 -0.38628766067325615 116 113 114
0.9418821401249341 0.025417797891099374 -0.3839053157718734 43 51 51
0.9549370930865883 -0.016726982629150938 -0.38442970284106415 174 185 185
0.966185732011379 0.10081049051114485 -0.3823042815622751 64 70 70
0.966185732011379 0.10081049051114485 -0.3823042815622751 64 70 70
0.8321841699303312 0.06045445116254659 -0.38527183137061216 184 190 192
0.8321841699303312 0.06045445116254659 -0.38527183137061216 184 190 192
0.8330708829377943 0.05682129366294408 -0.38463621271466447 106 109 116
0.8883613386875377 0.02829807833879915 -0.3835915826952001 29 32 31
0.8325467497630415 0.013884359507588644 -0.38411804181275233 178 185 186
0.8318474898626822 -0.0023310893381557956 -0.38342170964764366 178 184 184
0.831313123329466 -0.030652036841039274 -0.3850150993485553 144 148 149
0.8309105926834083 -0.030434683763360313 -0.3830994487609354 140 142 142
0.8597483067762361 -0.04887349923477554 -0.38592196458366507 21 27 25
0.8667714450572129 -0.0557903453428388 -0.3837698476528195 173 176 177
0.9511614399106839 -0.07726272747071158 -0.3811634475987612 30 35 40
0.8295266129086045 0.12064377245974955 -0.38714900126524876 195 195 195
0.8323307015911608 0.08921938811087375 -0.3854728515843602 132 131 131
0.8732997493549567 0.07559350201295036 -0.38592749380612335 26 32 32
0.8324414085722924 0.07191205268037926 -0.38533415333056686 181 184 190
0.8789330686970149 0.05597977324784315 -0.3839256655839163 178 184 184
0.8789330686970149 0.05597977324784315 -0.3839256655839163 178 184 184
0.9109519797586919 0.056099052114673295 -0.3850252427922892 27 31 26
0.8337549414682377 0.02842648471068833 -0.3857165491832009 108 109 111
0.9231830449525633 0.008712109309610467 -0.38297405984075766 43 46 49
0.853777288199224 -0.012646214152474224 -0.38172741023719703 23 29 29
0.8326857101432691 -0.017443812633930328 -0.3855685786225001 182 179 182
1.0900382390070613 0.28351373947622577 -0.3889403264532931 70 66 56
0.8329059679457941 0.10575595407211653 -0.38706854162029636 190 193 195
1.084988179791984 0.1040162016124798 -0.3893777788277991 151 154 153
0.8732415932192777 0.07548062801053015 -0.38552560956708937 29 32 33
0.9852177378092603 0.0748702374471233 -0.38010224500231826 35 43 43
0.9941135443880477 0.06532226907485002 -0.3830624623182568 191 197 197
0.8957875668974677 0.032133556281980294 -0.3844341397923541 36 31 34
0.9889506330783651 0.008681550729497268 -0.38184874717106543 45 48 51
0.8321538697132262 -0.02788781685832407 -0.38443675530450155 131 131 133
0.8321538697132262 -0.02788781685832407 -0.38443675530450155 131 131 133
0.9331700035575294 -0.05198250216922182 -0.38310754490366133 169 172 171
0.910890239126074 -0.0744497136264358 -0.3837359077242834 167 168 168
0.910890239126074 -0.0744497136264358 -0.3837359077242834 167 168 168
0.9476291216184509 0.08789592587581163 -0.3835824189378666 193 199 199
0.8850895330172905 0.05624565873940897 -0.3839647929729525 34 40 42
0.9476485556627343 -0.037383727152237485 -0.38174713602766086 185 188 187
0.8782239210989811 0.11243617294324458 -0.3863701468562764 36 36 38
1.0022174407461037 0.08975532255551323 -0.3815379524663706 65 77 79
0.9599773126610375 0.006601096088702291 -0.38307178397925257 30 36 34
0.9318716197679551 -0.002115746077034164 -0.3842728912006911 38 40 41
0.9097154700145836 -0.00560957813332091 -0.38230610716007757 34 37 36
0.9687174131967092 -0.03350954656431384 -0.3806935267503144 44 47 51
0.9400141194192915 -0.03640230002728553 -0.3797732631451379 29 34 34
0.8920658320039526 -0.09249813492097765 -0.38209025165445093 186 189 190
0.8718425595142478 0.06649548012152573 -0.3834316070670684 199 201 206
0.8718425595142478 0.06649548012152573 -0.3834316070670684 199 201 206
0.9376584084950614 -0.05947724924869372 -0.3833107429006153 23 29 30
0.8952843914080867 0.10591173307029528 -0.38348001161891204 183 189 187
0.9729135768289642 -0.03748570518782469 -0.38146956906336243 188 191 190
1.106539681764982 0.30740505187641415 -0.39256354630207085 57 42 43
1.077975703543944 0.053874313240950204 -0.38652069112987186 153 159 159
0.8664054758908656 0.01406859816093969 -0.38487253507285785 33 36 37
0.9624562916759282 -0.08851943547150597 -0.38247088512377697 190 193 194
0.8917654428114169 0.10168790789469538 -0.3855775900948499 28 31 30
0.922284752244884 0.07671424159586868 -0.38634521225847046 31 36 37
0.8644502406593021 3.272022818756817e-05 -0.3839466804756952 163 169 167
0.8644502406593021 3.272022818756817e-05 -0.3839466804756952 163 169 167
0.9518743319673395 -0.026219260815797417 -0.3829080490097764 33 38 44
0.8329382770902396 -0.03779530546367865 -0.38427780052954946 126 122 123
0.8318464955066449 0.11044120756510306 -0.3852768696325866 182 182 184
0.8318464955066449 0.11044120756510306 -0.3852768696325866 182 182 184
0.9896800987490306 0.07063582447604583 -0.3815111702926162 77 70 79
0.9896800987490306 0.07063582447604583 -0.3815111702926162 77 70 79
0.8328850991186177 0.02493465423833372 -0.38522768599341184 138 137 137
0.9270820732641809 -0.055217288519427775 -0.3821568313880111 207 213 213
0.965493767072272 0.10697571370492577 -0.3842830252912252 182 182 182
0.8327999543502621 0.0988987807632972 -0.3853302412980808 133 133 135
0.8327999543502621 0.0988987807632972 -0.3853302412980808 133 133 135
0.9268842443231295 0.07540621057090793 -0.3840431356025065 175 183 181
0.833424239038521 0.008532420999938044 -0.38501057118191595 108 108 110
0.831896821936229 -0.00353046064858338 -0.3846712401269481 102 108 110
0.8329171889763982 -0.014906789481343352 -0.3846432214447717 165 171 173
0.8328894839506209 -0.032431553342040495 -0.3841809292801217 122 122 124
0.9298504811795495 -0.09001713402081173 -0.3828169434040164 23 26 25
0.9050489076664807 -0.09555276947697668 -0.38396491712168807 22 25 24
0.9020541734179696 0.10528212363268528 -0.3832921307715065 186 186 182
0.9020541734179696 0.10528212363268528 -0.3832921307715065 186 186 182
0.9306272104507932 0.07780430780755133 -0.38282309602114767 34 40 42
0.9311910687955293 0.0668479184054953 -0.3832198102353732 41 46 51
0.9311910687955293 0.0668479184054953 -0.3832198102353732 41 46 51
0.9591451177958268 -0.022643505282163832 -0.38170688848215295 175 181 179
0.8340359706602404 -0.03280351506132365 -0.3853885841940297 100 100 102
0.9639272990382508 -0.08106586779347214 -0.38089039069950287 174 182 181
0.8897010327064602 -0.09669861659178038 -0.3841511144045168 19 23 18
0.7729412892119996 0.1370782302487332 -0.3966276517609241 41 41 37
0.9690719346398204 0.09154971339835144 -0.3827377971107801 40 43 42
0.9477290685576328 0.08774194778571368 -0.3833903877361573 189 190 186
0.8639701813475933 0.07461206045094794 -0.3848304115425082 175 186 186
0.8639701813475933 0.07461206045094794 -0.3848304115425082 175 186 186
0.9713357312744465 0.05103952620177046 -0.3804819825104577 191 191 191
0.8324439546007709 0.04911819676132878 -0.38601553831343055 117 120 119
0.8324447048337493 0.04910955516711283 -0.3860227216640923 117 118 120
0.8327250261354747 0.038867339078442496 -0.38671592792315157 170 176 177
0.8318831644640247 0.038294541010941215 -0.3869318066668125 120 121 123
0.9877282414885876 0.008639040272342254 -0.3798298367748381 75 81 83
0.9599601377576746 -0.03397595046258004 -0.3837347186735325 39 45 47
0.8934227468443526 -0.029749394343450076 -0.38879784445151244 159 167 166
0.9172412200766419 -0.037661399203714155 -0.38454756750983365 28 34 34
0.9172412200766419 -0.037661399203714155 -0.38454756750983365 28 34 34
0.9733679932047348 -0.06847295880661025 -0.3822469076729504 22 28 26
0.9733679932047348 -0.06847295880661025 -0.3822469076729504 22 28 26
0.8321961290645593 0.08589913858177706 -0.3856790455709796 183 186 187
0.8321961290645593 0.08589913858177706 -0.3856790455709796 183 186 187
0.8339375674331018 0.06293395825338206 -0.385877817951445 184 184 186
1.0011839509964477 0.060587772670720755 -0.38280319897608706 61 67 69
0.9640969756687874 0.03205167656792357 -0.3834590117976085 42 48 48
0.9871652422672694 0.0021108940279227707 -0.38282239353641817 55 57 63
0.9871652422672694 0.0021108940279227707 -0.38282239353641817 55 57 63
0.8342220049327713 -0.02059517275229179 -0.38491998790955473 140 140 142
0.9546421360517067 -0.030236614247167233 -0.3822438863979444 162 170 167
0.8794531816996191 -0.04326909671981699 -0.38394078682433536 164 169 167
0.9149090299128014 -0.06747544841523796 -0.37841814230840815 159 164 164
0.83227474677049 0.06950218243304103 -0.3858743808111459 186 189 192
0.8303395730454379 0.05453427351000842 -0.38597929878949444 185 188 189
0.9032243727857383 0.0414841850570206 -0.3849429519589734 20 26 24
0.8336718057113569 0.02953790439279975 -0.38544909282564377 184 185 191
0.9738621314095675 0.02526186599983405 -0.38388933863734276 177 184 182
0.843456796371529 0.007772519362566462 -0.38113221361128574 178 181 182
0.9271429088392085 -0.0018112696850526746 -0.38287081438285864 29 28 35
0.8324491699722254 -0.0022821411862830447 -0.3852202661160687 179 183 183
0.831920577351514 -0.0035492469780948298 -0.3849158154342199 107 107 108
0.8323821277574529 -0.00729052331922833 -0.3850603032502187 120 120 122
0.9107229173236601 -0.01176378748964124 -0.3840917328539265 167 173 173
0.9682494499793326 -0.01631649715296369 -0.3825131580184215 37 44 45
0.9681722502642593 -0.016334928132767015 -0.38245281327034053 28 34 36
0.9682494499793326 -0.01631649715296369 -0.3825131580184215 37 44 45
0.9787352067691052 -0.04235627772982492 -0.38049136353508817 177 182 181
0.982886775353736 -0.06502616651510826 -0.38122331280684235 32 35 36
0.8798466403433651 -0.07455288997499938 -0.3843337576058284 25 23 24
0.9619067819571986 0.043247405727190755 -0.38261184679054616 33 33 35
0.8889174295297663 -0.0339273294717322 -0.3833998550709091 31 31 31
0.9903667710643858 -0.046563579381452135 -0.38126017646406796 36 42 44
0.9237359704465415 -0.05425919384267324 -0.3823301085451543 186 186 186
1.0787027789579813 0.1763809049657859 -0.3895560142418954 66 65 65
1.0836402879576916 0.16447910528258258 -0.3888019512927841 148 148 148
0.9540612008858956 0.10869259441231804 -0.3838046994609816 44 52 53
1.080431775897365 0.10995988036045891 -0.389519944630257 167 175 172
1.09071902279041 0.09493962691815833 -0.38562585326197807 152 160 158
1.0860216455932905 0.0897437315428885 -0.38669619864484683 113 115 115
1.1029030966507183 0.08395119535882299 -0.3871313912378889 133 142 142
1.0801698370086914 0.08246023686276985 -0.38783139753531964 160 169 168
1.081584798944264 0.08045031659086418 -0.3866730756659568 129 133 134
1.0961219786310796 0.0798068522869028 -0.38705614644133884 113 119 118
1.0939211818030852 0.06589791723162863 -0.39161368827590093 111 118 117
1.0770042007377265 0.05497063046478521 -0.3874022191532412 101 102 99
1.0825461617198315 0.054693000804607816 -0.38627717863879846 134 139 138
1.086915654542503 0.04725322159875899 -0.38804704358075087 147 155 154
1.1013584578366757 0.03525222802849527 -0.385793142888437 134 146 144
1.0873570393599008 0.031344074735895684 -0.38772390821020825 155 163 160
1.0929156787499594 0.02968415853253447 -0.3866427351591256 106 107 109
1.0773625110561358 0.019627030881107312 -0.3866488480490678 101 104 107
1.0773625110561358 0.019627030881107312 -0.3866488480490678 101 104 107
0.9314753850155008 0.0093711512940519 -0.383689434444844 190 196 198
0.9315019072374474 0.009279242573416353 -0.3839154840960335 178 184 184
0.9314739824984055 0.009370423775264593 -0.3837219000371694 196 202 204
0.898790318606366 0.0067245783976459415 -0.38579816354185187 26 32 30
0.9996558771670366 -0.00017550396172672718 -0.3818542955546435 59 70 70
0.9420436651610213 -0.011777125343551754 -0.3839012996285606 35 38 39
0.9420436651610213 -0.011777125343551754 -0.3839012996285606 35 38 39
0.9616334844768194 -0.023259455840389694 -0.3865738416034668 188 194 194
0.9369308861348323 -0.059313676451398 -0.3818998121538506 29 32 33
1.0819174591410265 0.11412260738262338 -0.3854167378824601 159 167 164
0.9721746900376991 0.08759076558419238 -0.38199274529229094 189 200 198
1.0935764125299767 0.09434079421239916 -0.385387958507819 105 108 107
1.086170309364192 0.09214082111510917 -0.38731149873448095 121 127 121
1.0987946298102322 0.09127629539105413 -0.3863473501756332 108 114 112
1.0987946298102322 0.09127629539105413 -0.3863473501756332 108 114 112
1.0802886133738634 0.0890079653825453 -0.3869985442669462 133 141 141
1.0802886133738634 0.0890079653825453 -0.3869985442669462 133 141 141
1.0936003086371304 0.08352036897026954 -0.38448885374127156 115 118 117
1.0950478070066918 0.05638543173611298 -0.3833261114346038 123 129 127
0.8607218539531325 0.012010550703076446 -0.3847846716759807 178 184 185
0.8925312700846268 -0.019633038017577563 -0.3835442876123275 44 34 36
1.0794850054977438 0.10612163636336656 -0.38582810095407283 130 136 138
1.097122483035635 0.07627568518504099 -0.385124680648959 138 144 144
1.0902333279705911 0.044397646855844144 -0.38525176604559647 100 106 105
1.0778754953802128 0.04096820790954282 -0.3862133165861773 166 174 175
1.090284931586935 0.039646764566104525 -0.38705880491452316 150 157 154
1.090284931586935 0.039646764566104525 -0.38705880491452316 150 157 154
1.0922749141775852 0.024138578862763764 -0.385962994684932 96 99 94
1.0922749141775852 0.024138578862763764 -0.385962994684932 96 99 94
0.9860569490629969 -0.05314873736206794 -0.3813897531829113 191 195 193
0.9520318299596632 -0.07763442197445529 -0.3825622292980324 40 45 52
0.9941410265125584 -0.15172009086923682 -0.38343605701390876 33 33 33
1.0789065675608973 0.07955262255590351 -0.38662544540955096 164 173 170
1.0925382577777596 0.0709445520723703 -0.38794909991008236 145 153 150
1.102297516785682 0.06149288334540403 -0.386597700017382 100 103 102
1.1020090139861796 0.0598671917796411 -0.3864961198853345 101 104 105
1.090971652732821 0.03941593246102685 -0.3857988620544407 97 103 103
1.0948245598931277 0.03811376594314489 -0.3859875111958367 138 146 144
1.096419710953071 0.01869748172583344 -0.38567396697319606 126 130 126
1.0891378220171073 0.013149878344309262 -0.38659032507285496 97 101 96
0.9234178128215793 0.00884007668501713 -0.3833839153653756 50 43 46
0.9035270609980347 -0.0815820679056724 -0.38355946259418694 45 48 50
0.8927558114903089 -0.09302554725346494 -0.38408751449316303 179 179 181
0.8318087505696409 0.10825426509191302 -0.385995152256997 197 197 199
0.8320353697684395 0.0718017351294614 -0.384484382578584 203 203 207
0.9231281872407932 0.07055299452288935 -0.38336965925166405 47 38 37
0.9231281872407932 0.07055299452288935 -0.38336965925166405 47 38 37
0.8740024534261049 0.06097142334424507 -0.3847483414448932 28 31 30
0.8337230204572166 0.047717319494492025 -0.3844739738507114 192 191 194
0.9310379409785924 -0.0020150964529037337 -0.38295511307505137 40 41 42
0.8328395571329859 -0.014957527127798137 -0.38475520375094957 193 198 201
0.8317990473727745 -0.02044144849810841 -0.3846081743856546 135 133 137
0.8331531871477366 -0.036010789756451604 -0.3847016152435685 175 174 174
0.8339375153269161 -0.037785528527318306 -0.3847172502620735 106 101 106
0.8312909831821957 0.07137850398819322 -0.38562281036786233 134 136 139
0.8339290061250949 0.051276869189014446 -0.38443841230055487 179 184 184
0.9029443068944153 0.041534310502535414 -0.38427263201452655 26 34 33
0.9199728887935928 0.016051466733648084 -0.38317140010719397 34 40 42
0.8572174286428444 0.015454325471286086 -0.3843616818007891 32 32 34
0.9831349536034375 0.009095495138222822 -0.3823871441745801 65 71 73
0.9782921192202078 0.08213448038978619 -0.3811374730787776 191 191 191
0.8586590550938481 0.07636150048029694 -0.3871052264713877 31 34 33
1.0024166342258007 -0.011470341481086188 -0.37952104949000726 71 81 84
0.9684319311872804 -0.016283313874379108 -0.3826790457813169 46 56 59
0.8331695246567691 -0.015952845323706596 -0.386230309966577 171 174 176
0.8336710426669083 0.09065129781762374 -0.38657954499781944 192 192 194
0.9779388464191004 0.08765529704378616 -0.3806842648712733 43 49 49
0.9793019726374125 0.08243793227935785 -0.38290104837817823 196 202 204
0.8915627418034404 0.03977811351454409 -0.38408385409988477 180 188 189
0.8924693947326231 -0.0196131932862869 -0.3833496058531907 45 38 39
0.8916652571048456 -0.02254221084850167 -0.38332030987220644 177 183 181
0.958686428268216 -0.03354918794878892 -0.38169421680847015 45 51 54
0.9509124969521134 -0.033602780046802595 -0.3811449529663092 45 52 56
0.9509124969521134 -0.033602780046802595 -0.3811449529663092 45 52 56
0.8336679689703728 -0.027269138700256074 -0.3857617367357374 165 169 173
0.988121550912626 -0.06346531222374423 -0.3772046697550725 43 42 44
0.9478334857894809 0.08788109767764514 -0.38386525017247813 183 191 189
0.9478334857894809 0.08788109767764514 -0.38386525017247813 183 191 189
1.097348907441412 0.09035028779456956 -0.3868603273388883 161 165 165
0.8682238811157321 0.06683406294162474 -0.38506955451733027 43 40 43
1.0921039728485966 0.015460595328871552 -0.3861113580092426 96 95 99
0.972797708470521 -0.011271059824946958 -0.38158442932709247 189 190 191
0.8330372121708858 -0.007851998690887634 -0.3849564457029369 151 149 156
0.8307874454548881 -0.0120646064311234 -0.38576536983718424 179 182 184
1.0786295105629713 -0.03718392620518083 -0.38288059410836367 74 77 79
0.9545351219688015 -0.03297899219739292 -0.3819416701985735 28 27 34
0.9230064311362635 -0.057972065354778786 -0.3824669738103815 161 167 165
0.9408360560592596 0.112819568995954 -0.38534142482211464 42 48 50
0.8843575578737923 0.08722387411913021 -0.3836578533203561 189 197 198
0.9935955288975692 0.06741880982335663 -0.3821431878905843 59 50 50
0.9070867482664565 0.047217295771796945 -0.38437985635326455 33 34 37
0.9070867482664565 0.047217295771796945 -0.38437985635326455 33 34 37
0.859689038649394 0.0034881327136167877 -0.384014024292539 174 178 180
0.8541547889675242 -0.012791680315780858 -0.3843067849926876 37 37 39
0.9001620113165988 -0.08115831209288019 -0.3830170189321036 178 178 178
0.9407255563834513 0.11256910953567838 -0.38804604134114795 39 47 48
1.1110989427193216 0.11090550008497387 -0.3978803724914008 128 136 133
0.9381094994182986 0.07852520921762225 -0.38364176675185413 47 47 51
0.9380476127512675 0.07846048140832651 -0.3835610498034215 45 46 49
1.0805731583092264 0.07635443596537853 -0.3892715729256778 160 171 169
1.0865835519508327 0.06388425863986073 -0.3883042218509088 151 155 153
1.1040810395050256 0.059250768665772786 -0.3906758928100268 131 135 135
1.0049261862447587 0.05060151929335097 -0.3841077110856573 59 69 76
1.0049261862447587 0.05060151929335097 -0.3841077110856573 59 69 76
1.085264580218359 0.04982192023768515 -0.3865000266917629 154 163 162
1.0838106678172232 0.018390544046674343 -0.38380781323744295 148 159 159
0.8641559161813375 0.008208370825219781 -0.38315074963325196 49 48 57
0.9864825404249998 0.0017654625019560733 -0.38219382649237815 63 61 65
0.8684618051194339 0.0009030556633887885 -0.3842091272864183 48 44 52
0.9543204483441614 -0.018128208163161526 -0.3824817894695573 187 198 196
0.9543204483441614 -0.018128208163161526 -0.3824817894695573 187 198 196
0.9592669875821231 -0.05537960959245981 -0.37994316101508097 32 38 38
0.8667731766812456 -0.05594634930791439 -0.3842097786593479 185 185 187
0.948258877535181 -0.07391508374397718 -0.38226405970564126 192 196 191
0.8851738200798159 -0.0684221425635297 -0.3822616102963609 27 30 29
0.9642145183990039 -0.08115144485503255 -0.3812129700548208 196 196 196
1.106113406731279 0.3022613277128214 -0.39336446855006746 77 64 53
1.0834046419560943 0.12075642421320654 -0.3873993531529789 153 157 157
1.0790578154473636 0.1124118700108692 -0.3849054016331292 111 114 115
1.0920772678343673 0.0933762057820091 -0.3886807228857002 143 151 150
0.9513163812498504 0.04708511977500199 -0.3828301749468192 51 50 54
1.0846934319700952 0.0351491616966594 -0.385729291469758 153 160 158
0.8664659516225884 0.0140026222892573 -0.38503542460015444 30 36 38
0.9829783546496513 -0.0462353931980211 -0.38173899189647387 54 63 68
0.990148206880218 -0.06108497417779361 -0.3814150943765398 54 49 55
0.9216720391385638 -0.06362162210493935 -0.3824401938611396 28 31 32
0.9101027652248603 -0.06824408592820823 -0.382348582528608 27 30 31
1.097729405146242 0.11300449889822191 -0.38468077117506166 132 140 139
1.0959123017971955 0.08989040268469839 -0.38558716663692477 149 157 155
1.096238547965862 0.08450165948092513 -0.3871980685877006 104 110 108
1.0990580306964313 0.038125849099984156 -0.3863950964423583 95 96 98
1.082912125135147 0.03016722540999432 -0.38764717738984383 161 164 163
1.0842610776804 0.016407590348560652 -0.38698115694822627 102 101 103
0.8547808530443538 -0.07522683774667911 -0.385151217166512 28 31 34
0.8547808530443538 -0.07522683774667911 -0.385151217166512 28 31 34
0.8897632947234931 -0.09669019057035484 -0.3843216200319492 35 34 37
1.0860798535648082 0.09193514008697756 -0.38715227707986627 125 131 136
1.0978697958996968 0.08877885793265315 -0.3865452415867292 75 76 80
1.0978697958996968 0.08877885793265315 -0.3865452415867292 75 76 80
0.9975110149184214 0.07546446140420225 -0.38193728971915164 189 197 196
1.0894716330627197 0.07965937143242635 -0.3868573251567864 121 127 126
1.1052846241378986 0.057426154584895014 -0.3876427938092918 128 133 128
1.0934869290402998 0.053335707358065275 -0.3873258632323482 133 139 139
0.8323771743898848 0.10074833744868457 -0.3860008905132463 192 195 196
0.9105760046577469 0.08777720622018927 -0.3850914688899693 180 188 185
0.9157369807866436 0.08171987095510033 -0.3830083986592875 182 187 185
0.863823372406499 0.07450938089236697 -0.38395876704222315 184 190 190
0.8324524887367193 0.0723913571688697 -0.38561852182023526 196 196 198
0.9782387515826966 0.05624728256133633 -0.38077801548489876 188 191 190
0.9029141143035659 0.04148457427055968 -0.38393738064070243 22 28 26
0.9288981567857932 0.03742742035014082 -0.3833603645425656 22 28 26
0.9288981567857932 0.03742742035014082 -0.3833603645425656 22 28 26
0.8916214023490536 0.031427994016490324 -0.3836452699781798 177 185 182
0.8846615854788121 0.02478356083996516 -0.38313449268221283 178 186 185
0.9357752787775931 0.013096945525956515 -0.3839394011079206 171 179 175
0.9357752787775931 0.013096945525956515 -0.3839394011079206 171 179 175
0.8329947045974312 0.012851815589654286 -0.3865863728804131 124 126 127
0.8329947045974312 0.012851815589654286 -0.3865863728804131 124 126 127
0.9990677237097385 -0.00013547775523591312 -0.38087257354279497 51 63 65
0.8907084917778927 -0.028568340170638674 -0.3806264758015084 175 181 181
1.0050728173547654 -0.07559929643398158 -0.38307537525824964 33 38 43
0.8645563776922894 -0.061205143462451504 -0.3818091633733302 30 30 32
0.8922547397207367 -0.09240714473524499 -0.38253502396092887 176 180 181
0.8176442700464734 0.17081004684021422 -0.39491792080305793 23 24 20
0.8319061446889972 0.1314319089055806 -0.3867770081101195 192 192 194
0.83190185243584 0.10955698889512594 -0.38649038923103185 131 128 133
0.8956290792778396 0.10611209105221624 -0.38456531990084103 183 189 189
0.9577755806828298 0.09943394258346754 -0.3833117862275372 42 36 40
0.8641647907759707 0.07469221265472578 -0.38523888080895846 181 185 187
0.9930648740521714 0.07160799367936944 -0.3813382279898943 186 189 188
0.9525029177243551 0.03005664472346339 -0.38283083611174457 29 32 32
1.0862566498850383 0.027456511480021505 -0.3865809288125306 147 153 153
0.8304770436032457 0.024059550877073305 -0.38643828752818477 178 184 186
0.8574463324387678 0.015444963289862465 -0.3850036480275721 35 38 40
0.8330511510755655 -0.007920329619796508 -0.3855586616602849 151 150 152
0.8342774133568419 -0.01249007386405799 -0.38435587826077844 175 175 176
0.888891615810755 -0.033938358639849446 -0.3833313995664104 37 37 41
0.8313624813312631 -0.02989226485176058 -0.38503698476315784 153 152 154
0.8730054772530658 -0.05427848669333885 -0.38515091243795463 165 169 164
0.8730054772530658 -0.05427848669333885 -0.38515091243795463 165 169 164
0.993248105855386 -0.0888088450877909 -0.3815186966798252 20 26 24
0.8652418374372001 -0.08886847248897263 -0.38375231950517785 19 24 19
0.9028351918894881 0.10571664772834742 -0.385076501818897 192 198 198
0.9028351918894881 0.10571664772834742 -0.385076501818897 192 198 198
0.9728042019082658 0.08790633774276814 -0.3826318802671481 193 201 202
0.8734987545994121 0.013035729005584992 -0.3849726451935162 30 33 32
0.8714938539096505 0.007628010898588222 -0.38314931963166987 53 53 56
0.8714938539096505 0.007628010898588222 -0.38314931963166987 53 53 56
0.8325386393360802 0.003921145158249989 -0.38434420353432874 165 161 165
0.8323492243580269 -3.5219859250239336e-05 -0.38465514713556787 134 131 135
0.8323492243580269 -3.5219859250239336e-05 -0.38465514713556787 134 131 135
0.8794484140594819 -0.011929180181935634 -0.38412203297150804 31 31 33
0.8794484140594819 -0.011929180181935634 -0.38412203297150804 31 31 33
0.832310196915404 -0.03278102280914885 -0.38453919995982994 111 110 114
0.8339660647936127 -0.03779647084538463 -0.3842188733146269 110 103 111
0.8339660647936127 -0.03779647084538463 -0.3842188733146269 110 103 111
0.8979594972651345 -0.05586701000581369 -0.3834853886227353 22 25 24
0.857598591466191 -0.0652129776833267 -0.38373478665110816 32 35 37
0.9626519310230456 -0.09231302908565008 -0.38195678831158253 37 37 48
0.9584567825824262 0.10007929745846125 -0.38486230443471847 61 60 65
0.9584567825824262 0.10007929745846125 -0.38486230443471847 61 60 65
1.0976677117635916 0.10251536477674907 -0.3838419032255582 136 142 140
0.8628914637041686 0.06381689322836571 -0.38373907192761153 199 202 205
1.0822336010401503 0.06830293086960573 -0.37701591711264865 153 164 164
0.8544358432282395 0.04967497270184051 -0.3870839547970704 38 39 42
0.8903959278022455 0.0456940882005223 -0.385675122843902 37 37 41
0.8902591451889084 0.04559579885587103 -0.3851519146193966 35 38 39
0.8902591451889084 0.04559579885587103 -0.3851519146193966 35 38 39
1.0961155667638152 0.054551412584264096 -0.3819200385302981 138 145 143
0.9510680545963871 0.04540773747874254 -0.38183357594168055 53 49 51
0.9582140375087748 0.044095629303738955 -0.3825352785906837 195 203 204
1.087915849831317 0.03370282967354825 -0.38661609461599894 120 124 126
0.9419439881677715 0.019802726403271582 -0.38330988034997115 193 199 201
0.9419439881677715 0.019802726403271582 -0.38330988034997115 193 199 201
1.1066475830588858 0.022925764498784168 -0.3874975589590225 107 107 103
1.0833379733291337 -0.004289435729275264 -0.3824359359639413 160 168 167
1.0908525919060528 -0.004364566661869042 -0.385104880330724 149 157 157
1.0951958513446594 -0.012283427801818441 -0.38722427668297127 153 162 165
0.9172222499699028 -0.011931408154502603 -0.3837532014254369 34 35 37
0.9172222499699028 -0.011931408154502603 -0.3837532014254369 34 35 37
0.9405381355872575 -0.0987523470026538 -0.38141003878065605 39 45 45
1.1077013059367382 0.303910703787166 -0.3950283458107584 83 69 59
1.0991837840685357 0.2937787699949353 -0.39715865243304743 107 104 89
1.0991837840685357 0.2937787699949353 -0.39715865243304743 107 104 89
1.098510642414362 0.11811038737352778 -0.3859806221092289 137 144 140
1.085978505356537 0.10256277086953908 -0.3874672834534242 114 116 116
0.9482292529987105 0.08227165030335339 -0.38423000671208174 44 51 54
0.9799589219254772 0.08271787469667304 -0.38390231505722694 196 202 204
1.0792087517259923 0.09179366116033875 -0.38228779035240035 157 165 166
1.1026854357987106 0.08684719887415657 -0.38707477712079225 137 145 142
1.0862478592746019 0.08055012611071276 -0.3866034034022089 95 94 97
0.9864340344580784 0.06437422319194985 -0.38282686700862384 49 42 39
0.9871425335587435 0.06465656456957429 -0.3837749148661007 71 70 70
1.098952801839098 0.06861981395450865 -0.38916919533425837 126 134 135
1.0836877677036538 0.009053271191832277 -0.38646491697141244 111 114 113
1.088836743762258 0.008156566617279362 -0.3834744635845069 154 163 162
1.1002401062165015 -0.007055717607117852 -0.38147659843237736 126 132 129
1.0968264666523329 -0.01808848154537154 -0.3865004290438577 106 112 116
1.0864727433024854 -0.01890657446619782 -0.3858835173123138 147 154 155
0.9273717636660175 -0.050380725771535836 -0.38209902710413474 53 45 50
0.8794678311582584 -0.06874389500782963 -0.3832771493942658 183 186 187
0.8794678311582584 -0.06874389500782963 -0.3832771493942658 183 186 187
1.0993647816062546 0.2963947297534077 -0.3945890686088213 96 89 81
0.9938597482002974 0.07187910556572776 -0.3827933767925098 193 202 203
1.100072449397239 0.08071991740026137 -0.3889207100805899 138 147 143
1.091587080786968 0.06557582632613028 -0.38784495387808576 104 104 105
1.091587080786968 0.06557582632613028 -0.38784495387808576 104 104 105
1.0962541736691298 0.05931061055694673 -0.3865142723964476 145 156 152
0.8605514259091467 0.00518256594822309 -0.3829462365364784 192 195 198
0.8612019135664158 0.0011444551624896341 -0.384549056525636 48 35 43
0.8612019135664158 0.0011444551624896341 -0.384549056525636 48 35 43
1.082391263287486 -0.004740322524354512 -0.3868840646434843 166 173 172
0.9732105681110137 -0.01132411303155437 -0.38236679022887915 194 201 201
0.9732105681110137 -0.01132411303155437 -0.38236679022887915 194 201 201
0.9738231090383731 -0.07395870354166066 -0.38248281222525815 194 200 200
0.8732037212971565 0.07549913704104663 -0.38516315907568155 29 35 35
0.872361404649818 0.06688493811614246 -0.38506063101123705 197 200 205
0.9541513591087416 -0.08057732718876473 -0.3806306104623784 186 192 192
0.9649467239297586 -0.08888092427721686 -0.37937477447862045 56 61 66
0.8955641307656157 0.10603818772672094 -0.3841864740083151 185 188 188
0.8637818702651177 0.07446814377301895 -0.3837750901747817 199 202 206
0.9567372361318243 0.04363351576154441 -0.3850521816674764 183 186 185
0.9555019072169916 0.04334690854914175 -0.3826411588325682 179 185 185
0.9525708254498213 0.02996079976807192 -0.3828422246439925 30 35 36
0.8541393820206731 0.025345906484415 -0.38519200803765014 23 29 27
0.9847839726975492 -0.15946466724802377 -0.38852341263116097 22 25 26
1.0808549443769353 0.17173622603397515 -0.39300475972583093 60 60 56
0.8674826870706135 0.07391877033706266 -0.38446003292899356 33 34 36
1.0804332473573768 0.09112018686992367 -0.3891776966871793 147 153 153
0.9257413026573834 0.06690280844605809 -0.38346944591861193 196 202 204
0.9257413026573834 0.06690280844605809 -0.38346944591861193 196 202 204
0.9473858376976058 0.050791032921892264 -0.38250722412956356 179 187 186
0.8901058681873663 0.0314538802758012 -0.38609956675905527 94 86 80
0.868563308889845 0.008883142211621764 -0.384474897902297 169 177 178
0.8959633473557755 -0.01862359748468509 -0.38354702539230456 162 170 169
0.8853292798959166 -0.04321944710048988 -0.38278806320471304 24 24 26
1.0964282989616891 0.2620085597525123 -0.38595151004313955 28 28 22
0.8852299233805121 0.018985217250834734 -0.3834272630225158 34 37 38
0.8644508467586751 0.00012337705194613005 -0.3840194589779341 188 191 192
0.8644508467586751 0.00012337705194613005 -0.3840194589779341 188 191 192
0.8642721508100616 -0.05853595837878711 -0.38284568466462154 183 183 185
1.0982870849141635 0.23866699402383268 -0.3939128171996829 29 29 23
0.8791366645481842 0.08726975332616381 -0.3842927259636631 31 32 29
0.8791366645481842 0.08726975332616381 -0.3842927259636631 31 32 29
1.0823718935657698 0.0934402925625583 -0.3838531741016755 122 126 127
1.08230020118577 0.08079993031166245 -0.3875839581464276 130 133 134
1.085828710716216 0.07928581929830532 -0.38862986379286696 162 172 172
0.8537303663394884 0.025934112341389853 -0.38090360922106753 37 40 41
0.9614494844235458 0.028623874250361545 -0.38153022499700634 48 53 53
0.9690926654064291 0.02857304825480178 -0.3816195385007472 56 59 58
1.0760124463817233 0.03277886850208433 -0.3861946035330104 105 106 110
0.878922036949009 0.01899995081289956 -0.383055394630954 197 200 203
0.9480484752333833 0.019955595203140632 -0.38349812351865287 46 51 54
1.103061101683863 0.016929670968845848 -0.3859736588165117 131 139 136
1.0931192792313806 0.01586999047422345 -0.3857515727993473 113 116 117
0.8852547843545737 -0.012033476707619903 -0.383830866653325 192 194 200
0.8852547843545737 -0.012033476707619903 -0.383830866653325 192 194 200
1.0865575476894802 -0.028779565868010448 -0.3889761899452789 122 125 126
0.9997686810465594 -0.062240012176646445 -0.38321822075607903 187 198 196
0.9997686810465594 -0.062240012176646445 -0.38321822075607903 187 198 196
0.9562840318985685 -0.08881231308075875 -0.38254423099438645 195 201 203
0.9477498561050424 0.050963215398304305 -0.38340303834521355 194 194 194
0.9159345893676194 0.019354388514679674 -0.3826880074402941 194 200 202
0.9159345893676194 0.019354388514679674 -0.3826880074402941 194 200 202
0.8726454760131128 0.004437418360625293 -0.3845822936569477 189 195 195
0.9101356984200564 -0.011838882272288517 -0.3823975086594542 189 195 197
0.9101356984200564 -0.011838882272288517 -0.3823975086594542 189 195 197
0.9514805334265009 -0.03378858267440723 -0.3825664804293545 46 52 54
0.9782487325624444 0.05068538375767213 -0.3813599658832703 69 70 69
0.9782487325624444 0.05068538375767213 -0.3813599658832703 69 70 69
0.9312585477876194 0.009355708030559375 -0.3836012935505254 201 204 205
0.8586452164859176 -0.0010957832118917367 -0.3850644106918087 36 38 44
0.9372287657451649 -0.0026947152209225705 -0.3811164454576221 53 61 62
0.9408746665556169 -0.006294573822064321 -0.3811416324678681 198 204 202
0.9539153060228265 -0.030367918525853205 -0.3809318315936727 197 201 200
0.9539153060228265 -0.030367918525853205 -0.3809318315936727 197 201 200
0.965887243860638 -0.08429255171505155 -0.3808499183567207 58 56 63
0.965887243860638 -0.08429255171505155 -0.3808499183567207 58 56 63
0.8955738112348978 0.039651143846707385 -0.3841256999282969 47 46 53
0.9074889159499371 0.0289175183090143 -0.3852565170929288 37 39 40
0.9606622887751398 0.006798665262314151 -0.38442248590714634 26 32 30
0.9821883282531907 -0.04624137678206826 -0.38026470500585996 42 45 51
1.0354974358389237 -0.060955406360428656 -0.38072854701838443 203 204 200
0.9952850019926872 -0.059093558252643986 -0.3811501680862849 186 189 190
0.9274573817799262 -0.06202086020597886 -0.3827078106853814 183 184 180
0.9416657440457155 -0.06853798881433203 -0.3812387231797084 181 187 185
0.9416657440457155 -0.06853798881433203 -0.3812387231797084 181 187 185
0.8737115987190598 0.060504356733714605 -0.38254623933635 32 33 33
0.9484066485441671 0.051253068413991264 -0.3842429097873132 196 201 204
1.0815000261151841 0.0608536622609057 -0.38551392688632935 147 153 149
1.0034569154898214 0.04934617499813799 -0.3832311931296335 61 71 74
1.0797885277222654 0.05817924185536602 -0.3886729444431176 172 180 179
1.083396110856114 0.05493719712742582 -0.38731880767166027 139 145 145
0.8914407281887171 0.031346583205499316 -0.3830292305316687 198 200 205
0.8535633018691593 0.025408128933001727 -0.3824998881790289 35 39 38
0.9546531031624126 0.032512177561992164 -0.3823421459037784 54 48 50
1.0947959972197816 0.02596295762865214 -0.3832966867821393 151 159 156
0.9352310582475154 0.01320118099799125 -0.38259208117266974 192 199 203
1.001636434360219 0.014942539296442696 -0.3845911482381668 70 78 79
0.9320836979351623 0.009342694621397321 -0.38480842757928324 196 201 206
0.9320836979351623 0.009342694621397321 -0.38480842757928324 196 201 206
0.9243816007103265 0.0017058339197658812 -0.3847705744281207 47 34 40
0.9415481823938517 -0.006194960746554138 -0.3822739463791489 196 202 204
0.9415481823938517 -0.006194960746554138 -0.3822739463791489 196 202 204
0.9104506431510349 -0.011712712862336341 -0.3832098128445727 191 197 199
1.0877376347530125 -0.012674518376947308 -0.3871313882545198 164 175 175
1.0827211701870436 -0.01726458621891204 -0.38520327866528853 116 122 122
1.096415116461541 -0.02910237663652651 -0.39108896683449396 151 162 162
1.077545377660029 -0.03520208140278439 -0.38779769441189677 172 180 179
1.1017274516662265 -0.048812539554998514 -0.3888138353235243 106 106 108
1.087647173444001 -0.051287807376433056 -0.39000082712287015 95 97 99
1.087647173444001 -0.051287807376433056 -0.39000082712287015 95 97 99
0.8604986188409132 -0.05402501185307192 -0.38384225470957495 186 189 190
1.086545833113968 -0.06740784772105998 -0.3882919736201832 95 95 99
0.9226900337770694 -0.06365447220628243 -0.38467497888382746 34 37 38
0.9830378324748149 -0.09875805043488838 -0.38335477866844725 46 55 56
1.003537465885793 -0.1588528379519962 -0.38669272942713956 26 26 24
1.0013039786847602 -0.1613387073024775 -0.38284389267484675 23 23 19
0.9099521500528602 0.08146492315371873 -0.38497284763583145 38 38 40
0.9259359036677902 0.06738709298124572 -0.3836248904304511 199 202 205
0.9259359036677902 0.06738709298124572 -0.3836248904304511 199 202 205
0.9478258509291227 0.019656247252542905 -0.382927043331109 40 48 50
0.9478258509291227 0.019656247252542905 -0.382927043331109 40 48 50
0.8905367678401173 -0.016850824318060592 -0.38459357538691535 36 39 42
0.8905792914259334 0.10166719361257337 -0.38368207507737 37 37 37
0.9384043090155944 0.11070563790860634 -0.3813353978385581 42 48 52
0.9402415859998884 0.05572978533805984 -0.38080696579451173 203 203 203
0.9029847913980916 0.032182989402497725 -0.3844284971674316 195 201 205
0.8720763659151638 0.008021085712891625 -0.38493480214210757 47 50 53
0.9547212108124832 -0.08839195413384038 -0.3797475263153908 199 202 203
0.8545900968119053 0.0897122609614144 -0.3849810363511912 32 35 34
0.9305539078103109 0.07734559886537454 -0.38228686455037697 34 34 36
