ply
format ascii 1.0
element vertex 610
property float x
property float y
property float z
property uchar red
property uchar green
property uchar blue
end_header
0.8311727551268814 0.13032850002198992 -0.3928259963818488 204 203 203
0.8327735548031299 -0.031110483576476364 -0.3830546924993298 174 174 176
0.9400570166795751 -0.07343588303279794 -0.37959398822503904 26 32 32
0.9437206768071368 -0.07546036029791596 -0.38653126113660213 27 30 33
1.1084368826007043 0.11378174871922642 -0.3980933614016693 142 148 143
1.1111246125448697 0.09678481060953154 -0.40552120179329454 148 148 148
1.1068028976809872 0.06908614569607355 -0.39576179780210863 121 122 118
1.1032681997634848 0.06815062787400593 -0.3987236121782974 105 104 104
1.1113193875473695 0.03647123647388618 -0.3949563057410632 127 133 131
1.0082067048704757 -0.005135105957980789 -0.37199664565897106 196 202 201
1.0737139785933179 0.07722613686000845 -0.3864523458531673 190 194 189
1.101885783838202 0.07125505077772935 -0.39095740512580396 109 116 116
1.082340453724629 0.06004554341787409 -0.39507934246696147 188 195 189
1.0916126312804206 0.052791369080802064 -0.3879884743791934 142 148 148
0.8890617704178829 0.03132525270201101 -0.3826635323584763 94 86 80
1.0932837021543909 0.03840315498473515 -0.39780566929289807 169 170 172
1.1040734195546635 0.0209858703946257 -0.39646623763015937 105 106 106
1.0878892629704617 -0.001949434468180508 -0.3930768921661683 163 170 168
1.0951536617623763 -0.013545356927672692 -0.3971011488760091 124 127 125
0.9142516516629122 0.08648093844873152 -0.3789608025896446 35 38 37
0.8312900358219658 0.07760557639823688 -0.38306933691997863 161 157 158
0.8444142373342535 0.05905665557228639 -0.38238768856560756 191 191 191
0.8294198645698283 0.13633595580895053 -0.389854246184985 193 192 192
0.8320424258228121 0.0630999130427508 -0.3860836096788567 161 160 163
0.9056738920465894 0.034666338905217566 -0.3818186931664395 29 30 26
0.8317581038078992 0.0840433101045001 -0.3872344699456712 157 153 156
0.8299521760928462 0.12375270473808854 -0.38785206141980627 196 199 200
0.8911467109325316 -0.022584282402225066 -0.3833728866522262 185 188 189
0.8316479296216203 0.07224232740168372 -0.38794066225550466 134 136 139
0.8591822392616386 -0.04889611568846711 -0.3851393215601541 27 27 27
1.0867632378206176 0.011429695257836913 -0.3856639476926328 144 152 151
1.0867632378206176 0.011429695257836913 -0.3856639476926328 144 152 151
1.086399182660037 -0.031325058311304325 -0.3927359566001752 125 131 129
0.9973407430650814 -0.16038550119473255 -0.38384714698004396 32 32 32
0.9934717757837953 0.07200478045229788 -0.3866192391887598 65 70 71
1.0935889649377262 0.03647868600280583 -0.3964618599062252 106 109 110
1.1173191847074526 0.036763572598776495 -0.3981401090427125 106 108 108
1.0913587189519833 -0.01100185064920045 -0.3965821397634766 149 155 155
1.092056155989427 0.05123191072568203 -0.39503297387393205 129 137 136
1.0967208065469376 0.01947275592351016 -0.39183740218364776 139 145 145
1.0967208065469376 0.01947275592351016 -0.39183740218364776 139 145 145
0.8653044099137581 0.06809653101879762 -0.38835548887770854 185 192 193
0.8348138633959767 0.01337100672860268 -0.386712616146856 180 180 186
0.8333751389646915 0.06557687283579712 -0.38515904719375377 190 190 186
0.8305624862421893 -0.02028110082034634 -0.3811111832191434 132 135 136
0.8430047557401177 0.0670516837535318 -0.3855644594228683 193 193 193
1.0801432788992118 0.03083205149618604 -0.38698916879949635 145 147 147
0.9213194062697161 -0.0012831664892480295 -0.38370363343727465 29 35 35
1.0751713161197558 -0.009729082070851857 -0.38632675627109475 146 149 150
1.005291407224387 -0.1533638285320505 -0.37997744677854467 31 32 28
0.8324239237051921 -0.03833877217525171 -0.3870018803985733 95 96 100
1.0789386124379758 0.10216028342701555 -0.3811903538209568 151 154 153
1.0794150656276624 0.06321383275454164 -0.3885223088991121 118 118 120
0.9712162354470775 -0.0675606593837374 -0.3789739699442018 32 38 38
1.079138239700057 0.11273687375515284 -0.38343333380428135 118 118 120
1.084832091402774 0.05457941432402635 -0.3929554327356343 153 159 159
0.9258919305593496 -0.05481431049683826 -0.3796497159552817 191 194 195
0.8340979856019735 0.06747816659842568 -0.38756436315588577 177 180 181
0.8341223785467267 0.0636381093664465 -0.3874233044282467 181 183 182
0.9554109440204243 0.04354124593334425 -0.38152077826328895 179 185 185
0.9588808634729619 0.037395625146682106 -0.382034412135178 53 61 62
0.8333493312629289 0.03811724051455389 -0.38753112925247946 117 117 117
0.8314561394907779 -0.03739213740714428 -0.3854351600296426 169 176 179
0.9421711710512062 0.08879278371544502 -0.38447890414611086 38 44 44
0.9109749273837011 0.019610270549363543 -0.38510357872035456 28 31 32
0.9162492912546393 -0.037237662237893446 -0.3827714023257971 28 34 34
0.8139604469116583 0.17415602574461614 -0.3912764512311237 21 21 17
0.8176894682265027 0.17355292336180328 -0.39022374334986815 20 20 16
0.8771926830537027 0.11235885042864246 -0.38518927230000893 29 32 31
0.9105480834795544 0.08225668700320898 -0.3849392190914133 30 36 36
0.8331540921023399 0.02514584294007154 -0.38741256057023205 138 137 137
0.9771712744724583 0.08762379356018016 -0.37882634230912904 33 41 38
0.8309158867237594 0.08091000585509817 -0.38385498246456623 139 140 144
0.9261431960857911 -0.0015579844810604975 -0.3805582518830283 29 28 35
0.9721343592880826 -0.005224578734780162 -0.3811055765518904 30 36 34
0.966984950608499 -0.015998760567162488 -0.38018950750206804 37 44 45
0.8303192691354206 -0.009126612037626483 -0.3834043050391873 193 193 195
0.9896701948978226 -0.046383874582336906 -0.38067068185736136 49 56 60
1.1167136690172592 0.09884632155025032 -0.39808172818412396 101 106 102
1.092561035799473 0.09290992354471098 -0.39795427485932905 133 141 141
1.0863015765305135 0.013571760154264404 -0.3831823810026651 94 97 100
0.9076227703710208 -0.03700712500209869 -0.37674037769174856 179 182 182
0.9629254224766722 -0.05645822995000363 -0.38746272864600534 37 47 45
1.113172879373418 0.09775090757107188 -0.4092156606296657 152 160 159
1.119724027551779 0.08869566908073884 -0.4074408989294788 136 144 141
1.115912116832579 0.08078130031327524 -0.4029973037850714 138 144 144
1.090478790291279 0.05058503129517676 -0.39918185332923856 161 170 169
1.1056923602178388 0.046593077906501405 -0.40099435309097514 100 106 105
1.1146484213554038 0.04193525266146932 -0.40419856529364356 135 141 140
1.0998653665247422 0.02088456858139036 -0.40416009882213133 106 110 108
1.1100781505064843 0.0071840310940339885 -0.40419879171850603 84 87 88
0.8978107832457289 0.006543930160168075 -0.3830565954632475 20 26 24
1.1123703004404795 0.06801945499985246 -0.39899559464415296 123 131 130
1.0904444452376307 0.06671767523594296 -0.3975430257347646 160 166 164
0.8258516519831537 0.0939781062881785 -0.3467986455947228 199 200 204
0.8330305739588741 0.0377094554844 -0.385874436634794 117 117 117
0.8347997985056838 0.010193513567904247 -0.38550881479139754 172 180 181
0.8321621466334966 0.00394822131878652 -0.3829726748419281 130 133 134
0.9541366254055597 -0.032854437101691385 -0.3821187456473423 28 27 34
0.9001283970883432 -0.08140042575603883 -0.38536571228207583 178 178 178
1.0938696368713239 0.017095144022563104 -0.385568812061547 85 88 89
0.8743680726115136 0.01508174931752964 -0.3794993851195661 32 33 34
0.8743680726115136 0.01508174931752964 -0.3794993851195661 32 33 34
0.8326911053298613 -0.014757386614619266 -0.38073405560600077 190 190 192
0.9002184414852432 -0.08141538106174456 -0.38596148750840786 178 178 178
0.8538296602725374 0.08892181392953305 -0.38047073459409725 35 38 37
1.0870273512379458 0.06709858619559078 -0.3852389862501378 99 101 99
1.0830502428855797 0.05238476855162734 -0.38061774986560065 103 103 102
1.0879509634490312 0.04621699726450151 -0.38033034519081527 133 142 142
1.08920895859952 0.034872946587755124 -0.3818508062826871 104 105 108
0.9096843466806228 -0.04242260450492816 -0.38056295094548687 32 31 30
1.098665857850636 0.08212385723348814 -0.3884786215196792 112 115 114
1.0819402375346734 0.02719846126789195 -0.3809263967020553 137 143 144
0.9930767100200575 -0.15817075089114097 -0.38185967386985625 23 24 24
1.1066194607131261 0.11492703545197516 -0.39229489576108595 132 140 139
1.0797698406411158 0.09595111661048313 -0.39205623758136177 191 195 190
1.09997640732716 0.0768125143266419 -0.38949406055764413 112 117 118
1.1087936968659173 0.06069819501032425 -0.3901257540462466 127 131 126
0.8889633662571743 0.04531293670519415 -0.381239516109752 29 32 35
1.1121021431685465 0.05776962016253783 -0.3933444907502852 125 133 131
0.8125755806141286 0.1699626729286708 -0.387231350493907 34 35 29
0.8454861521305859 0.17108855078006519 -0.38717087330653654 30 30 24
0.8780688183416295 0.08710464361441375 -0.38102292025159545 27 28 24
0.8308773200269901 0.08071140790362653 -0.3831701268616735 139 140 144
0.832108585334369 0.03889305977129209 -0.38347394631445575 182 184 187
0.8299830314996423 0.02425502137781876 -0.38427093712606697 178 184 186
0.9152494667817159 0.05014809172769626 -0.3801100748156216 29 35 37
0.9808955678369492 -0.15108203964143266 -0.3822006245959993 30 31 31
1.0050495610576085 0.08130103638309534 -0.3919322954737448 62 64 69
1.1131630469326823 0.08420917442257815 -0.40114639761889515 138 147 143
0.9822879316561995 0.020349829029444755 -0.3864632267655721 195 203 202
0.8575253785739967 -0.0009914817947429386 -0.3819387189184411 35 38 41
1.0997054671498274 -0.010219101322661205 -0.39939856680053315 153 161 160
1.1117153864712732 -0.012137945701467461 -0.3997411097048445 132 138 138
1.0848799474764685 0.026690582867011113 -0.3818831585024508 104 107 110
0.8844609018044117 -0.011792339560997124 -0.3820863534958923 187 190 191
0.9814151106124837 -0.06450483212057445 -0.37895839916628465 41 45 51
0.9504872035910031 0.057946769701591586 -0.38663945352997375 42 49 50
0.8538128832298384 0.02676730916210746 -0.3815626299133258 37 40 41
0.9702945488679793 0.033677796078727264 -0.3886108720372164 190 200 203
1.1086212717276323 -0.0003685544871623125 -0.40270699848920266 154 162 159
0.8863309811357144 -0.011219823972162457 -0.3877146321601942 192 194 200
1.1127794316850181 -0.01624586654287414 -0.4041617746798543 145 151 151
0.8617400128103786 0.07582331930563105 -0.3863617712139697 50 34 34
0.9633795355772714 0.031422434331998594 -0.37682256874464976 202 202 204
0.9502293761266338 0.029467079604630738 -0.37817997434956985 49 55 57
0.8835452681215783 0.04963258523713208 -0.3792669797492515 195 196 198
1.0810366654526269 0.04010201781993808 -0.3807412995565665 132 138 138
0.9532080414357459 -0.022921298988772616 -0.3803405982064828 166 173 170
0.9809616645550367 -0.045960883221834774 -0.378173209560293 42 45 51
0.9597695448816084 0.03357851949187982 -0.37207781160538356 65 64 66
0.8852354797466362 0.01949899679730483 -0.38400656431096075 35 37 43
0.9607441665568944 -0.09489965560156906 -0.36570060504275903 61 64 67
0.9650877876059757 0.09889360711999404 -0.37836934835334074 32 36 37
0.8800623025996618 0.05805659860384402 -0.3877778147820867 184 187 188
0.9474661686934304 -0.006443064613518292 -0.38202530468985607 34 42 41
0.9974979715639386 -0.02474544585000726 -0.38813579439187046 40 48 49
0.8291238751910608 0.11724820988766146 -0.3833367921480807 189 188 188
0.888414728822265 0.030952710174701466 -0.3831084283344391 41 33 26
0.8298818383371012 0.03641547720065507 -0.3835883628165917 166 173 174
0.9561177054582914 0.04384310092789908 -0.3847935624268953 184 188 189
0.9561177054582914 0.04384310092789908 -0.3847935624268953 184 188 189
0.8444797298690574 0.007539697697235166 -0.3902926501371176 168 174 174
1.0009545107129016 0.08971001903788203 -0.3805188714432317 75 86 84
0.8318763422444185 0.06296875217587641 -0.3843149631116954 116 113 111
0.832938563246651 0.047991428224055166 -0.3847175648040773 173 175 174
0.9998710115093509 0.06055073453188525 -0.38179257450136306 70 78 81
0.8337878054231243 0.03391260857540649 -0.38247243943845427 174 180 180
0.9861847215176669 -0.04717469005551297 -0.3825320713084346 45 50 49
0.9602128544616135 -0.08805691615800064 -0.3805231568060327 178 181 180
0.8316234494976311 0.05796173922146394 -0.3836597532900704 184 184 186
0.8328846188807404 0.014783865450747115 -0.3831191096238979 114 117 116
0.8326466752252012 -0.024988902363951248 -0.3840360021834482 160 160 160
0.8292939046093791 0.08755273048034305 -0.3837010810821442 186 189 189
0.8307481132823753 0.08357109511055556 -0.38388809437237303 186 187 190
0.8311078951236104 0.06036846183269767 -0.38419820311168273 176 176 178
0.8305065711086838 0.03819083569640347 -0.38392011182184943 124 121 123
0.9648015053692849 0.04589315149718479 -0.3817130363301307 40 48 47
0.995808619170364 0.01824770035471135 -0.3809851561984993 52 62 65
0.9833602097220636 0.014155717866215722 -0.3832986270656686 48 61 60
0.8313582556406073 -0.01793284322222686 -0.38230638749140755 106 106 108
0.8311489210528669 -0.02690037823037136 -0.38380949166015604 164 167 168
0.9261530047710723 -0.06145457252366745 -0.3812731020685155 149 155 149
0.9590014951051768 -0.0874073877716219 -0.38297411616470967 180 184 179
0.8328937809497736 0.03079490492982098 -0.3848619794140852 127 127 127
0.8784815250554282 -0.012383406337253438 -0.3868302617863102 12 18 16
0.9997746521910194 -0.04625876933365211 -0.3811999445329203 51 50 57
0.9760964507872878 -0.15493349140451082 -0.3756317972006935 22 28 26
0.9782595845652252 -0.1575923959758425 -0.37730688764714837 25 29 24
0.830970951667305 0.07971054897337873 -0.385301395390018 175 175 171
0.909087685663931 0.019627901368970867 -0.3817187741952139 15 18 17
0.9711981890689991 -0.007736461841584243 -0.37736200982436846 55 58 57
0.9711981890689991 -0.007736461841584243 -0.37736200982436846 55 58 57
0.8329504390535518 -0.024545848441178245 -0.38127437857858776 110 116 118
0.8294083692506818 -0.025108415290581748 -0.37972726747385477 155 166 166
0.8774014099193388 0.08600798238679692 -0.38134008594281604 30 31 27
0.9141125531965744 -0.03683706120733735 -0.37937262469905203 27 31 26
0.9914348115985756 -0.14294204409258335 -0.37689253333770867 40 28 37
1.0001127193700763 -0.1614112427574617 -0.3818983184622108 15 14 16
0.8307387126153392 0.1336986353337927 -0.38592320524783186 129 122 122
0.8307869865775966 0.1103907561123085 -0.38339675949067337 179 176 172
0.8305799805492982 0.05313473895329026 -0.3838548685025918 120 122 121
0.8826554969705128 0.024273777128821276 -0.37995011506516446 167 175 172
0.9384599812777475 0.024349121649394578 -0.3780069976647556 47 55 54
0.8310839613130738 0.005154887339568972 -0.38155956223051934 163 170 173
0.974665995413258 -0.14407601481948643 -0.3716930655177526 20 23 22
0.9961780635358624 -0.15291036196458124 -0.37060799782669596 28 30 29
0.8328705069691525 0.1129070697859082 -0.38796636461403855 152 146 148
0.8298004419258886 0.07919410338893908 -0.38559905653221976 188 189 191
0.8330339664271039 0.0725657426087229 -0.3856366243567976 177 173 174
0.8316811330160407 0.06285273891941869 -0.38497796490346103 171 170 174
0.8314746702097336 0.047446412063888374 -0.38575432526878844 112 110 112
0.8314716435989101 0.03286619506164177 -0.38409815046518425 189 189 189
0.8316177223679827 0.020148500767454013 -0.38589236657253445 178 179 183
0.908398909040746 -0.004970886993104981 -0.3832681625278436 20 26 22
0.8790956902880794 -0.011824011558310185 -0.3863815167589832 21 24 21
0.8543548183608556 -0.013435618182611702 -0.388564809939127 21 25 22
0.8308299956974559 -0.01400714229339312 -0.3853693077958607 121 122 126
0.8331031314150371 -0.02321232389326497 -0.38585451441006524 107 106 108
0.8331031314150371 -0.02321232389326497 -0.38585451441006524 107 106 108
0.8304193244646773 -0.029348360450032734 -0.3844727180466896 143 142 143
0.9733629877824633 -0.042759283602886416 -0.3836299587376947 31 33 39
0.9483145419967719 -0.04311218894508971 -0.38436556510460007 25 31 33
0.9378660654284179 -0.0600471089072969 -0.38601413862032136 19 25 22
0.9103272711907621 -0.06911407631357813 -0.3852079316309748 18 22 17
0.8307413307496704 0.09557756068703728 -0.38666749525050265 172 176 175
0.8307413307496704 0.09557756068703728 -0.38666749525050265 172 176 175
0.8313613481689268 0.018383152088238826 -0.3843677079269995 171 174 173
0.8306641665981445 0.01001135789922972 -0.38460787997979545 122 123 121
0.8783429406089786 -0.005975420186883333 -0.384118577546496 160 166 164
0.8330499302122406 -0.013880792729702402 -0.3846495977472326 111 110 110
0.8843453612498906 0.08280674347435163 -0.3880139550469896 34 34 36
0.910919316465295 0.019533290468802457 -0.38804140767436635 33 33 33
0.9179733589525887 -0.006678621530193237 -0.38932863884656854 186 189 188
0.9108560175020834 -0.03834467532943355 -0.38718521517618737 184 187 186
0.9166810084802456 -0.0437484265321389 -0.38615845908763263 182 182 182
0.9166810084802456 -0.0437484265321389 -0.38615845908763263 182 182 182
0.9878730865096196 -0.06310687046265667 -0.3866916931009792 199 199 201
0.8312972941643684 0.09676845540069856 -0.3859734227557058 128 125 120
0.8326920138284662 0.09007553854812961 -0.3843343173725905 189 189 191
0.830588842699885 0.08795176425133336 -0.3846729279634874 181 184 185
0.8521958364817195 0.08681760105243441 -0.3805927919010097 25 29 28
0.832243662501212 0.08392475821581845 -0.38509946211003665 181 177 178
0.8295721351146542 0.08066006068058955 -0.38610281849592754 185 188 189
0.8325331202250137 0.06635932673907363 -0.38308607764147184 186 185 187
0.8305948076305821 0.05334801239400186 -0.38486003028500576 121 124 125
0.9400215974159172 0.050587181887587054 -0.38214267618973796 32 38 36
0.830670688487595 0.024425528078421438 -0.38289166765738764 115 116 117
0.8307090343851145 0.024456475262719025 -0.3835894659839222 115 116 117
0.8321312482240362 0.005919149965256012 -0.3833777731285581 128 127 131
0.8348241714420946 -0.02343175071952127 -0.38433453168425036 166 166 166
0.8314023652738967 -0.03801955327927837 -0.3846607246115098 109 109 105
1.0732203400704239 0.07056393341640192 -0.3854526460608559 123 123 123
0.8301470354043051 0.05935226481730288 -0.3847054731087942 141 141 144
0.833678103229824 0.010352356788010737 -0.38283790423886543 172 175 176
0.8309476357860586 -0.009719946249493466 -0.3833955196200908 108 108 107
0.8300290038508819 -0.012281728275997281 -0.38467349624031455 165 167 169
0.8325297523641423 -0.025113357068728113 -0.38432230354460245 170 176 178
0.8314841801190171 -0.025153638727770884 -0.38435540990091316 160 160 159
0.8597362976304619 0.011987403511715827 -0.38420909890175337 167 173 173
0.8331636454282424 0.012811255480434375 -0.3841377247713184 167 164 165
0.8314880265411445 -0.025175292226622854 -0.3844027118811669 160 160 159
0.8943750278156373 0.03563174222444376 -0.38186214862648704 172 178 178
0.9154236959116971 -0.006248894179882937 -0.38353048766809894 159 168 165
0.9538588621841145 -0.033222317208773 -0.38311221671808054 35 38 46
0.9109075041543439 -0.06995944419625844 -0.38719322063309436 21 21 21
0.8755531731804609 -0.06589352902844117 -0.38553690409282737 21 21 21
0.9550268687577691 -0.03391554256549163 -0.3854988493065178 44 44 57
0.9072040516088649 -0.03501257033767658 -0.3861411523684594 32 31 31
0.9096058225770618 -0.04299465340324308 -0.38357591582825884 28 27 27
0.9852231838098122 -0.06696567102780787 -0.3873027124339613 41 44 47
0.981799587835484 -0.07601584760807108 -0.387062444893641 37 40 43
0.8310402917287674 0.13943895775746856 -0.3890021671726498 193 189 190
0.8318814330193643 0.1163511850432509 -0.387365763980196 191 189 191
0.8310752679937267 0.10155739591922902 -0.38687438615259373 207 206 208
0.9097332194716039 0.01987582397956678 -0.3834978599375768 21 24 23
0.9534587449584873 -0.030075395436895434 -0.38176940569438805 176 184 183
0.8325669084815567 -0.025126778800586475 -0.3846950085952363 161 165 166
0.9411462218901674 -0.07349289947166962 -0.3817615870933254 26 26 27
0.8955566322483278 -0.08217261291141885 -0.38384537527724 23 23 19
0.828914429652418 0.07599776260910492 -0.3862521176417627 187 187 187
0.8314968802762719 0.036317926540901886 -0.3843328477293794 117 113 114
0.8320141093203155 0.024591597876967266 -0.3843783603391715 116 112 115
0.8316085199765703 0.06267984522893488 -0.38422655332316924 171 170 174
0.8306361760018592 -0.03688607019668517 -0.38240895733079744 162 165 168
0.8311546449486926 0.06352074261960008 -0.38380613357280596 205 204 208
0.8314411032479438 0.04637062882964355 -0.385194777133832 148 147 149
0.9756846776918819 0.05095714951330672 -0.3792188136146138 54 62 61
0.9391596933073316 0.024786234998427123 -0.37953335789159554 53 61 61
0.8327100823016763 0.022546880051533234 -0.3832135369428821 169 170 170
0.8319133464506339 0.0022266952289029048 -0.38259903078545127 108 110 118
0.8319133464506339 0.0022266952289029048 -0.38259903078545127 108 110 118
0.8313040307363369 -0.009066318507010505 -0.381893192568026 164 167 166
0.8780000149985921 0.08671126285469062 -0.3835289592644529 27 27 27
0.8317650851566847 0.07416457915749415 -0.38719259735184897 130 129 129
0.831215516461268 0.03760450861543007 -0.3855364819594367 195 195 197
1.0828726490168186 0.04059421137119141 -0.38927967113530254 119 123 118
1.072959771735016 0.03658708490980848 -0.382892177681391 120 126 124
0.9406945586374631 0.025230834753574603 -0.38277370738951433 26 33 28
0.8324941190432277 0.005222799278812815 -0.3849883347193707 132 129 126
0.9896939890966403 -0.0010673295201633192 -0.3832031232411775 55 59 59
1.0770208035204731 -0.006038041662438993 -0.38852515096621265 132 136 135
0.9908220427593522 -0.02009374522882151 -0.38124131386314913 52 63 61
1.0731612108271265 -0.0259955317378131 -0.3858559440280546 127 130 131
1.0020700090355263 -0.036425350828187056 -0.38369139438025435 60 68 69
0.8309284775666413 -0.03486712556482866 -0.38526337780726605 174 180 179
0.8309211105484147 -0.03485846519737112 -0.3844549706401637 174 180 179
0.98265309269932 -0.06482554816890504 -0.38224151020780256 41 49 49
0.9891881819989938 -0.15123155945362118 -0.3869979973939584 36 40 35
1.0065084019218697 -0.15873743813641888 -0.38414614335878894 28 34 32
0.9969262014832317 -0.16220320438657507 -0.387807011165626 13 20 14
0.8329023232080375 0.090583316034072 -0.38581244132864423 198 197 199
0.8312441465668082 0.06599016330338771 -0.3842512642974957 184 184 183
0.9083833816304521 0.055346246591971675 -0.3812473003795237 24 28 23
0.8773442243233557 0.04933322421964064 -0.3819017108387441 25 25 27
0.9383255217725518 0.024082142099209884 -0.3780049699498125 30 36 34
0.9078807439340413 -0.037327742241288396 -0.37816163179913687 167 177 170
0.8318413022254405 0.07993627677680916 -0.38465346012531215 129 128 130
0.8311846744521266 0.127573814336531 -0.3838287127891291 176 173 176
0.829184512856115 0.07119952753495382 -0.3822601431476835 178 180 177
0.8312832845998714 0.06715344492160503 -0.3837178269828029 171 170 171
0.8305091541326012 0.060998237704036916 -0.38307097755050157 135 135 134
0.8853917999957746 -0.06789032797770442 -0.3832848836137425 21 24 23
0.9732343236243308 -0.07216734869441821 -0.3730342641413153 29 37 38
0.8324073375552397 0.04230777586576334 -0.3846073424268004 145 144 149
1.072026749488511 0.05125772989854385 -0.3812920955373967 124 127 128
1.0761006455408597 0.034025674967240516 -0.3821405885606925 109 109 111
0.8311377849786891 0.1393107284599939 -0.38907073275878323 203 203 207
0.8323232282850069 0.10146456235375899 -0.38697226600728857 200 203 206
0.8330458841367296 0.0805986606577742 -0.3847326700715052 200 200 202
0.9516875916262101 -0.03004139165124842 -0.37825343908555675 200 200 202
0.8300400874077495 0.07237388469456288 -0.38471301013830106 187 187 189
0.9958142322624299 0.027267770762687164 -0.3765833739880413 70 73 74
0.9877484343200398 -0.0027784709119285495 -0.37809598919528986 68 74 74
0.8525094726829588 -0.07359889369081352 -0.38013262967288936 24 24 25
0.8323305367131462 0.07280353448334707 -0.38377883361437365 137 134 130
0.8305597628965942 0.04499380795123972 -0.3822006765109469 157 160 161
0.8290827398461301 0.02075702994318158 -0.3816499262340138 170 174 173
0.830585592006183 0.008335812915356657 -0.3821345191798486 109 114 116
0.8305857851614968 0.000964201259760472 -0.3819983324098373 117 123 125
0.9443171636257686 -0.006429975682796688 -0.37792878848701117 42 49 49
0.9924759333225007 -0.012987125981206426 -0.3745617567260095 68 77 77
0.9513536851554979 -0.03265895757103945 -0.3778277820855702 45 44 46
0.9397090013590593 0.05048563353992097 -0.38158044164260374 36 39 38
0.8857909813269087 0.030229116401727353 -0.37551330461885307 122 111 102
0.9384588004544183 0.02461398728926701 -0.37830425991599237 36 40 36
0.9448231356703974 -0.005077142141998235 -0.376552159237398 34 42 39
0.9659554127906185 -0.005549666635565154 -0.3729875707075297 56 59 62
0.9086330093490336 -0.03791937010773585 -0.38164367201830074 176 175 176
0.8742974071059205 -0.046391498508564305 -0.38158442478629534 26 23 25
0.8310592739754382 0.07221477559563552 -0.38503796351265257 203 203 205
1.083357221312942 0.10567082188956549 -0.3808044341985667 78 81 80
1.0689746413485848 0.08736928596819105 -0.37977296228013635 125 131 131
1.0890870359691 0.085502016049156 -0.3821707498555123 74 74 76
1.0785834119718272 0.08028159563395561 -0.38033845846626835 114 120 120
1.0698666346998396 0.07095135708825882 -0.38368470041601843 111 111 115
1.0754318112383199 0.07158417295901302 -0.3809559204132839 121 127 125
1.0740265341499433 0.06734664846611622 -0.38232507908781066 90 96 98
0.9866203909269937 0.03933981006940463 -0.379078569644452 78 87 88
1.0762424227681857 0.0537755016108008 -0.3805864800473089 120 123 122
1.0749241915989147 0.04371336856495147 -0.3798624830887106 117 122 122
0.9878610459957413 0.02757199665986047 -0.38034860538285037 71 82 81
1.0726056957109864 0.037692521328004935 -0.3806331751746454 130 132 134
1.073324373521004 0.0300796453349864 -0.3798616322781985 107 107 107
1.0767693161663157 0.02956492660072772 -0.3804196502307143 121 123 122
1.0715579958662804 0.02847169428466303 -0.379819360801561 128 129 131
1.0668589617080062 0.022686807392062455 -0.38083207326567303 124 120 121
1.0771284707953412 0.023844130021547706 -0.3818791777845003 104 104 106
1.0792837281384169 0.022075617003027407 -0.3821317198293958 114 117 118
1.0704288167901586 0.019049695135729714 -0.38053811786302216 129 129 131
1.0796808335632178 0.01801259042155196 -0.3829676931112341 115 118 119
1.0716096781937727 0.017019506152684778 -0.38130491301123204 128 128 130
1.0765221629479316 0.015375179477813805 -0.3780444273531597 93 92 94
1.0802837873150615 0.011957483280045039 -0.38133419385464057 98 98 98
1.0727342608878394 0.005298233505164748 -0.3833633697544396 121 124 126
1.077656235625265 0.0027240350575750694 -0.38090861298716006 112 112 114
1.0771130276214365 0.00018284578363872024 -0.38007739493110326 109 109 110
0.9853975046238985 -0.060389417006798216 -0.37658214140230667 60 48 61
0.9660560904207947 0.0322058597113956 -0.3844092081865658 185 196 192
0.9907764496945992 0.028194320169943103 -0.38425967380865217 62 73 69
0.9455971300474716 -0.006115410626139926 -0.38063186829366463 36 44 43
0.8836019900506532 -0.0062076535831126715 -0.3814572685900658 23 29 27
0.9854825731383832 -0.06445116124608377 -0.382049653408258 40 42 52
0.9029988924168876 0.10660391902496237 -0.3773470688888024 36 39 41
0.9131292967803908 0.08600609525932822 -0.37829455012437707 26 32 30
0.9431379162690781 0.05478216778512437 -0.3767150491966842 42 51 50
0.9528427669296072 0.02843784528105758 -0.3746724629528913 51 56 58
0.9388209050866294 -0.042117320960942124 -0.3779225388756742 169 175 175
0.9686751028621783 -0.10345888454250521 -0.3787466741981414 198 198 200
0.9057733251273158 0.03654968711806596 -0.38509029862415217 35 38 36
0.9187271727627476 -0.06283641403817516 -0.3779523130297341 23 29 27
0.831891514433894 0.0831105999273625 -0.3857723800781304 181 181 180
0.832003818571673 0.06301400456312763 -0.38445738566837384 121 120 116
0.832003818571673 0.06301400456312763 -0.38445738566837384 121 120 116
0.8294658806800196 0.05191876348741747 -0.3846377530422025 177 179 178
0.8593538345524426 0.011953236474839321 -0.3820766361237739 162 170 169
0.830233682315412 -0.0028016867295350867 -0.3817467853202886 155 162 165
0.8530342565477885 -0.012543947202164379 -0.38286595144761465 28 28 30
0.8306815484223778 -0.015339162943212723 -0.38239539455329385 133 132 135
0.8306815484223778 -0.015339162943212723 -0.38239539455329385 133 132 135
0.9440385506553254 -0.042987814220157704 -0.37472424057719167 29 35 33
0.9440385506553254 -0.042987814220157704 -0.37472424057719167 29 35 33
0.8828540926914781 -0.07309031127091088 -0.3773541100192199 168 168 164
0.8298198419380397 0.07225706769358364 -0.38424240526495823 191 191 193
0.8812970727545717 0.0536643090708876 -0.37561927399521466 23 29 27
0.7617909329781525 0.1021394259767273 -0.3947048611534959 21 19 18
0.7699128310554608 0.09872083185339019 -0.39944067318460447 39 40 36
0.7615016835401589 0.08938152294462459 -0.39536585186010026 46 47 43
0.762956308686043 0.07073604318082272 -0.3967777901352466 52 59 53
0.7670347886520171 0.1102907318195157 -0.39512189952993654 18 17 17
0.7657347821111213 0.08281810762522646 -0.3987135708312921 27 24 21
0.7641039261583957 0.05785129059341549 -0.39583715766529515 62 62 62
0.7641039261583957 0.05785129059341549 -0.39583715766529515 62 62 62
0.7670211671179935 0.04633570493870264 -0.39529512481525914 25 25 25
0.7699228533146008 0.04721206857999561 -0.3935638654345403 48 43 39
0.764748313245189 0.042971799831352846 -0.39418386201145067 68 67 67
0.764748313245189 0.042971799831352846 -0.39418386201145067 68 67 67
0.7663224435697834 0.04296915125352109 -0.395172415225142 30 27 24
0.7648117744772623 0.04144431515611776 -0.3959416760511365 41 38 33
0.7645403052128987 0.03627168343350918 -0.39544120946618966 33 30 27
0.7680704161794134 0.03783709718293967 -0.3944679258984039 24 23 23
0.7696653838828864 0.029507912433587587 -0.3938186404108541 29 24 22
0.8309221613005063 0.05974108423994358 -0.3855528936340634 143 142 142
0.7677256676704021 0.020162731567741322 -0.39328242574385125 26 26 23
0.8299522088540092 0.05294998345490934 -0.38497946942291233 176 176 177
0.833605924808972 0.05074237087073261 -0.3858203343484 172 174 172
0.8326972592689363 0.045116847179285685 -0.38597110075873486 133 130 129
0.832470252296755 0.04070507698997632 -0.3856389192917762 165 165 165
0.8318136877317553 0.03751824027058601 -0.3857707499841759 183 183 187
0.878925299950798 0.05643383407594698 -0.38490122795946335 173 176 175
0.9154054081584002 0.05111237133396987 -0.3828988749168107 31 37 37
0.884768917581581 0.02005873965920646 -0.3850077556954191 23 28 25
0.9807689183728123 0.042695040787586055 -0.3791023926672122 56 67 66
0.9806170616808364 0.04062816343469739 -0.3798437450186238 60 67 68
0.9913404745758847 0.025913753626427716 -0.37735351840860315 73 83 83
0.9724800079072285 -0.006220617188084994 -0.3800901620499855 63 71 70
0.7725182334983642 0.12390014942927301 -0.388755013086247 51 51 47
0.764602613886222 0.12201384205265678 -0.39974830223655267 53 54 51
0.7683437897651173 0.11861810670195498 -0.3985162145818346 57 58 54
0.7741704162952023 0.10306724294460176 -0.3941140139613479 61 62 58
0.7612715989751756 0.09193603291969689 -0.393111673988895 35 39 32
0.7618464111044916 0.08294383824663967 -0.3961552885052477 44 44 43
0.7618464111044916 0.08294383824663967 -0.3961552885052477 44 44 43
0.7627403762758956 0.08188546743372727 -0.3975039658866175 45 46 42
0.8310679097915488 0.09849647341903016 -0.389552844215711 185 188 189
0.7760096641319069 0.07694457061195542 -0.3959396479184305 53 52 52
0.8323091819259845 0.09071057143569332 -0.3877735095691024 125 125 128
0.7753125723558548 0.06726928064883239 -0.3943139569326582 20 20 16
0.7684132471315178 0.06188407961698708 -0.3976585050274485 58 57 55
0.7690272675471741 0.058512811234422146 -0.3948638457398259 61 61 59
0.769658327450851 0.054053204146467373 -0.39721312514884605 64 65 61
0.8345581045288905 0.07340174037750356 -0.3880972226303016 183 183 183
0.7676707060693669 0.041861828017925054 -0.395239180609184 47 48 44
0.7719391539069411 0.037762754152381624 -0.3978779553728444 21 19 16
0.8725653643330099 0.06732920737601247 -0.38591884244186664 176 184 185
0.998274835326199 0.09391578141599015 -0.38054303493061625 86 92 92
0.9639131159278249 0.06570937160936144 -0.382539262165817 51 59 57
0.8333978948495757 0.024905733561418956 -0.38794499465725546 113 113 114
0.832742971470234 0.005493477479589581 -0.3875505322319344 176 182 183
0.9954517500359195 0.03896344670431011 -0.3785295396788047 77 85 84
0.8320004230978384 -0.017151251909220937 -0.3840663929929089 194 194 201
0.8323150365783973 -0.032354385422513496 -0.3892017802733317 169 173 175
0.9787311213720427 -0.011367680407758395 -0.37985101114930875 51 56 58
0.8798078741264671 -0.03734502264282906 -0.3865677182146058 23 29 27
0.9626262377905087 -0.025374051610200263 -0.3828080418314783 43 45 51
0.9183190676762905 -0.10004654068189663 -0.38384869378250036 23 29 27
0.9406915346597237 -0.09893108047502432 -0.3811868762893286 31 37 39
0.8312869746722231 0.1135035005361821 -0.38885508169566163 156 155 158
0.7688331358971896 0.11205072554908942 -0.39019849320631816 34 34 33
0.7663167443981667 0.09250412806942021 -0.3975168238940977 54 52 49
0.7622699237669905 0.08569629414690559 -0.3983922531451129 52 53 49
0.8326194404044656 0.10669773874773894 -0.3878485066339257 190 186 187
0.7674508019409386 0.06306784981380066 -0.3944438368185094 50 51 47
0.9154663950416061 0.11225839411927412 -0.38095161620419543 40 43 44
0.9248292622310076 0.0668479169141279 -0.3817759796211881 187 191 190
0.8299522179065171 0.037009705071683385 -0.38543455593322223 180 183 183
0.9100674129329122 0.05647580589391991 -0.383683258574855 33 39 39
0.8326513843403026 0.020577390031281347 -0.38588152074873094 152 150 149
0.8339190216910274 0.020828771366910588 -0.38613899030768656 177 174 172
0.8956127145080751 0.03611037396712383 -0.3829158428087781 173 181 178
0.9904567454648516 0.04071101934217922 -0.38078482414157777 78 89 89
0.9953993927478593 0.0418387725003312 -0.37784973456903487 67 77 77
0.9859615154939353 0.037778102599591176 -0.3803123032355592 75 83 82
0.9878805226073322 0.03631809566805728 -0.3807510741064398 63 71 72
0.973135986135284 -0.006301705494517417 -0.3809877033501839 54 62 63
0.8334423016625429 0.11370206753277345 -0.3885488684501165 144 140 142
0.8305333826652376 0.08268498975784783 -0.38828487497187253 188 188 188
1.000844497908308 0.04953106224058917 -0.37800614256558007 66 70 71
0.9342152422446239 0.012856719591950222 -0.38155406101941786 178 184 183
0.8298705515839186 0.0958729150578104 -0.38707403249499744 189 192 193
0.8346201237697186 0.073457842559992 -0.38842097505582807 186 188 187
0.885312616269569 0.020006641586543285 -0.3862691587554039 23 28 25
0.9413685732119291 -0.036972622028134894 -0.3821635352750768 33 41 40
0.8327524054394142 0.0974647818336655 -0.3849679853424742 190 189 190
0.8303175858607461 0.0952409939462594 -0.38546626415960944 184 186 187
0.8787965559847695 0.08796316512905233 -0.3848631583385383 31 34 33
0.9720368916680115 0.05128255400887716 -0.38065702479599295 192 200 199
0.909910647557749 -0.011461608175132584 -0.3825158238723903 168 174 172
0.8353907597707462 -0.034108845778446716 -0.3857975855874733 161 167 165
0.9471048574637211 -0.04251006143950019 -0.38064519367778804 30 33 36
0.9361216911383946 -0.058897871024485855 -0.3808328373168948 27 32 34
0.8848589813167322 -0.07397930456729175 -0.3831525869771287 169 170 166
0.9855317076848401 -0.15173352096529746 -0.38046689123642663 14 18 15
0.8561102197479692 0.05947107678638928 -0.38252685036322287 31 34 33
0.8317205169417647 0.005569934575503964 -0.3833769303510116 176 182 183
0.9098928372718452 -0.037172591291753584 -0.38216450895985793 166 172 170
0.815410329011947 0.17569143711372873 -0.38612289510599734 28 25 20
0.8456967276225347 0.17532587960211318 -0.3842509586070276 27 27 21
0.840923296472926 0.1729948013469259 -0.3842373362126684 28 28 24
0.8431578144541572 0.16977022438224534 -0.382713652462614 19 19 13
0.8426274925179036 0.06773126845631086 -0.38309982486950667 187 190 191
0.8843386484496255 -0.0059619582750705955 -0.38054344449599325 35 38 37
0.9538285509982842 -0.0162891955865137 -0.3839607412945739 80 88 90
0.9404347773521184 -0.0365163333358843 -0.37999559131126165 27 30 29
0.9148933304971929 -0.03644826722055333 -0.378167911828472 28 31 30
0.878750619919544 -0.03711299263504586 -0.38220638794472156 25 28 26
0.9287490544996171 -0.054439351645239435 -0.3817027497929331 166 169 169
0.9165129495269119 -0.09683228877700867 -0.37732247960234244 22 28 28
0.9412368960865175 -0.0424883508542042 -0.3810233773864333 185 188 189
0.9473849537715127 -0.06828860399757211 -0.38142888361514443 27 35 34
1.0999092235345163 0.10243373855151557 -0.382502961172143 99 93 96
1.083040261924486 0.1017266742063789 -0.3826148463021199 91 90 92
1.0949082681583067 0.09722268365957747 -0.3815435983438809 108 107 107
1.0919190122892861 0.09433386851734014 -0.38225692584806015 107 106 106
1.085478411405588 0.09001630705083365 -0.3807949806407807 169 174 174
1.0966576703373718 0.0895039321149984 -0.3800105778362834 163 166 165
1.0899883728711164 0.08829439972849243 -0.38141646492100845 169 169 169
1.094477624583969 0.08811537153232922 -0.38089669571705564 91 91 93
1.0811470204828346 0.08780313819567429 -0.3826883463544098 160 165 166
1.0899709897199485 0.08531033353344071 -0.381330213700092 166 169 169
0.8844100990489306 0.08163989009304967 -0.38307041784335455 29 32 35
1.0962709216895024 0.08097805051086542 -0.38139614579395387 107 106 107
1.0962709216895024 0.08097805051086542 -0.38139614579395387 107 106 107
1.096445113843842 0.08078206280210061 -0.3843778573041161 172 177 177
1.0787427254900488 0.08005763580450097 -0.38241829816910206 98 99 95
1.089874153717905 0.07610858036966826 -0.37859250665813526 107 107 111
1.0933877918126087 0.07624063038971414 -0.3801021257987756 165 170 170
1.0801705104559587 0.07523191800936968 -0.38142967048846604 157 165 164
1.086732017888327 0.07290338205613298 -0.3825355909469141 109 109 112
1.0925433038023893 0.07068266798727788 -0.3813758040538004 112 112 116
1.086837460619375 0.07062771272560658 -0.38093461221406405 170 175 177
1.0902873482913635 0.07088873423379052 -0.3829709412465715 166 169 170
1.10062345805785 0.06870728964906393 -0.38241653790012364 164 166 164
1.0943654597153114 0.06814489816507714 -0.3834192855891836 128 129 131
1.0931231930799805 0.06403358527748505 -0.37870377455167004 158 163 162
1.0978142656246654 0.06437974127084561 -0.38193489208202624 111 114 114
1.0825927052039155 0.06336753796740695 -0.38331283468839633 149 153 152
1.0942434793202254 0.0630777003286577 -0.3826669969680825 109 109 112
1.0942434793202254 0.0630777003286577 -0.3826669969680825 109 109 112
1.0901853895621971 0.06254189289170815 -0.3822070819852606 153 159 159
1.098733438440373 0.05952460379119054 -0.38204239452638666 109 108 110
1.098733438440373 0.05952460379119054 -0.38204239452638666 109 108 110
1.0932358506600035 0.057689040641776476 -0.3803037142069196 135 138 139
1.087624509469563 0.0560506604184999 -0.3818905908063799 111 112 112
1.0999505993886174 0.055153638106456654 -0.38078336227060233 163 166 160
1.0933040291393343 0.05395369793312155 -0.38276019424295576 163 167 167
0.8838581469097914 0.055743926810994514 -0.37954487802116826 25 31 31
1.096872117081324 0.05202989817018004 -0.3815325703719994 165 165 167
1.0944001689731784 0.050052832518514875 -0.38116488241268937 96 95 100
1.08912832998453 0.05006685061687715 -0.38171307395718657 157 163 161
1.0838823684788501 0.04899523338788407 -0.38168217928068476 98 97 99
1.092778942123007 0.048517049921199214 -0.3807395289197253 159 159 162
0.9403891220836054 0.050534245710995636 -0.3805964970721942 29 32 31
0.9403891220836054 0.050534245710995636 -0.3805964970721942 29 32 31
1.0760499051108143 0.04609872945549713 -0.38378996607727295 148 156 155
1.083591051102795 0.044847806029483385 -0.38119576536885097 87 87 91
1.0891979872904214 0.044577795689544036 -0.38359061063838473 100 104 107
1.0841120858554987 0.043347902096444624 -0.3792977215869813 156 162 162
1.0903502926039275 0.04178838474238108 -0.38284182901436536 152 160 159
1.0940889996094938 0.03999195268197157 -0.38219598090236495 156 162 162
1.087555269634998 0.03913949819853513 -0.3835058857023546 163 170 168
1.0934514671043225 0.033954405648685085 -0.3808954909106669 163 166 169
1.0955913766072334 0.03380615815145238 -0.38148157726915094 101 102 106
1.0955913766072334 0.03380615815145238 -0.38148157726915094 101 102 106
1.0833895648596528 0.03085243750166135 -0.37965733358760906 99 99 101
1.0863702586487178 0.028569950847620373 -0.38135058128388216 166 169 167
1.0863702586487178 0.028569950847620373 -0.38135058128388216 166 169 167
1.0827941080187216 0.022435765449402154 -0.3864552809796557 104 107 110
1.0860291238766255 0.021670598593195468 -0.38067970046641053 148 154 154
1.079576014937607 0.020335360800895763 -0.38602780488274085 146 152 152
1.076516303420077 0.01882467375950004 -0.38293081538673013 147 153 153
1.0964364869098295 0.014085951613983965 -0.3826629602095594 153 153 154
1.0816618418642054 0.014582209284400975 -0.3834940111302607 84 87 88
1.0816618418642054 0.014582209284400975 -0.3834940111302607 84 87 88
1.0901988440845827 0.013124173701101537 -0.3817479397520629 102 101 104
1.0916242286193576 0.00938044745234833 -0.38087592740078197 162 165 165
1.0859872827425046 0.00883538884203807 -0.3826511041582448 102 101 103
1.0850710973049524 0.007868309832285866 -0.3848676737010797 149 152 153
1.0928884318679797 0.00718383743558288 -0.38502369604891207 92 90 92
1.093695075002169 0.004293772377177099 -0.382772118139942 161 165 164
1.0836712822170782 0.004106255047118979 -0.38284861252890773 146 152 150
1.0845339280981745 0.0032192527565456535 -0.38071697113036634 89 85 88
1.0877331136703987 0.002026743752125652 -0.38284190858939293 160 162 161
1.0852401660243165 0.001300632279036534 -0.38159869136533675 93 89 92
1.0852401660243165 0.001300632279036534 -0.38159869136533675 93 89 92
1.092496108419047 -0.0007989199436677642 -0.38364305196614834 107 106 109
0.9887873841431728 0.001272202150987775 -0.3801374304083062 171 177 177
0.9716536658495467 -0.0052188721972112485 -0.37983429564870197 30 36 34
0.916037393681765 -0.011558239501399526 -0.3822407402134691 32 35 37
0.9538796517260718 -0.029931911015751256 -0.38113652014432253 163 171 170
0.9599858894441056 -0.0556786630233195 -0.38262183401467703 24 30 28
0.9363443909294452 -0.06193118082706453 -0.3818694618314278 29 32 31
0.9212084968787296 -0.06348166419247545 -0.3827291957733228 32 31 33
0.9212084968787296 -0.06348166419247545 -0.3827291957733228 32 31 33
1.0031821469051645 -0.07446048003655922 -0.38063462814863197 34 37 38
0.9412083945199301 -0.07367309780910844 -0.3813201445779168 29 29 32
0.857107015078698 -0.06510722314979259 -0.38383206235528633 32 35 37
0.9808588677808304 -0.09943382328323876 -0.3834318805854569 34 40 40
0.941513952954811 -0.09946795112643254 -0.38377131839404754 32 32 33
0.9175614347473348 -0.09991806468048985 -0.38501183148082607 29 32 31
