# 3D point list with one line of data per point:
#   POINT3D_ID, X, Y, Z, R, G, B, ERROR, TRACK[] as (IMAGE_ID, POINT2D_IDX)
# Number of points: 435
37 1.1173191847074526 0.036763572598776495 -0.3981401090427125 106 108 108 0.4288573264570678 2 1223 8 1052
38 1.0913587189519833 -0.01100185064920045 -0.3965821397634766 149 155 155 0.3993899105441358 2 1495 8 1312
39 1.092056155989427 0.05123191072568203 -0.39503297387393205 129 137 136 0.046306268813981644 2 1145 9 852
40 1.0967208065469376 0.01947275592351016 -0.39183740218364776 139 145 145 0.005942657285183699 2 1327 9 1056
41 1.0967208065469376 0.01947275592351016 -0.39183740218364776 139 145 145 0.005942657285183699 2 1328 9 1057
42 0.8653044099137581 0.06809653101879762 -0.38835548887770854 185 192 193 0.5692942187760284 2 953 10 348
43 0.8348138633959767 0.01337100672860268 -0.386712616146856 180 180 186 0.26119989812472005 2 1372 10 643
44 0.8333751389646915 0.06557687283579712 -0.38515904719375377 190 190 186 0.09207245502999865 2 952 11 748
45 0.8305624862421893 -0.02028110082034634 -0.3811111832191434 132 135 136 0.22041175527655407 2 1615 11 1952
46 0.8430047557401177 0.0670516837535318 -0.3855644594228683 193 193 193 0.27881118574481834 2 939 12 233
47 1.0801432788992118 0.03083205149618604 -0.38698916879949635 145 147 147 0.0878467470217269 2 1256 12 536
48 0.9213194062697161 -0.0012831664892480295 -0.38370363343727465 29 35 35 0.43086194625078283 2 1468 12 633
49 1.0751713161197558 -0.009729082070851857 -0.38632675627109475 146 149 150 0.16288326435703454 2 1490 12 707
50 1.005291407224387 -0.1533638285320505 -0.37997744677854467 31 32 28 0.40384758832429896 2 1977 18 1094
51 0.8324239237051921 -0.03833877217525171 -0.3870018803985733 95 96 100 0.7050289433338063 2 1760 26 1163 28 1391
52 1.0789386124379758 0.10216028342701555 -0.3811903538209568 151 154 153 0.957317301220512 2 813 30 702
53 1.0794150656276624 0.06321383275454164 -0.3885223088991121 118 118 120 0.06868638310465168 3 1228 6 1122
54 0.9712162354470775 -0.0675606593837374 -0.3789739699442018 32 38 38 0.562538329869592 3 1714 6 1965 28 1476 30 1734
55 1.079138239700057 0.11273687375515284 -0.38343333380428135 118 118 120 1.0745619652774387 3 1004 7 613 30 653
56 1.084832091402774 0.05457941432402635 -0.3929554327356343 153 159 159 0.04841319524047411 3 1254 9 817
57 0.9258919305593496 -0.05481431049683826 -0.3796497159552817 191 194 195 0.5682142178971527 3 1681 11 2444 31 2013
58 0.8340979856019735 0.06747816659842568 -0.38756436315588577 177 180 181 0.29558211137480844 3 1177 26 543 28 656 29 626
59 0.8341223785467267 0.0636381093664465 -0.3874233044282467 181 183 182 0.179924745222504 3 1206 26 560 29 647
60 0.9554109440204243 0.04354124593334425 -0.38152077826328895 179 185 185 0.04445526583025553 3 1299 26 873
61 0.9588808634729619 0.037395625146682106 -0.382034412135178 53 61 62 0.07498691879251258 3 1320 26 912
62 0.8333493312629289 0.03811724051455389 -0.38753112925247946 117 117 117 0.12248776968306506 3 1322 26 719
63 0.8314561394907779 -0.03739213740714428 -0.3854351600296426 169 176 179 0.07245811644510762 3 1649 26 1161
64 0.9421711710512062 0.08879278371544502 -0.38447890414611086 38 44 44 0.19618619060818568 3 1066 28 515 29 534
65 0.9109749273837011 0.019610270549363543 -0.38510357872035456 28 31 32 0.2550624343926647 3 1401 28 1028 29 820
66 0.9162492912546393 -0.037237662237893446 -0.3827714023257971 28 34 34 0.249579218444285 3 1619 28 1348 25 1969
67 0.8139604469116583 0.17415602574461614 -0.3912764512311237 21 21 17 0.1662822243350233 3 393 29 150
68 0.8176894682265027 0.17355292336180328 -0.39022374334986815 20 20 16 0.4913868728310923 3 408 29 152 30 237
69 0.8771926830537027 0.11235885042864246 -0.38518927230000893 29 32 31 0.40904637823345147 3 967 29 447 27 284
70 0.9105480834795544 0.08225668700320898 -0.3849392190914133 30 36 36 0.01616466106641591 3 1093 29 551
71 0.8331540921023399 0.02514584294007154 -0.38741256057023205 138 137 137 0.23553062883633094 3 1387 29 807
72 0.9771712744724583 0.08762379356018016 -0.37882634230912904 33 41 38 0.11769261289657808 3 1076 30 784
73 0.8309158867237594 0.08091000585509817 -0.38385498246456623 139 140 144 0.06232189135048843 3 1082 30 833
74 0.9261431960857911 -0.0015579844810604975 -0.3805582518830283 29 28 35 0.03511531817269875 3 1494 30 1404
75 0.9721343592880826 -0.005224578734780162 -0.3811055765518904 30 36 34 0.4199432319066227 3 1501 30 1413 31 1570
76 0.966984950608499 -0.015998760567162488 -0.38018950750206804 37 44 45 0.2841040802966112 3 1540 30 1482 31 1651
77 0.8303192691354206 -0.009126612037626483 -0.3834043050391873 193 193 195 0.4599855195209897 3 1546 30 1503 31 1885
78 0.9896701948978226 -0.046383874582336906 -0.38067068185736136 49 56 60 1.2617864086476294 3 1634 31 1829 6 1807 8 1529
79 1.1167136690172592 0.09884632155025032 -0.39808172818412396 101 106 102 1.11890158230422 4 1423 7 760
80 1.092561035799473 0.09290992354471098 -0.39795427485932905 133 141 141 1.0651126115662144 4 1457 7 785
81 1.0863015765305135 0.013571760154264404 -0.3831823810026651 94 97 100 1.5513033119379538 4 1967 7 1273 31 1317
82 0.9076227703710208 -0.03700712500209869 -0.37674037769174856 179 182 182 0.4946957572611682 4 2367 7 1573
83 0.9629254224766722 -0.05645822995000363 -0.38746272864600534 37 47 45 1.3558803095328327 4 2445 7 1668 9 1470
84 1.113172879373418 0.09775090757107188 -0.4092156606296657 152 160 159 1.0035584609125592 4 1441 8 659
85 1.119724027551779 0.08869566908073884 -0.4074408989294788 136 144 141 0.9983409177337174 4 1517 8 741
86 1.115912116832579 0.08078130031327524 -0.4029973037850714 138 144 144 0.6641372158536941 4 1560 8 796
87 1.090478790291279 0.05058503129517676 -0.39918185332923856 161 170 169 0.15804841253855423 4 1749 8 976
88 1.1056923602178388 0.046593077906501405 -0.40099435309097514 100 106 105 0.2208549533415012 4 1767 8 1002
89 1.1146484213554038 0.04193525266146932 -0.40419856529364356 135 141 140 0.4063856693062563 4 1792 8 1027
90 1.0998653665247422 0.02088456858139036 -0.40416009882213133 106 110 108 0.9464735261199179 4 1918 8 1130
91 1.1100781505064843 0.0071840310940339885 -0.40419879171850603 84 87 88 1.3846486769427506 4 2000 8 1235
92 0.8978107832457289 0.006543930160168075 -0.3830565954632475 20 26 24 0.3729565719357678 4 2056 8 1155
93 1.1123703004404795 0.06801945499985246 -0.39899559464415296 123 131 130 0.3423466281286831 4 1651 9 751
94 1.0904444452376307 0.06671767523594296 -0.3975430257347646 160 166 164 0.23862231673188689 4 1653 9 731
95 0.8258516519831537 0.0939781062881785 -0.3467986455947228 199 200 204 0.556344332711951 4 1230 10 113
96 0.8330305739588741 0.0377094554844 -0.385874436634794 117 117 117 0.4500009550114963 4 1813 26 718
97 0.8347997985056838 0.010193513567904247 -0.38550881479139754 172 180 181 0.428416100206334 4 2048 26 884
98 0.8321621466334966 0.00394822131878652 -0.3829726748419281 130 133 134 0.8885908285316202 4 2109 30 1407
99 0.9541366254055597 -0.032854437101691385 -0.3821187456473423 28 27 34 0.513834984860855 4 2318 30 1579 31 1805
100 0.9001283970883432 -0.08140042575603883 -0.38536571228207583 178 178 178 0.5041068888823484 4 2577 30 1801 31 2130
101 1.0938696368713239 0.017095144022563104 -0.385568812061547 85 88 89 0.42639869634745353 4 1938 31 1287
102 0.8743680726115136 0.01508174931752964 -0.3794993851195661 32 33 34 0.05052842207592025 4 1993 31 1584
103 0.8743680726115136 0.01508174931752964 -0.3794993851195661 32 33 34 0.05052842207592025 4 1994 31 1585
104 0.8326911053298613 -0.014757386614619266 -0.38073405560600077 190 190 192 0.6569867503249109 4 2258 31 1924
105 0.9002184414852432 -0.08141538106174456 -0.38596148750840786 178 178 178 0.18711730608393715 4 2578 31 2131
106 0.8538296602725374 0.08892181392953305 -0.38047073459409725 35 38 37 0.4966618753702859 5 1333 6 702
107 1.0870273512379458 0.06709858619559078 -0.3852389862501378 99 101 99 0.08076141079685199 5 1583 6 1099
108 1.0830502428855797 0.05238476855162734 -0.38061774986560065 103 103 102 0.11195247826304608 5 1665 6 1176
109 1.0879509634490312 0.04621699726450151 -0.38033034519081527 133 142 142 0.12550355585565168 5 1710 6 1210
110 1.08920895859952 0.034872946587755124 -0.3818508062826871 104 105 108 0.04193845249280326 5 1773 6 1275
111 0.9096843466806228 -0.04242260450492816 -0.38056295094548687 32 31 30 0.1309232874508471 5 2306 6 1816
112 1.098665857850636 0.08212385723348814 -0.3884786215196792 112 115 114 0.00202082300735374 5 1480 7 866
113 1.0819402375346734 0.02719846126789195 -0.3809263967020553 137 143 144 0.4543826495966567 5 1821 7 1178 30 1162 31 1218
114 0.9930767100200575 -0.15817075089114097 -0.38185967386985625 23 24 24 0.2868131118665678 5 2558 7 2060
115 1.1066194607131261 0.11492703545197516 -0.39229489576108595 132 140 139 0.13755165539209793 5 1294 8 533
116 1.0797698406411158 0.09595111661048313 -0.39205623758136177 191 195 190 0.128997188278493 5 1383 8 613
117 1.09997640732716 0.0768125143266419 -0.38949406055764413 112 117 118 0.12306420913828515 5 1516 8 789
118 1.1087936968659173 0.06069819501032425 -0.3901257540462466 127 131 126 0.06079015776071263 5 1620 8 914
119 0.8889633662571743 0.04531293670519415 -0.381239516109752 29 32 35 0.3480903627479428 5 1708 8 837 31 1373
120 1.1121021431685465 0.05776962016253783 -0.3933444907502852 125 133 131 0.5395211382222747 5 1646 9 823 6 1159
121 0.8125755806141286 0.1699626729286708 -0.387231350493907 34 35 29 0.10346004950327832 5 475 30 249
122 0.8454861521305859 0.17108855078006519 -0.38717087330653654 30 30 24 0.32581164529533974 5 559 30 279
123 0.8780688183416295 0.08710464361441375 -0.38102292025159545 27 28 24 0.30547287066193013 5 1354 30 770
124 0.8308773200269901 0.08071140790362653 -0.3831701268616735 139 140 144 0.07817646641061489 5 1386 30 834
125 0.832108585334369 0.03889305977129209 -0.38347394631445575 182 184 187 0.01666757094753504 5 1753 30 1138
126 0.8299830314996423 0.02425502137781876 -0.38427093712606697 178 184 186 0.04268977295586523 5 1879 30 1251
127 0.9152494667817159 0.05014809172769626 -0.3801100748156216 29 35 37 0.10726630778194383 5 1677 31 1291
128 0.9808955678369492 -0.15108203964143266 -0.3822006245959993 30 31 31 0.19393515436124453 5 2537 31 2178
129 1.0050495610576085 0.08130103638309534 -0.3919322954737448 62 64 69 0.4123561331089371 6 975 8 645
130 1.1131630469326823 0.08420917442257815 -0.40114639761889515 138 147 143 0.06391833146787013 6 1036 9 643
131 0.9822879316561995 0.020349829029444755 -0.3864632267655721 195 203 202 0.3713666146753488 6 1361 9 985
132 0.8575253785739967 -0.0009914817947429386 -0.3819387189184411 35 38 41 0.4912573922063538 6 1513 9 1047
133 1.0997054671498274 -0.010219101322661205 -0.39939856680053315 153 161 160 0.438229886630993 6 1555 9 1220
134 1.1117153864712732 -0.012137945701467461 -0.3997411097048445 132 138 138 0.41647730666655786 6 1561 9 1236
135 1.0848799474764685 0.026690582867011113 -0.3818831585024508 104 107 110 0.7645752915341755 6 1330 30 1164 31 1221
136 0.8844609018044117 -0.011792339560997124 -0.3820863534958923 187 190 191 0.4782012897630501 6 1594 30 1495 31 1782
137 0.9814151106124837 -0.06450483212057445 -0.37895839916628465 41 45 51 0.48944235425183 6 1935 30 1718 27 1235 31 1979
138 0.9504872035910031 0.057946769701591586 -0.38663945352997375 42 49 50 0.4237768614518946 7 923 9 629
139 0.8538128832298384 0.02676730916210746 -0.3815626299133258 37 40 41 0.4360576801389 7 1075 9 772 31 1548
140 0.9702945488679793 0.033677796078727264 -0.3886108720372164 190 200 203 0.209742334142432 7 1096 9 872
141 1.1086212717276323 -0.0003685544871623125 -0.40270699848920266 154 162 159 0.04605522463327511 7 1359 9 1177
142 0.8863309811357144 -0.011219823972162457 -0.3877146321601942 192 194 200 0.21737420635668128 7 1387 9 1157
143 1.1127794316850181 -0.01624586654287414 -0.4041617746798543 145 151 151 0.02867592658969697 7 1431 9 1266
144 0.8617400128103786 0.07582331930563105 -0.3863617712139697 50 34 34 0.46821525666441 7 632 11 658
145 0.9633795355772714 0.031422434331998594 -0.37682256874464976 202 202 204 0.08082390892835499 7 1093 11 1301
146 0.9502293761266338 0.029467079604630738 -0.37817997434956985 49 55 57 0.3156340492087398 7 1108 11 1328
147 0.8835452681215783 0.04963258523713208 -0.3792669797492515 195 196 198 0.18972073235876724 7 920 31 1345
148 1.0810366654526269 0.04010201781993808 -0.3807412995565665 132 138 138 1.517015021153876 7 1106 31 1132 30 1091
149 0.9532080414357459 -0.022921298988772616 -0.3803405982064828 166 173 170 0.44898962009625665 7 1479 31 1734 29 969
150 0.9809616645550367 -0.045960883221834774 -0.378173209560293 42 45 51 0.5464961898616888 7 1606 31 1841
151 0.9597695448816084 0.03357851949187982 -0.37207781160538356 65 64 66 0.22159448792515762 8 978 11 1248
152 0.8852354797466362 0.01949899679730483 -0.38400656431096075 35 37 43 0.2550279253776127 8 1045 11 1425
153 0.9607441665568944 -0.09489965560156906 -0.36570060504275903 61 64 67 0.8644539646212629 8 1876 11 2891
154 0.9650877876059757 0.09889360711999404 -0.37836934835334074 32 36 37 0.5493610008992001 8 479 12 153
155 0.8800623025996618 0.05805659860384402 -0.3877778147820867 184 187 188 0.697111534880103 8 698 12 326
156 0.9474661686934304 -0.006443064613518292 -0.38202530468985607 34 42 41 0.15497445697250273 8 1263 12 663
157 0.9974979715639386 -0.02474544585000726 -0.38813579439187046 40 48 49 0.03493524676049734 10 900 13 1205
158 0.8291238751910608 0.11724820988766146 -0.3833367921480807 189 188 188 0.49394366476290485 11 201 13 535 16 203
159 0.888414728822265 0.030952710174701466 -0.3831084283344391 41 33 26 1.1549995692540367 11 1268 14 677
160 0.8298818383371012 0.03641547720065507 -0.3835883628165917 166 173 174 0.26897263415879996 12 400 13 863
161 0.9561177054582914 0.04384310092789908 -0.3847935624268953 184 188 189 1.3378053914003925 12 429 14 609
162 0.9561177054582914 0.04384310092789908 -0.3847935624268953 184 188 189 1.3378053914003925 12 432 14 612
163 0.8444797298690574 0.007539697697235166 -0.3902926501371176 168 174 174 0.311539120427802 12 559 14 809
164 1.0009545107129016 0.08971001903788203 -0.3805188714432317 75 86 84 0.217839672245939 13 665 14 362
165 0.8318763422444185 0.06296875217587641 -0.3843149631116954 116 113 111 0.4804226559959516 13 710 14 496 25 1032
166 0.832938563246651 0.047991428224055166 -0.3847175648040773 173 175 174 0.13473664144432687 13 796 14 588
167 0.9998710115093509 0.06055073453188525 -0.38179257450136306 70 78 81 0.10017689623106082 13 803 14 533
168 0.8337878054231243 0.03391260857540649 -0.38247243943845427 174 180 180 0.6219119322327413 13 880 14 658
169 0.9861847215176669 -0.04717469005551297 -0.3825320713084346 45 50 49 0.35085582053586956 13 1308 14 1033
170 0.9602128544616135 -0.08805691615800064 -0.3805231568060327 178 181 180 0.329007788051072 13 1467 14 1164 22 1454
171 0.8316234494976311 0.05796173922146394 -0.3836597532900704 184 184 186 0.1818630034162023 13 739 15 766
172 0.8328846188807404 0.014783865450747115 -0.3831191096238979 114 117 116 0.13096758005162235 13 995 15 1007 16 766 25 1363
173 0.8326466752252012 -0.024988902363951248 -0.3840360021834482 160 160 160 0.05949328500487198 13 1224 15 1230
174 0.8292939046093791 0.08755273048034305 -0.3837010810821442 186 189 189 0.08683629326933423 13 594 16 304
175 0.8307481132823753 0.08357109511055556 -0.38388809437237303 186 187 190 0.2796391168951202 13 603 16 336 25 864 15 590
176 0.8311078951236104 0.06036846183269767 -0.38419820311168273 176 176 178 0.4363959642376595 13 728 16 485 20 864
177 0.8305065711086838 0.03819083569640347 -0.38392011182184943 124 121 123 0.015772882198224987 13 856 16 621
178 0.9648015053692849 0.04589315149718479 -0.3817130363301307 40 48 47 0.32319072583565933 13 861 16 615
179 0.995808619170364 0.01824770035471135 -0.3809851561984993 52 62 65 0.16824273703080372 13 1003 16 758
180 0.9833602097220636 0.014155717866215722 -0.3832986270656686 48 61 60 0.15238356847884513 13 1019 16 774
181 0.8313582556406073 -0.01793284322222686 -0.38230638749140755 106 106 108 0.7402549351967643 13 1177 16 962 19 644
182 0.8311489210528669 -0.02690037823037136 -0.38380949166015604 164 167 168 0.3565542846631663 13 1233 16 1005
183 0.9261530047710723 -0.06145457252366745 -0.3812731020685155 149 155 149 0.13616144805883165 13 1375 16 1133
184 0.9590014951051768 -0.0874073877716219 -0.38297411616470967 180 184 179 0.19190034693763022 13 1462 16 1186
185 0.8328937809497736 0.03079490492982098 -0.3848619794140852 127 127 127 0.02017888600353047 13 898 18 403
186 0.8784815250554282 -0.012383406337253438 -0.3868302617863102 12 18 16 0.17067137444012556 13 1141 18 708
187 0.9997746521910194 -0.04625876933365211 -0.3811999445329203 51 50 57 0.47304721692380336 13 1305 18 904
188 0.9760964507872878 -0.15493349140451082 -0.3756317972006935 22 28 26 0.5022814037584772 13 1679 18 1114
189 0.9782595845652252 -0.1575923959758425 -0.37730688764714837 25 29 24 0.6490875596880515 13 1694 18 1120 22 1581
190 0.830970951667305 0.07971054897337873 -0.385301395390018 175 175 171 0.26611974066372474 13 624 19 119 16 362
191 0.909087685663931 0.019627901368970867 -0.3817187741952139 15 18 17 0.13809994141447826 13 981 19 452
192 0.9711981890689991 -0.007736461841584243 -0.37736200982436846 55 58 57 0.45332930917795006 13 1115 19 613
193 0.9711981890689991 -0.007736461841584243 -0.37736200982436846 55 58 57 0.45332930917795006 13 1116 19 614
194 0.8329504390535518 -0.024545848441178245 -0.38127437857858776 110 116 118 0.18972343027403216 13 1222 19 683
195 0.8294083692506818 -0.025108415290581748 -0.37972726747385477 155 166 166 0.20346910369087562 13 1225 19 684
196 0.8774014099193388 0.08600798238679692 -0.38134008594281604 30 31 27 0.07988186909127537 13 617 22 514
197 0.9141125531965744 -0.03683706120733735 -0.37937262469905203 27 31 26 0.0519491454923616 13 1282 22 1308
198 0.9914348115985756 -0.14294204409258335 -0.37689253333770867 40 28 37 0.21981300457264705 13 1545 22 1511
199 1.0001127193700763 -0.1614112427574617 -0.3818983184622108 15 14 16 0.37351687486814916 13 1675 22 1565
200 0.8307387126153392 0.1336986353337927 -0.38592320524783186 129 122 122 0.8902291814328074 13 505 25 468 16 138 20 504
201 0.8307869865775966 0.1103907561123085 -0.38339675949067337 179 176 172 0.519524582116971 13 541 25 660
202 0.8305799805492982 0.05313473895329026 -0.3838548685025918 120 122 121 0.6488657176557073 13 771 25 1098 28 757
203 0.8826554969705128 0.024273777128821276 -0.37995011506516446 167 175 172 0.13469352163774787 13 951 25 1462
204 0.9384599812777475 0.024349121649394578 -0.3780069976647556 47 55 54 0.34986397153108434 13 967 25 1625
205 0.8310839613130738 0.005154887339568972 -0.38155956223051934 163 170 173 0.1834428070022393 13 1045 25 1416
206 0.974665995413258 -0.14407601481948643 -0.3716930655177526 20 23 22 0.23957099138231527 13 1576 25 2307
207 0.9961780635358624 -0.15291036196458124 -0.37060799782669596 28 30 29 0.12653359022465366 13 1645 25 2357
208 0.8328705069691525 0.1129070697859082 -0.38796636461403855 152 146 148 0.17808571517087304 14 221 16 217
209 0.8298004419258886 0.07919410338893908 -0.38559905653221976 188 189 191 0.18117120010841556 14 381 16 364
210 0.8330339664271039 0.0725657426087229 -0.3856366243567976 177 173 174 0.16062053268241946 14 428 16 408
211 0.8316811330160407 0.06285273891941869 -0.38497796490346103 171 170 174 0.046006882844350644 14 500 16 476
212 0.8314746702097336 0.047446412063888374 -0.38575432526878844 112 110 112 0.13241781843382727 14 591 16 569
213 0.8314716435989101 0.03286619506164177 -0.38409815046518425 189 189 189 0.20762385496124108 14 667 16 653 17 619 18 389
214 0.8316177223679827 0.020148500767454013 -0.38589236657253445 178 179 183 0.14666656244430026 14 748 16 742
215 0.908398909040746 -0.004970886993104981 -0.3832681625278436 20 26 22 0.06597388827536921 14 866 16 879
216 0.8790956902880794 -0.011824011558310185 -0.3863815167589832 21 24 21 0.23566147971252946 14 905 16 914
217 0.8543548183608556 -0.013435618182611702 -0.388564809939127 21 25 22 0.1964207725488976 14 912 16 926
218 0.8308299956974559 -0.01400714229339312 -0.3853693077958607 121 122 126 0.6559833949693925 14 925 16 933 17 908
219 0.8331031314150371 -0.02321232389326497 -0.38585451441006524 107 106 108 0.017628808007694063 14 976 16 981
220 0.8331031314150371 -0.02321232389326497 -0.38585451441006524 107 106 108 0.017628808007694063 14 977 16 982
221 0.8304193244646773 -0.029348360450032734 -0.3844727180466896 143 142 143 0.765433139065483 14 1001 16 1021 17 1013 25 1670 28 1337
222 0.9733629877824633 -0.042759283602886416 -0.3836299587376947 31 33 39 0.07508348991996663 14 1008 16 1040
223 0.9483145419967719 -0.04311218894508971 -0.38436556510460007 25 31 33 0.42259468173295917 14 1024 16 1053
224 0.9378660654284179 -0.0600471089072969 -0.38601413862032136 19 25 22 0.24329451294917961 14 1082 16 1119
225 0.9103272711907621 -0.06911407631357813 -0.3852079316309748 18 22 17 0.42348992016837234 14 1125 16 1157
226 0.8307413307496704 0.09557756068703728 -0.38666749525050265 172 176 175 0.1652128428545341 14 283 17 289
227 0.8307413307496704 0.09557756068703728 -0.38666749525050265 172 176 175 0.1652128428545341 14 284 17 290
228 0.8313613481689268 0.018383152088238826 -0.3843677079269995 171 174 173 0.3077020633858895 14 756 17 711
229 0.8306641665981445 0.01001135789922972 -0.38460787997979545 122 123 121 0.050722720061169894 14 797 17 767
230 0.8783429406089786 -0.005975420186883333 -0.384118577546496 160 166 164 0.3754550174547286 14 881 17 864
231 0.8330499302122406 -0.013880792729702402 -0.3846495977472326 111 110 110 0.06177459705462859 14 924 17 907
232 0.8843453612498906 0.08280674347435163 -0.3880139550469896 34 34 36 0.4477161268881936 14 379 22 562
233 0.910919316465295 0.019533290468802457 -0.38804140767436635 33 33 33 0.39609677693133144 14 741 23 1749
234 0.9179733589525887 -0.006678621530193237 -0.38932863884656854 186 189 188 0.4902303742432267 14 868 23 1938
235 0.9108560175020834 -0.03834467532943355 -0.38718521517618737 184 187 186 0.5672156966636568 14 1009 23 2081
236 0.9166810084802456 -0.0437484265321389 -0.38615845908763263 182 182 182 0.6276966342938932 14 1039 23 2091
237 0.9166810084802456 -0.0437484265321389 -0.38615845908763263 182 182 182 0.6276966342938932 14 1040 23 2090
238 0.9878730865096196 -0.06310687046265667 -0.3866916931009792 199 199 201 1.4458965398555683 14 1073 23 2100
239 0.8312972941643684 0.09676845540069856 -0.3859734227557058 128 125 120 0.06086942220144006 15 532 16 267
240 0.8326920138284662 0.09007553854812961 -0.3843343173725905 189 189 191 0.011673575263567148 15 558 16 291
241 0.830588842699885 0.08795176425133336 -0.3846729279634874 181 184 185 0.1443052498825598 15 572 16 306
242 0.8521958364817195 0.08681760105243441 -0.3805927919010097 25 29 28 0.11955050174538648 15 578 16 325
243 0.832243662501212 0.08392475821581845 -0.38509946211003665 181 177 178 0.09849381859315096 15 591 16 338
244 0.8295721351146542 0.08066006068058955 -0.38610281849592754 185 188 189 0.03563056009217092 15 618 16 360
245 0.8325331202250137 0.06635932673907363 -0.38308607764147184 186 185 187 0.08012467510969407 15 709 16 442
246 0.8305948076305821 0.05334801239400186 -0.38486003028500576 121 124 125 0.2371464761853362 15 792 16 529
247 0.9400215974159172 0.050587181887587054 -0.38214267618973796 32 38 36 0.27335236950879516 15 821 16 581
248 0.830670688487595 0.024425528078421438 -0.38289166765738764 115 116 117 0.06490648612874639 15 957 16 709
249 0.8307090343851145 0.024456475262719025 -0.3835894659839222 115 116 117 0.1722544037279928 15 958 16 710 20 1129
250 0.8321312482240362 0.005919149965256012 -0.3833777731285581 128 127 131 0.05520273812667848 15 1072 16 812
251 0.8348241714420946 -0.02343175071952127 -0.38433453168425036 166 166 166 0.1808612740039142 15 1222 16 984
252 0.8314023652738967 -0.03801955327927837 -0.3846607246115098 109 109 105 0.2640363775775867 15 1290 16 1071 17 1085
253 1.0732203400704239 0.07056393341640192 -0.3854526460608559 123 123 123 0.34348054720238846 15 751 17 564
254 0.8301470354043051 0.05935226481730288 -0.3847054731087942 141 141 144 0.39537654815238005 15 756 17 473 18 218
255 0.833678103229824 0.010352356788010737 -0.38283790423886543 172 175 176 0.03629676954616742 15 1035 17 761
256 0.8309476357860586 -0.009719946249493466 -0.3833955196200908 108 108 107 0.19731156468562677 15 1148 17 882 25 1520
257 0.8300290038508819 -0.012281728275997281 -0.38467349624031455 165 167 169 0.21525308259323397 15 1158 17 890 18 677
258 0.8325297523641423 -0.025113357068728113 -0.38432230354460245 170 176 178 0.06740109640582947 15 1232 17 978 16 994
259 0.8314841801190171 -0.025153638727770884 -0.38435540990091316 160 160 159 0.12879133705136167 15 1233 17 976 18 763
260 0.8597362976304619 0.011987403511715827 -0.38420909890175337 167 173 173 0.14880534154119715 15 1021 18 549
261 0.8331636454282424 0.012811255480434375 -0.3841377247713184 167 164 165 0.04452885060463558 15 1023 18 508
262 0.8314880265411445 -0.025175292226622854 -0.3844027118811669 160 160 159 0.08620259567633148 15 1234 18 764
263 0.8943750278156373 0.03563174222444376 -0.38186214862648704 172 178 178 0.2363172618916266 15 890 22 878 19 350
264 0.9154236959116971 -0.006248894179882937 -0.38353048766809894 159 168 165 0.09718610416548207 15 1103 22 1171
265 0.9538588621841145 -0.033222317208773 -0.38311221671808054 35 38 46 0.2950110877373233 15 1214 22 1277
266 0.9109075041543439 -0.06995944419625844 -0.38719322063309436 21 21 21 0.5172402054470236 15 1359 22 1428
267 0.8755531731804609 -0.06589352902844117 -0.38553690409282737 21 21 21 0.3626478216773848 15 1364 22 1438 24 1310
268 0.9550268687577691 -0.03391554256549163 -0.3854988493065178 44 44 57 0.18860172313198967 15 1215 23 2036
269 0.9072040516088649 -0.03501257033767658 -0.3861411523684594 32 31 31 0.03226220897706578 15 1243 23 2074
270 0.9096058225770618 -0.04299465340324308 -0.38357591582825884 28 27 27 0.10309352153204136 15 1275 23 2094
271 0.9852231838098122 -0.06696567102780787 -0.3873027124339613 41 44 47 0.156936431662293 15 1321 23 2113
272 0.981799587835484 -0.07601584760807108 -0.387062444893641 37 40 43 0.09600770145355794 15 1348 23 2137
273 0.8310402917287674 0.13943895775746856 -0.3890021671726498 193 189 190 0.026653841843667737 16 126 17 204
274 0.8318814330193643 0.1163511850432509 -0.387365763980196 191 189 191 0.018341030929935064 16 212 17 247
275 0.8310752679937267 0.10155739591922902 -0.38687438615259373 207 206 208 0.8349632830194814 16 238 17 275 19 61 21 492 25 748
276 0.9097332194716039 0.01987582397956678 -0.3834978599375768 21 24 23 0.07277048212969511 16 747 17 740
277 0.9534587449584873 -0.030075395436895434 -0.38176940569438805 176 184 183 0.15186811046415716 16 989 17 1016
278 0.8325669084815567 -0.025126778800586475 -0.3846950085952363 161 165 166 0.0598733785553678 16 993 17 977 18 765
279 0.9411462218901674 -0.07349289947166962 -0.3817615870933254 26 26 27 0.23445175437739 16 1160 17 1191
280 0.8955566322483278 -0.08217261291141885 -0.38384537527724 23 23 19 0.5078413627377674 16 1194 17 1224
281 0.828914429652418 0.07599776260910492 -0.3862521176417627 187 187 187 0.246296492507726 16 384 18 138 20 737
282 0.8314968802762719 0.036317926540901886 -0.3843328477293794 117 113 114 0.17280617464279496 16 637 18 362 17 605
283 0.8320141093203155 0.024591597876967266 -0.3843783603391715 116 112 115 0.0472593101406894 16 706 18 435
284 0.8316085199765703 0.06267984522893488 -0.38422655332316924 171 170 174 0.05598762469739437 16 475 19 192
285 0.8306361760018592 -0.03688607019668517 -0.38240895733079744 162 165 168 0.6688069633034569 16 1067 19 788 25 1745 28 1385
286 0.8311546449486926 0.06352074261960008 -0.38380613357280596 205 204 208 0.10186282855898686 16 461 20 849
287 0.8314411032479438 0.04637062882964355 -0.385194777133832 148 147 149 0.11171696561917709 16 574 20 941
288 0.9756846776918819 0.05095714951330672 -0.3792188136146138 54 62 61 0.44922607338339404 16 588 20 1267
289 0.9391596933073316 0.024786234998427123 -0.37953335789159554 53 61 61 0.11729665079054072 16 727 20 1398
290 0.8327100823016763 0.022546880051533234 -0.3832135369428821 169 170 170 0.21348821939205717 16 729 25 1318
291 0.8319133464506339 0.0022266952289029048 -0.38259903078545127 108 110 118 0.305605708244114 16 842 25 1434
292 0.8319133464506339 0.0022266952289029048 -0.38259903078545127 108 110 118 0.305605708244114 16 843 25 1435
293 0.8313040307363369 -0.009066318507010505 -0.381893192568026 164 167 166 0.39605664861186224 16 905 25 1516
294 0.8780000149985921 0.08671126285469062 -0.3835289592644529 27 27 27 0.03416093170900272 17 350 18 134
295 0.8317650851566847 0.07416457915749415 -0.38719259735184897 130 129 129 0.294249676205337 17 389 18 151
296 0.831215516461268 0.03760450861543007 -0.3855364819594367 195 195 197 0.13438852331043305 17 597 18 350
297 1.0828726490168186 0.04059421137119141 -0.38927967113530254 119 123 118 0.25698440164750425 17 699 18 529
298 1.072959771735016 0.03658708490980848 -0.382892177681391 120 126 124 0.2574860885709169 17 708 18 539
299 0.9406945586374631 0.025230834753574603 -0.38277370738951433 26 33 28 0.021486626652218538 17 714 18 506
300 0.8324941190432277 0.005222799278812815 -0.3849883347193707 132 129 126 0.062374125354195044 17 787 18 570
301 0.9896939890966403 -0.0010673295201633192 -0.3832031232411775 55 59 59 0.02210239270212073 17 859 18 686
302 1.0770208035204731 -0.006038041662438993 -0.38852515096621265 132 136 135 0.23389381580579324 17 892 18 742
303 0.9908220427593522 -0.02009374522882151 -0.38124131386314913 52 63 61 0.09315106521005008 17 953 18 777
304 1.0731612108271265 -0.0259955317378131 -0.3858559440280546 127 130 131 0.14204789984288116 17 992 18 829
305 1.0020700090355263 -0.036425350828187056 -0.38369139438025435 60 68 69 0.07520785273560496 17 1054 18 866
306 0.8309284775666413 -0.03486712556482866 -0.38526337780726605 174 180 179 0.10496403137670768 17 1057 18 818
307 0.8309211105484147 -0.03485846519737112 -0.3844549706401637 174 180 179 0.5003547304839417 17 1059 18 819 25 1729
308 0.98265309269932 -0.06482554816890504 -0.38224151020780256 41 49 49 0.0942784690783844 17 1161 18 983
309 0.9891881819989938 -0.15123155945362118 -0.3869979973939584 36 40 35 0.5062859019570146 17 1269 18 1085
310 1.0065084019218697 -0.15873743813641888 -0.38414614335878894 28 34 32 0.13116671548556394 17 1301 18 1109
311 0.9969262014832317 -0.16220320438657507 -0.387807011165626 13 20 14 0.07434987844448691 17 1321 18 1119
312 0.8329023232080375 0.090583316034072 -0.38581244132864423 198 197 199 0.2633302317077559 17 306 19 85
313 0.8312441465668082 0.06599016330338771 -0.3842512642974957 184 184 183 0.3146061717159296 17 429 19 181 20 835 25 1005
314 0.9083833816304521 0.055346246591971675 -0.3812473003795237 24 28 23 0.09093393663225048 17 541 19 274
315 0.8773442243233557 0.04933322421964064 -0.3819017108387441 25 25 27 0.3357684538472051 17 554 19 287
316 0.9383255217725518 0.024082142099209884 -0.3780049699498125 30 36 34 0.18494690546182793 17 718 19 432
317 0.9078807439340413 -0.037327742241288396 -0.37816163179913687 167 177 170 0.014099745118838358 17 1076 19 799
318 0.8318413022254405 0.07993627677680916 -0.38465346012531215 129 128 130 0.0081190146899129 17 342 20 711
319 0.8311846744521266 0.127573814336531 -0.3838287127891291 176 173 176 0.18490313782484605 17 227 25 514
320 0.829184512856115 0.07119952753495382 -0.3822601431476835 178 180 177 0.059759432519067714 17 391 25 953
321 0.8312832845998714 0.06715344492160503 -0.3837178269828029 171 170 171 0.12554105921574224 17 424 25 992
322 0.8305091541326012 0.060998237704036916 -0.38307097755050157 135 135 134 0.16671726838967474 17 459 25 1039
323 0.8853917999957746 -0.06789032797770442 -0.3832848836137425 21 24 23 0.15326440640391728 17 1181 25 2125
324 0.9732343236243308 -0.07216734869441821 -0.3730342641413153 29 37 38 0.252772957467027 17 1183 25 2275
325 0.8324073375552397 0.04230777586576334 -0.3846073424268004 145 144 149 0.1335368045885094 18 310 20 972
326 1.072026749488511 0.05125772989854385 -0.3812920955373967 124 127 128 1.0045176671947809 18 456 21 1163
327 1.0761006455408597 0.034025674967240516 -0.3821405885606925 109 109 111 1.2239218373132494 18 554 21 1311
328 0.8311377849786891 0.1393107284599939 -0.38907073275878323 203 203 207 0.28965418670544285 19 24 20 502
329 0.8323232282850069 0.10146456235375899 -0.38697226600728857 200 203 206 0.10036947267054243 19 62 20 552
330 0.8330458841367296 0.0805986606577742 -0.3847326700715052 200 200 202 0.08738676211705174 19 113 20 709
331 0.9516875916262101 -0.03004139165124842 -0.37825343908555675 200 200 202 0.11671969575514907 19 753 20 1818
332 0.8300400874077495 0.07237388469456288 -0.38471301013830106 187 187 189 0.292340258315665 19 142 21 652 24 279
333 0.9958142322624299 0.027267770762687164 -0.3765833739880413 70 73 74 1.0816872402407465 19 440 21 1275
334 0.9877484343200398 -0.0027784709119285495 -0.37809598919528986 68 74 74 0.002041597977416942 19 601 22 1088
335 0.8525094726829588 -0.07359889369081352 -0.38013262967288936 24 24 25 0.15503825365534132 19 947 22 1486
336 0.8323305367131462 0.07280353448334707 -0.38377883361437365 137 134 130 0.14478740350136307 19 138 25 957
337 0.8305597628965942 0.04499380795123972 -0.3822006765109469 157 160 161 0.12770496695033018 19 282 25 1168
338 0.8290827398461301 0.02075702994318158 -0.3816499262340138 170 174 173 0.12277306775096553 19 406 25 1313
339 0.830585592006183 0.008335812915356657 -0.3821345191798486 109 114 116 0.16149108595066666 19 479 25 1397
340 0.8305857851614968 0.000964201259760472 -0.3819983324098373 117 123 125 0.09614106003769002 19 527 25 1438
341 0.9443171636257686 -0.006429975682796688 -0.37792878848701117 42 49 49 0.20335624954970508 19 609 25 1872
342 0.9924759333225007 -0.012987125981206426 -0.3745617567260095 68 77 77 0.9215950598349963 19 646 25 2025
343 0.9513536851554979 -0.03265895757103945 -0.3778277820855702 45 44 46 0.4328948490311894 19 775 25 2064
344 0.9397090013590593 0.05048563353992097 -0.38158044164260374 36 39 38 0.7801778300416045 20 1201 22 783
345 0.8857909813269087 0.030229116401727353 -0.37551330461885307 122 111 102 0.16106785760152778 20 1221 22 921
346 0.9384588004544183 0.02461398728926701 -0.37830425991599237 36 40 36 0.5607598286965259 20 1399 22 938 25 1626
347 0.9448231356703974 -0.005077142141998235 -0.376552159237398 34 42 39 0.18845926423619294 20 1633 23 1882 24 939
348 0.9659554127906185 -0.005549666635565154 -0.3729875707075297 56 59 62 0.20948148247819076 20 1683 23 1855
349 0.9086330093490336 -0.03791937010773585 -0.38164367201830074 176 175 176 1.3439939501465488 20 1801 23 2082
350 0.8742974071059205 -0.046391498508564305 -0.38158442478629534 26 23 25 0.6623508508052057 20 1822 23 2140
351 0.8310592739754382 0.07221477559563552 -0.38503796351265257 203 203 205 0.23916067035779837 21 657 24 286
352 1.083357221312942 0.10567082188956549 -0.3808044341985667 78 81 80 0.1273866240635655 21 861 24 326
353 1.0689746413485848 0.08736928596819105 -0.37977296228013635 125 131 131 0.27364257481585524 21 943 24 415
354 1.0890870359691 0.085502016049156 -0.3821707498555123 74 74 76 0.03907840452581105 21 986 24 446
355 1.0785834119718272 0.08028159563395561 -0.38033845846626835 114 120 120 0.01636275315893893 21 1003 24 464
356 1.0698666346998396 0.07095135708825882 -0.38368470041601843 111 111 115 0.19238703639153076 21 1050 24 517
357 1.0754318112383199 0.07158417295901302 -0.3809559204132839 121 127 125 0.05960264535145061 21 1052 24 515
358 1.0740265341499433 0.06734664846611622 -0.38232507908781066 90 96 98 0.039547207167604834 21 1065 24 537
359 0.9866203909269937 0.03933981006940463 -0.379078569644452 78 87 88 0.1049690181323815 21 1143 24 641
360 1.0762424227681857 0.0537755016108008 -0.3805864800473089 120 123 122 0.021735645516838722 21 1148 24 612
361 1.0749241915989147 0.04371336856495147 -0.3798624830887106 117 122 122 0.26085255762468584 21 1250 24 664
362 0.9878610459957413 0.02757199665986047 -0.38034860538285037 71 82 81 0.055024357306605626 21 1261 24 713
363 1.0726056957109864 0.037692521328004935 -0.3806331751746454 130 132 134 0.07549816677744883 21 1280 24 697
364 1.073324373521004 0.0300796453349864 -0.3798616322781985 107 107 107 0.11563174218997274 21 1337 24 747
365 1.0767693161663157 0.02956492660072772 -0.3804196502307143 121 123 122 0.1297574729803567 21 1344 24 751
366 1.0715579958662804 0.02847169428466303 -0.379819360801561 128 129 131 0.059854188594452414 21 1347 24 756
367 1.0668589617080062 0.022686807392062455 -0.38083207326567303 124 120 121 0.10749728360503683 21 1379 24 786
368 1.0771284707953412 0.023844130021547706 -0.3818791777845003 104 104 106 0.11509259964910519 21 1380 24 782
369 1.0792837281384169 0.022075617003027407 -0.3821317198293958 114 117 118 0.18395506390377703 21 1390 24 798
370 1.0704288167901586 0.019049695135729714 -0.38053811786302216 129 129 131 0.19965232428346735 21 1402 24 814
371 1.0796808335632178 0.01801259042155196 -0.3829676931112341 115 118 119 0.12814176388674997 21 1407 24 822
372 1.0716096781937727 0.017019506152684778 -0.38130491301123204 128 128 130 0.20801919032249508 21 1409 24 826
373 1.0765221629479316 0.015375179477813805 -0.3780444273531597 93 92 94 0.046575969326553196 21 1437 24 841
374 1.0802837873150615 0.011957483280045039 -0.38133419385464057 98 98 98 0.16370523054618671 21 1457 24 865
375 1.0727342608878394 0.005298233505164748 -0.3833633697544396 121 124 126 0.20375055240581508 21 1493 24 902
376 1.077656235625265 0.0027240350575750694 -0.38090861298716006 112 112 114 0.03756703832956736 21 1520 24 915
377 1.0771130276214365 0.00018284578363872024 -0.38007739493110326 109 109 110 0.17066562585862233 21 1548 24 928
378 0.9853975046238985 -0.060389417006798216 -0.37658214140230667 60 48 61 0.053867595518468744 21 1783 24 1264
379 0.9660560904207947 0.0322058597113956 -0.3844092081865658 185 196 192 0.22491348877721634 22 885 24 684
380 0.9907764496945992 0.028194320169943103 -0.38425967380865217 62 73 69 0.6983588577659549 22 906 24 712
381 0.9455971300474716 -0.006115410626139926 -0.38063186829366463 36 44 43 0.025862215112839093 22 1142 24 946
382 0.8836019900506532 -0.0062076535831126715 -0.3814572685900658 23 29 27 0.2525086020037402 22 1194 24 936
383 0.9854825731383832 -0.06445116124608377 -0.382049653408258 40 42 52 0.28495612156859257 22 1365 24 1279
384 0.9029988924168876 0.10660391902496237 -0.3773470688888024 36 39 41 0.16528604616096812 22 384 25 1007
385 0.9131292967803908 0.08600609525932822 -0.37829455012437707 26 32 30 0.1955119335623166 22 522 25 1194
386 0.9431379162690781 0.05478216778512437 -0.3767150491966842 42 51 50 0.342794028717638 22 753 25 1458
387 0.9528427669296072 0.02843784528105758 -0.3746724629528913 51 56 58 0.38837412787539266 22 910 25 1646
388 0.9388209050866294 -0.042117320960942124 -0.3779225388756742 169 175 175 0.40186787406367147 22 1318 25 2092
389 0.9686751028621783 -0.10345888454250521 -0.3787466741981414 198 198 200 0.8926073487937477 22 1488 25 2301
390 0.9057733251273158 0.03654968711806596 -0.38509029862415217 35 38 36 0.11809008438914954 23 1640 24 618
391 0.9187271727627476 -0.06283641403817516 -0.3779523130297341 23 29 27 0.531724168913699 23 2152 25 2179
392 0.831891514433894 0.0831105999273625 -0.3857723800781304 181 181 180 0.17065219125554504 24 218 25 878
393 0.832003818571673 0.06301400456312763 -0.38445738566837384 121 120 116 0.33446909670198255 24 357 25 1030
394 0.832003818571673 0.06301400456312763 -0.38445738566837384 121 120 116 0.33446909670198255 24 358 25 1031
395 0.8294658806800196 0.05191876348741747 -0.3846377530422025 177 179 178 0.14621300128781978 24 442 25 1105
396 0.8593538345524426 0.011953236474839321 -0.3820766361237739 162 170 169 0.2521310376362489 24 779 25 1465
397 0.830233682315412 -0.0028016867295350867 -0.3817467853202886 155 162 165 0.09507583175042539 24 891 25 1471
398 0.8530342565477885 -0.012543947202164379 -0.38286595144761465 28 28 30 0.4707053699557311 24 974 25 1608
399 0.8306815484223778 -0.015339162943212723 -0.38239539455329385 133 132 135 0.09359621271074216 24 993 25 1564
400 0.8306815484223778 -0.015339162943212723 -0.38239539455329385 133 132 135 0.09359621271074216 24 994 25 1565
401 0.9440385506553254 -0.042987814220157704 -0.37472424057719167 29 35 33 0.33546943473426794 24 1189 25 2116
402 0.9440385506553254 -0.042987814220157704 -0.37472424057719167 29 35 33 0.33546943473426794 24 1190 25 2117
403 0.8828540926914781 -0.07309031127091088 -0.3773541100192199 168 168 164 0.16437602116502506 24 1337 26 1366
404 0.8298198419380397 0.07225706769358364 -0.38424240526495823 191 191 193 0.09313991167585586 24 277 27 350
405 0.8812970727545717 0.0536643090708876 -0.37561927399521466 23 29 27 0.7563317982720079 24 468 27 518
406 0.7617909329781525 0.1021394259767273 -0.3947048611534959 21 19 18 0.023920615594450634 25 309 26 311
407 0.7699128310554608 0.09872083185339019 -0.39944067318460447 39 40 36 0.12452791809276878 25 450 26 351
408 0.7615016835401589 0.08938152294462459 -0.39536585186010026 46 47 43 0.1759560297405579 25 463 26 363
409 0.762956308686043 0.07073604318082272 -0.3967777901352466 52 59 53 0.17717586726324902 25 650 26 430 28 615
410 0.7670347886520171 0.1102907318195157 -0.39512189952993654 18 17 17 0.005778843610922733 25 260 27 164
411 0.7657347821111213 0.08281810762522646 -0.3987135708312921 27 24 21 0.12933697917781287 25 571 28 520 26 389
412 0.7641039261583957 0.05785129059341549 -0.39583715766529515 62 62 62 0.21475288867355935 25 774 28 720
413 0.7641039261583957 0.05785129059341549 -0.39583715766529515 62 62 62 0.21475288867355935 25 775 28 721
414 0.7670211671179935 0.04633570493870264 -0.39529512481525914 25 25 25 0.09909766191818807 25 870 28 808
415 0.7699228533146008 0.04721206857999561 -0.3935638654345403 48 43 39 0.04296771304593975 25 877 28 801
416 0.764748313245189 0.042971799831352846 -0.39418386201145067 68 67 67 0.1738525476964584 25 880 28 830
417 0.764748313245189 0.042971799831352846 -0.39418386201145067 68 67 67 0.1738525476964584 25 881 28 831
418 0.7663224435697834 0.04296915125352109 -0.395172415225142 30 27 24 0.1807728784716576 25 895 28 832
419 0.7648117744772623 0.04144431515611776 -0.3959416760511365 41 38 33 0.007464495908492081 25 903 28 845
420 0.7645403052128987 0.03627168343350918 -0.39544120946618966 33 30 27 0.0936809690527609 25 945 28 909
421 0.7680704161794134 0.03783709718293967 -0.3944679258984039 24 23 23 0.18246251349543519 25 948 28 886
422 0.7696653838828864 0.029507912433587587 -0.3938186404108541 29 24 22 0.23386868210526712 25 1012 28 967
423 0.8309221613005063 0.05974108423994358 -0.3855528936340634 143 142 142 0.34355086098852217 25 1054 28 707 30 1005
424 0.7677256676704021 0.020162731567741322 -0.39328242574385125 26 26 23 0.09666462924522995 25 1082 28 1045
425 0.8299522088540092 0.05294998345490934 -0.38497946942291233 176 176 177 0.3380411180130476 25 1094 28 758
426 0.833605924808972 0.05074237087073261 -0.3858203343484 172 174 172 0.5289388622080441 25 1142 28 768
427 0.8326972592689363 0.045116847179285685 -0.38597110075873486 133 130 129 0.3797501125620545 25 1179 28 813
428 0.832470252296755 0.04070507698997632 -0.3856389192917762 165 165 165 0.5873836792563109 25 1203 28 846
429 0.8318136877317553 0.03751824027058601 -0.3857707499841759 183 183 187 0.33089674786144346 25 1219 28 880 30 1153
430 0.878925299950798 0.05643383407594698 -0.38490122795946335 173 176 175 0.27544023163602754 25 1256 28 737
431 0.9154054081584002 0.05111237133396987 -0.3828988749168107 31 37 37 0.18195736686911923 25 1398 28 772
432 0.884768917581581 0.02005873965920646 -0.3850077556954191 23 28 25 0.604279704312056 25 1493 28 1032 29 823
433 0.9807689183728123 0.042695040787586055 -0.3791023926672122 56 67 66 0.007888212423284895 25 1630 28 833
434 0.9806170616808364 0.04062816343469739 -0.3798437450186238 60 67 68 0.27927889960761665 25 1642 28 847
435 0.9913404745758847 0.025913753626427716 -0.37735351840860315 73 83 83 0.3565147994447909 25 1803 28 971
436 0.9724800079072285 -0.006220617188084994 -0.3800901620499855 63 71 70 0.15815062136698357 25 1926 28 1202
437 0.7725182334983642 0.12390014942927301 -0.388755013086247 51 51 47 0.07190561037460456 26 233 28 277
438 0.764602613886222 0.12201384205265678 -0.39974830223655267 53 54 51 0.4242300824424919 26 251 28 288
439 0.7683437897651173 0.11861810670195498 -0.3985162145818346 57 58 54 0.27179439771526354 26 265 28 308
440 0.7741704162952023 0.10306724294460176 -0.3941140139613479 61 62 58 0.007218103539569877 26 327 28 345
441 0.7612715989751756 0.09193603291969689 -0.393111673988895 35 39 32 0.1027132305631947 26 355 28 419
442 0.7618464111044916 0.08294383824663967 -0.3961552885052477 44 44 43 0.23674169337650475 26 380 28 508
443 0.7618464111044916 0.08294383824663967 -0.3961552885052477 44 44 43 0.23674169337650475 26 381 28 509
444 0.7627403762758956 0.08188546743372727 -0.3975039658866175 45 46 42 0.22310450131716822 26 386 28 524
445 0.8310679097915488 0.09849647341903016 -0.389552844215711 185 188 189 0.5738851737783053 26 414 28 393 29 482
446 0.7760096641319069 0.07694457061195542 -0.3959396479184305 53 52 52 0.07941486858247711 26 424 28 568
447 0.8323091819259845 0.09071057143569332 -0.3877735095691024 125 125 128 0.012408681506134299 26 446 28 452
448 0.7753125723558548 0.06726928064883239 -0.3943139569326582 20 20 16 0.13712555274444477 26 461 28 645
449 0.7684132471315178 0.06188407961698708 -0.3976585050274485 58 57 55 0.08417247383374601 26 478 28 695
450 0.7690272675471741 0.058512811234422146 -0.3948638457398259 61 61 59 0.07080690917108053 26 498 28 717
451 0.769658327450851 0.054053204146467373 -0.39721312514884605 64 65 61 0.05991253106968026 26 513 28 755
452 0.8345581045288905 0.07340174037750356 -0.3880972226303016 183 183 183 0.2719230336099087 26 520 28 606 29 592
453 0.7676707060693669 0.041861828017925054 -0.395239180609184 47 48 44 0.056405731480661886 26 566 28 844
454 0.7719391539069411 0.037762754152381624 -0.3978779553728444 21 19 16 0.012735232569848848 26 609 28 893
455 0.8725653643330099 0.06732920737601247 -0.38591884244186664 176 184 185 0.06173302954900315 26 620 28 665
456 0.998274835326199 0.09391578141599015 -0.38054303493061625 86 92 92 0.12304068465958808 26 680 28 482
457 0.9639131159278249 0.06570937160936144 -0.382539262165817 51 59 57 0.130384898769388 26 790 28 688
458 0.8333978948495757 0.024905733561418956 -0.38794499465725546 113 113 114 0.1397090845668478 26 809 28 998
459 0.832742971470234 0.005493477479589581 -0.3875505322319344 176 182 183 0.17294110612226682 26 907 28 1156
460 0.9954517500359195 0.03896344670431011 -0.3785295396788047 77 85 84 0.23754387048903017 26 955 28 862
461 0.8320004230978384 -0.017151251909220937 -0.3840663929929089 194 194 201 0.7315365242282983 26 1051 28 1279 31 1949
462 0.8323150365783973 -0.032354385422513496 -0.3892017802733317 169 173 175 0.32456314602172065 26 1136 28 1353
463 0.9787311213720427 -0.011367680407758395 -0.37985101114930875 51 56 58 0.31949490691618326 26 1174 28 1223
464 0.8798078741264671 -0.03734502264282906 -0.3865677182146058 23 29 27 0.41669124499817406 26 1203 28 1361
465 0.9626262377905087 -0.025374051610200263 -0.3828080418314783 43 45 51 0.10150617337795376 26 1224 28 1281
466 0.9183190676762905 -0.10004654068189663 -0.38384869378250036 23 29 27 0.7429482977340444 26 1439 28 1557
467 0.9406915346597237 -0.09893108047502432 -0.3811868762893286 31 37 39 0.7979978352042183 26 1444 28 1555 30 1820 31 2139
468 0.8312869746722231 0.1135035005361821 -0.38885508169566163 156 155 158 0.1407504719733688 26 370 29 441
469 0.7688331358971896 0.11205072554908942 -0.39019849320631816 34 34 33 0.10199880238827314 27 153 28 319
470 0.7663167443981667 0.09250412806942021 -0.3975168238940977 54 52 49 0.11132012707971425 27 228 28 428
471 0.7622699237669905 0.08569629414690559 -0.3983922531451129 52 53 49 0.30890457730359194 27 245 28 480
