# 3D point list with one line of data per point:
#   POINT3D_ID, X, Y, Z, R, G, B, ERROR, TRACK[] as (IMAGE_ID, POINT2D_IDX)
# Number of points: 429
101 0.8308542182021634 0.03706677447590605 -0.3802209726070281 117 117 117 0.27361933802518057 4 1813 26 718
102 0.8855760971574153 0.03099250994593961 -0.3750306426706087 58 42 39 1.4275316226788508 4 1857 26 847 31 1467 6 1248 7 1057 23 1693
103 0.8330596321454792 0.010374160548580532 -0.38168391856739536 172 180 181 0.3475685326994878 4 2048 26 884
104 0.8305815085771968 0.0657146310506615 -0.3799289336066744 145 143 148 0.3464437140431574 4 1550 29 625 30 950 26 539
105 1.0833887312030313 0.12601356011107115 -0.35822116140537996 158 159 155 0.22915995422913574 4 1217 30 581
106 1.0707735709632842 0.06336832293303392 -0.3630831246250209 113 113 116 0.49438087281007953 4 1646 30 955
107 0.8301654732852563 0.0040524734780037885 -0.37969631463265574 144 140 145 0.2565569960369088 4 2109 30 1407
108 1.0741776794948357 -0.022257186273235054 -0.3653516884827547 75 72 77 0.4795129262875625 4 2191 30 1467
109 1.068743154997026 -0.036031562474509476 -0.3628668379964821 74 77 79 0.6322328830405812 4 2270 30 1541
110 0.9489776030032675 -0.03211823698273283 -0.37012816230674606 37 36 42 0.2617163860511485 4 2318 30 1579 31 1805
111 0.8963764032750801 -0.07957695799409721 -0.3759485077499182 164 167 165 0.22872099566445853 4 2577 30 1801 31 2130
112 1.0834690869554744 0.01604573096840382 -0.363452034747059 85 88 89 0.22676258295270724 4 1938 31 1287
113 0.8714595971707237 0.015267399731850005 -0.37482694752431367 32 33 34 0.03091453593977533 4 1993 31 1584
114 0.8714595971707237 0.015267399731850005 -0.37482694752431367 32 33 34 0.03091453593977533 4 1994 31 1585
115 0.8304855333457545 -0.013972102215389148 -0.3777994711417417 190 190 192 0.14808434387275787 4 2258 31 1924
116 0.896345413865157 -0.0795734823507541 -0.3758727217469045 178 178 178 0.26774453434100887 4 2578 31 2131
117 0.9884354391996661 -0.16622282520713755 -0.38571017218103765 20 17 14 0.1321642579494646 4 2691 31 2207
118 0.8460503309110944 0.08275353003780479 -0.3559286093152963 29 35 35 1.2771657924419473 5 1333 6 702
119 0.9140215309631676 -0.04349054542664055 -0.39150364718456193 27 27 27 1.1133364364740546 5 2306 6 1816
120 1.0808991732563376 0.07888038657781898 -0.3585629160388497 112 115 114 0.6527111837134248 5 1480 7 866
121 1.0759108967775906 0.02703418758811913 -0.36487127436113853 145 151 151 1.2831179588229702 5 1821 7 1178 30 1162 31 1218
122 1.0823430342265503 0.10829336181601976 -0.35482327391114193 132 140 139 1.364798064218624 5 1294 8 533
123 1.0591228535228017 0.09108376655463167 -0.35847634769037867 191 195 190 0.5710516638934402 5 1383 8 613
124 1.0778545588194124 0.07305113911713232 -0.3555639713330529 112 117 118 0.6097597092307809 5 1516 8 789
125 1.0867078151432377 0.05810422812589568 -0.3567240641621373 127 131 126 0.3802245107980919 5 1620 8 914
126 0.8847009851804271 0.044236941735343926 -0.3708752627628589 29 32 35 0.6748402186657018 5 1708 8 837 31 1373
127 0.8734354288163793 0.0840240698734968 -0.3683316139325133 27 28 24 0.37082831371144537 5 1354 30 770
128 0.8283070569303489 0.07798901919430119 -0.373652033198285 139 140 144 0.6182161011315546 5 1386 30 834
129 0.8296968959324625 0.037826072343930595 -0.3758093474530883 194 193 199 0.46796179833875184 5 1753 30 1138
130 0.8277403956649894 0.023717912166204502 -0.377281683728889 185 188 191 0.6483356692902253 5 1879 30 1251
131 0.9108241508974518 0.04900731007799471 -0.36997612529327345 29 35 37 0.3112317982750939 5 1677 31 1291
132 0.9725121086908345 0.07548939312198978 -0.3604639596182518 64 69 76 1.138953719593364 6 955 7 745 31 974
133 0.8569660300202191 0.005316783471907886 -0.3753510093895362 192 195 198 0.11042451386678157 6 1453 7 1256
134 1.0572342106431152 0.09839333262430988 -0.357143595141648 196 199 196 0.5218814158259892 6 835 8 564
135 0.9884684141705138 0.07621336434628634 -0.3617756060391807 62 64 69 0.7435550404882881 6 975 8 645
136 1.0820557401114905 0.040633208141699254 -0.36305347333183774 141 152 151 0.360306874256195 6 1237 8 1014
137 1.073174831075091 0.009072261653429357 -0.3650983552126073 111 114 113 0.19454760083681025 6 1435 8 1215
138 1.0756198661328884 -0.003734005102428432 -0.3673658068793874 114 114 110 0.2666251410108734 6 1520 8 1279
139 1.077735252579536 -0.02025163725286286 -0.3643138939499989 100 103 102 0.03714928186119787 6 1625 8 1373
140 1.077735252579536 -0.02025163725286286 -0.3643138939499989 100 103 102 0.03714928186119787 6 1626 8 1374
141 1.070046512493595 -0.009568672860874572 -0.3587640456316836 153 161 160 0.7420671381249072 6 1555 9 1220
142 1.0806965391893955 -0.01129348270947313 -0.35830329577583786 132 138 138 1.0491598902096675 6 1561 9 1236
143 1.0807497561329098 0.02675678793509639 -0.3677812126874793 117 123 121 0.409976860796491 6 1330 30 1164 31 1221
144 0.8809419834392529 -0.011562253606646207 -0.3742232026284832 187 190 191 0.4510751861934018 6 1594 30 1495 31 1782
145 0.9799110781510284 -0.06429249544114411 -0.3741379304028528 41 45 51 1.1990440547232502 6 1935 30 1718 27 1235 31 1979
146 0.8796837997044941 0.04862987521524871 -0.3705248433671318 195 196 198 0.7743209831250925 7 920 31 1345
147 1.0738033526136634 0.039460753568806135 -0.3632742264027003 151 154 153 0.3567044165374839 7 1106 31 1132 30 1091
148 0.948737323873869 -0.022438011932516502 -0.37024517663842993 166 173 170 0.39584320192992284 7 1479 31 1734 29 969
149 0.9775695603935791 -0.04511664898143249 -0.3698322820750942 42 45 51 0.06542780473590774 7 1606 31 1841
150 0.8860283375112629 0.06658192448684441 -0.40506114210218225 184 187 188 0.13596751326737397 8 698 12 326
151 0.8302643964271771 0.03753047230907906 -0.3886077061070869 166 173 174 0.45152395790910305 12 400 13 863
152 0.833128250493367 -0.02015289211452018 -0.38387050087693675 105 104 106 0.2483732427306826 12 706 13 1190 18 729
153 0.8294586163160212 -0.022641282363462793 -0.38395293403817726 170 178 177 0.4381520163539244 12 724 13 1210 16 979 19 677 25 1607
154 0.8532626210017811 -0.03582889147526885 -0.38098633197793563 23 29 27 0.9936686453721353 12 808 13 1286 18 835 17 1068
155 0.8441551532340631 0.007551812548529212 -0.38885591519529844 168 174 174 0.3285330386595671 12 559 14 809
156 0.8317321801370132 0.06314830998414481 -0.384840918736794 115 115 120 0.32745238540377114 13 710 14 496 25 1032
157 0.8328708988956295 0.04805879457677277 -0.38500315263567836 173 175 174 0.059459971540989975 13 796 14 588
158 0.9979277268489242 0.060103056550252575 -0.3818369946334316 70 78 81 1.7188152095924623 13 803 14 533
159 0.833731988898558 0.03401295392804657 -0.38256452294017657 174 180 180 0.4791539692265074 13 880 14 658
160 0.8307530644445719 0.026104791011373276 -0.3848148975038749 115 115 117 0.25151230248934525 13 924 14 714 16 699 20 1111
161 0.8325035439527211 -0.02818656719712411 -0.383455839776267 154 157 158 0.3652058772864011 13 1249 14 996 17 1005 25 1667
162 0.9859000421906345 -0.04714482132628578 -0.38282359185199866 45 50 49 1.0740980748914168 13 1308 14 1033
163 0.9598413406936517 -0.08779567770210511 -0.3796400656669402 178 181 180 0.2664326716403051 13 1467 14 1164 22 1454
164 0.8312558341587629 0.06253959541961716 -0.38534379509659633 178 181 180 0.3049912674085461 13 719 15 739 17 451 25 1035 20 854
165 0.8316883863825904 0.058395210360985925 -0.385263023817305 184 184 186 0.25923837756689355 13 739 15 766
166 0.8312471632806764 0.04818960211154233 -0.38490394102605907 181 181 183 0.32862697024269133 13 793 15 830 17 533 19 268 25 1157
167 0.8328410194687849 0.01500218911895018 -0.3836892637629938 119 115 118 0.3362639879978591 13 995 15 1007 16 766 25 1363
168 0.8325334958944479 -0.024861239803366648 -0.38367827432821605 160 160 160 0.09125595186957691 13 1224 15 1230
169 0.8294696673755094 0.08857668857713052 -0.38674763471500256 186 189 189 0.15254201945013318 13 594 16 304
170 0.8307846464604893 0.08422789302284998 -0.38574334097201757 189 190 190 0.33553716286772756 13 603 16 336 25 864 15 590
171 0.8311283788738353 0.06061016620622147 -0.3850726614481719 176 176 178 0.3190581170893383 13 728 16 485 20 864
172 0.8318697634504135 0.040639334847610266 -0.38568528707311167 189 187 187 0.25722693183833845 13 840 16 611 17 583 18 325
173 0.8304895945528508 0.038399857718706555 -0.3846496999207152 124 121 123 0.059060078079705064 13 856 16 621
174 0.9647077940842881 0.04591892441164385 -0.382561739858627 40 48 47 0.22236142650671087 13 861 16 615
175 0.9954355187843049 0.018233050479737844 -0.38142117161549166 52 62 65 0.078838251785797 13 1003 16 758
176 0.9830411595261203 0.014144570405197567 -0.38370646402851144 48 61 60 0.23760355866953756 13 1019 16 774
177 0.8313634390005141 -0.017861257442111117 -0.38303527035491236 106 106 108 0.6913539220499256 13 1177 16 962 19 644
178 0.8310210610040345 -0.02676783821493387 -0.38324568702821143 164 167 168 0.400843438698249 13 1233 16 1005
179 0.8311054260668536 -0.028530614653064546 -0.3838153773674637 166 166 167 0.894837560929089 13 1250 16 1016 17 1009
180 0.9261309118560264 -0.0614134520654707 -0.38135451732368325 149 155 149 0.11865085191778921 13 1375 16 1133
181 0.9594639627825942 -0.08768308061375787 -0.3839190127413749 187 194 188 0.7226278537513164 13 1462 16 1186
182 0.8300403786789494 0.04808672163698913 -0.38641469216900837 166 169 172 0.42894785269931407 13 797 17 536 25 1152
183 0.8329185751839617 0.031058750970352624 -0.3858917382356943 127 127 127 0.088285674547219 13 898 18 403
184 0.877826026615778 -0.012388722507230047 -0.3849517292432282 12 18 16 0.11242289326205683 13 1141 18 708
185 0.9974659326072275 -0.04586868166481636 -0.37788093647301496 51 50 57 0.538861148203575 13 1305 18 904
186 0.9730641597475513 -0.1526567877860182 -0.3704267105782453 22 28 26 0.1780261554252587 13 1679 18 1114
187 0.9768943265341687 -0.15625564636644362 -0.37448503169030484 25 26 22 0.24646961902575693 13 1694 18 1120 22 1581
188 0.8308305665496449 0.0795888886595172 -0.38506880285480144 183 189 191 0.17690350596145732 13 624 19 119 16 362
189 0.9086266501330058 0.019583383459979162 -0.3812868524814818 15 18 17 0.21148687590605353 13 981 19 452
190 0.970162302327736 -0.007715026827253974 -0.3764351857576031 55 58 57 0.2358650825462927 13 1115 19 613
191 0.970162302327736 -0.007715026827253974 -0.3764351857576031 55 58 57 0.2358650825462927 13 1116 19 614
192 0.8330159460182238 -0.024407927102154642 -0.38267632956811326 110 116 118 0.15510941812994483 13 1222 19 683
193 0.8294874012495633 -0.024959403224966398 -0.3813732876922783 155 166 166 0.19175295934044442 13 1225 19 684
194 0.8781220560079055 0.08734731867310362 -0.38534077441595466 30 31 27 0.2729958050397183 13 617 22 514
195 0.914714523625911 -0.0368141347349295 -0.3810551583372205 27 31 26 0.2111149826810745 13 1282 22 1308
196 0.9926623437582944 -0.14376706897489017 -0.3778594792355322 40 28 37 0.25124875322874235 13 1545 22 1511
197 1.001723464186721 -0.1626876846871008 -0.38319463102319956 15 14 16 0.38934442475929903 13 1675 22 1565
198 0.8308425761396773 0.134718193400264 -0.3885861296224784 140 140 142 0.5015565023213048 13 505 25 468 16 138 20 504
199 0.8309851411306592 0.11207182126028048 -0.38711553449063724 179 176 172 0.26753042586231884 13 541 25 660
200 0.8313612353398121 0.06285383583803224 -0.3862070265931808 178 181 180 0.29582933040369147 13 718 25 1034 17 450
201 0.8300873551662494 0.05283413881509586 -0.38292618291333536 117 119 120 0.49042390815285275 13 771 25 1098 28 757
202 0.8825406811113944 0.02451652234715606 -0.3802198138679005 167 175 172 0.5747040394494324 13 951 25 1462
203 0.9375780858329076 0.02436309758242994 -0.37705583043272883 47 55 54 0.9120371791323827 13 967 25 1625
204 0.8311033193164574 0.005478475342122248 -0.38267369585310845 163 170 173 0.011176746083752315 13 1045 25 1416
205 0.9708834797215982 -0.1413304652634782 -0.3653433300087151 20 23 22 0.43195454418520796 13 1576 25 2307
206 0.9864989488563819 -0.14855786081644004 -0.3637390837163987 12 15 15 0.539421216782898 13 1637 25 2353 27 1316
207 0.9914477262618434 -0.1496354898385425 -0.36364313423226174 28 30 29 0.028652294143368888 13 1645 25 2357
208 0.8324237739210928 0.11133834957227025 -0.3842994858134023 152 146 148 0.32019829601779864 14 221 16 217
209 0.8317143384838631 0.11001938424256864 -0.3835294035647619 186 186 186 0.4232129595872766 14 224 16 220 20 539
210 0.831033734968213 0.09817513513640447 -0.38478047272414384 201 204 207 0.25539182022962736 14 264 16 253 20 560
211 0.830968906305196 0.08546616121509591 -0.38365891125936347 184 187 188 0.14641089581117325 14 326 16 324 20 645 24 199
212 0.8296207334727268 0.0788709325180934 -0.384289057531281 188 189 191 0.23263859900118908 14 381 16 364
213 0.8328487046028995 0.0723329166626055 -0.38452840488995266 177 173 174 0.22348122765528847 14 428 16 408
214 0.8315527552155152 0.0627816556816648 -0.3843215490537357 171 170 174 0.08003100583109586 14 500 16 476
215 0.8313486760465884 0.04744632249802031 -0.38518540815613567 112 110 112 0.16104596549377898 14 591 16 569
216 0.8314730230772223 0.032983871470055305 -0.384843007281572 174 180 180 0.1864174096042149 14 667 16 653 17 619 18 389
217 0.8315044245919652 0.02537988307802523 -0.3849449003120486 176 176 178 0.18129209657907394 14 720 16 702 20 1122 18 429 24 650
218 0.8314778508022392 0.020203773578967296 -0.38512578413178594 178 179 183 0.14097851442058748 14 748 16 742
219 0.8324000748422024 0.008731807129728774 -0.384379046473902 101 95 99 0.07802341285181211 14 806 16 801 24 791
220 0.8309076300973358 0.0037523845580720444 -0.38440610615461707 143 143 145 0.08360385203111599 14 837 16 831 24 839
221 0.8298624517935551 0.0003240360725364321 -0.38461895301218263 166 172 172 0.351053470080883 14 856 16 855 17 822 24 871
222 0.9080837889904091 -0.004894445633228404 -0.38298720011447385 20 26 22 0.15756129821634066 14 866 16 879
223 0.878642542887461 -0.011681135857073349 -0.38504903776383836 21 24 21 0.18326083593921164 14 905 16 914
224 0.8785996884701858 -0.01161159797901871 -0.38478724707924367 19 22 18 0.27507706224964973 14 906 16 915 20 1553
225 0.8539252776165523 -0.01325005465134365 -0.38654030249407756 21 25 22 0.14200254113009983 14 912 16 926
226 0.8306987774936778 -0.013966758672002297 -0.38440775141371414 121 122 126 0.5528791873892324 14 925 16 933 17 908
227 0.83191567113896 -0.0210611088736752 -0.3839119126791376 161 164 165 0.3085957363620902 14 967 16 973 24 1044
228 0.8328201614567703 -0.022915711213112363 -0.38343525626544134 107 106 108 0.10191865595449608 14 976 16 981
229 0.8328201614567703 -0.022915711213112363 -0.38343525626544134 107 106 108 0.10191865595449608 14 977 16 982
230 0.8302178177591211 -0.029282456966981375 -0.38364252282831507 132 132 133 0.36428775576519296 14 1001 16 1021 17 1013 25 1670 28 1337
231 0.972810654223638 -0.04264827917174192 -0.3835537802137212 31 33 39 0.1717337301586048 14 1008 16 1040
232 0.9474701382540822 -0.0428346439027764 -0.3833279944895155 25 31 33 0.4562166156374469 14 1024 16 1053
233 0.833029048040616 -0.03526589477468344 -0.3831035475351685 110 109 107 0.17240679631149855 14 1037 16 1056 17 1061 24 1153
234 0.833029048040616 -0.03526589477468344 -0.3831035475351685 110 109 107 0.17240679631149855 14 1038 16 1057 17 1062 24 1154
235 0.9366148698741004 -0.05944126953614288 -0.3837542392025405 19 25 22 0.05470656244462703 14 1082 16 1119
236 0.9089629895982803 -0.06810428696822592 -0.3816211836555116 18 22 17 0.011789234221562509 14 1125 16 1157
237 0.830566482059462 0.09518775036291696 -0.3860938355072076 186 186 187 0.14686505459020655 14 283 17 289
238 0.830566482059462 0.09518775036291696 -0.3860938355072076 186 186 187 0.14686505459020655 14 284 17 290
239 0.8313303265809874 0.018389659465228105 -0.3846986840820649 184 186 186 0.27100192781254245 14 756 17 711
240 0.8306348396843578 0.0099996588689282 -0.38483338385688426 142 141 143 0.053742479395532734 14 797 17 767
241 0.8777677993329098 -0.005678908964716758 -0.38159674115917347 160 166 164 0.9637126495703318 14 881 17 864
242 0.8329175432901201 -0.013846375834950459 -0.3837612112705123 128 128 130 0.024940480860147458 14 924 17 907
243 0.8825515303560149 0.08154483717052395 -0.3831305859243422 34 34 36 0.06426185318028713 14 379 22 562
244 0.8313431974045739 0.09721765000698904 -0.3872360213116356 128 125 120 0.06009459300867722 15 532 16 267
245 0.8327718098606701 0.0905721683329301 -0.3857686900520041 189 189 191 0.0026160512329443057 15 558 16 291
246 0.830664628608663 0.08847730501673166 -0.3862165551648322 181 184 185 0.15303245911868502 15 572 16 306
247 0.8523591621289693 0.08724798356067384 -0.3819507901538565 25 29 28 0.1381877356818403 15 578 16 325
248 0.8323165048614519 0.08441730698375141 -0.386600151625826 181 177 178 0.09570631512162565 15 591 16 338
249 0.8296180267597869 0.08113057695522792 -0.38755319071684996 185 188 189 0.053759109443829375 15 618 16 360
250 0.8326391145773986 0.06684355473090631 -0.3847717623455078 186 185 187 0.09022002534243143 15 709 16 442
251 0.8306602146843751 0.05374457747320647 -0.386478786179406 121 124 125 0.21202179557197517 15 792 16 529
252 0.939656389478881 0.05059724980894557 -0.3825853164210899 32 38 36 0.7678415478144061 15 821 16 581
253 0.8309377657425878 0.0416624661206942 -0.3849791540587796 175 177 181 0.21295087675597232 15 853 16 601 20 976 24 524
254 0.8307215904296006 0.02464929121610896 -0.38416694853996003 115 116 117 0.07355857458286816 15 957 16 709
255 0.8307219058983284 0.024665349154767372 -0.3840319250604774 121 123 124 0.13161943148627825 15 958 16 710 20 1129
256 0.8321425442354372 0.006037998595633474 -0.3842206502212241 128 127 131 0.07011479637149903 15 1072 16 812
257 0.8313200427199547 0.005501600643077368 -0.383619437205616 174 176 178 0.1658625047135137 15 1076 16 820 19 493 24 819
258 0.830797547176208 -0.012467538635362138 -0.38371361072501875 108 104 108 0.23005007651359793 15 1168 16 927 24 965 25 1539
259 0.8347468239439648 -0.02336354319440078 -0.384295427518682 166 166 166 0.167026250210809 15 1222 16 984
260 0.8312209696132877 -0.03774037385218542 -0.3833610009566238 109 109 105 0.18815392336594725 15 1290 16 1071 17 1085
261 0.830237108348027 0.05977946173457932 -0.3863929763594265 141 141 144 0.41748912489065104 15 756 17 473 18 218
262 0.8337000042769732 0.010499620522483816 -0.3839196242096624 172 175 176 0.12762622586855701 15 1035 17 761
263 0.8298374659084271 -0.003012282258740566 -0.3844116531202612 127 127 129 0.14585048224759842 15 1117 17 843 24 895
264 0.8308860148915664 -0.009594901491760644 -0.3837620618739045 108 108 107 0.28291633640102964 15 1148 17 882 25 1520
265 0.8299569624727917 -0.01216084123213409 -0.3844089064302404 179 182 183 0.12442119287790779 15 1158 17 890 18 677
266 0.8324075527698147 -0.024957554291862617 -0.38370909965137295 161 165 166 0.07285554839637715 15 1232 17 978 16 994
267 0.831358665785 -0.024970008046547858 -0.3836260678466244 169 175 175 0.11023479319442306 15 1233 17 976 18 763
268 0.8596301224093126 0.012183700031945462 -0.3843080515357904 167 173 173 0.017460278124520383 15 1021 18 549
269 0.8331458731221896 0.012990453860899134 -0.3846221731824003 167 164 165 0.06687211722230967 15 1023 18 508
270 0.8313582395123927 -0.02497517387397759 -0.3836431038609501 160 160 159 0.130824900523119 15 1234 18 764
271 0.8942279868125343 0.035886805977867725 -0.38219307527357543 167 178 178 0.15344110510416673 15 890 22 878 19 350
272 0.9144465942857932 -0.005790554311238508 -0.3816542179054314 159 168 165 0.298078344306708 15 1103 22 1171
273 0.9525638851613416 -0.032604467051678084 -0.3815693443259911 35 38 46 1.1289091820398014 15 1214 22 1277
274 0.9710025537551463 -0.04207065599291179 -0.3815069468490365 29 35 36 1.6987687842689352 15 1250 22 1300
275 0.9095214362777045 -0.06871079305970412 -0.3837988851842242 21 21 21 0.7004119265545319 15 1359 22 1428
276 0.8744123048420572 -0.0644500900724768 -0.3813460596899112 25 25 21 0.08686944560576197 15 1364 22 1438 24 1310
277 0.917537300966803 -0.0758994764641029 -0.38747163596549117 20 23 26 0.5918035960622013 15 1373 22 1441
278 0.8307694943454221 0.13832857302122742 -0.3871177908357595 193 189 190 0.12694121167731043 16 126 17 204
279 0.831744051901291 0.11607904808842207 -0.38687062735886485 191 189 191 0.0796428461401766 16 212 17 247
280 0.9065597993068275 0.019248501064669955 -0.37495469209444265 21 24 23 1.5441940477413327 16 747 17 740
281 0.8324155240622336 -0.024966557699342324 -0.38371177397044315 161 165 166 0.03359415367263377 16 993 17 977 18 765
282 0.8943298458804816 -0.08102139556657192 -0.37989456841221136 23 23 19 1.5546610274912762 16 1194 17 1224
283 0.8290450576358532 0.07645134969065326 -0.38800566295359756 187 187 187 0.2772263160001038 16 384 18 138 20 737
284 0.8315365150240898 0.03653698936658041 -0.38541792295926364 117 114 111 0.14386287857686772 16 637 18 362 17 605
285 0.8320167542952398 0.024752161665895018 -0.3850358956274593 116 112 115 0.0805670002515804 16 706 18 435
286 0.8320131394855762 0.02477056112034637 -0.3850689934911423 116 112 115 0.09532375982511225 16 707 18 436 24 653
287 0.8330549539391153 -0.01303185900746022 -0.38382904073567586 175 174 178 0.27800023662377643 16 930 18 687 24 975 25 1550
288 0.8315392570732097 0.06285298807253055 -0.3846208481136665 171 170 174 0.24017913150258963 16 475 19 192
289 0.8294088525661836 0.051818573088662154 -0.3842202420203717 181 184 185 0.25009958697353585 16 543 19 249 24 443
290 0.9945226970439732 0.02663257325568711 -0.37779971984353017 56 67 66 0.35964631062451613 16 721 19 450 24 734
291 0.8305482102026396 -0.036927285064811126 -0.3829865698753196 161 171 173 0.5227070908080054 16 1067 19 788 25 1745 28 1385
292 0.8293146512830064 0.12044170951291198 -0.3843637243811168 189 188 188 0.21385457328213942 16 192 20 524 28 297
293 0.8311233521764023 0.06365501444177979 -0.38399485891178214 205 204 208 0.13815123981314054 16 461 20 849
294 0.8314286340563093 0.04653774298459739 -0.3854793887077324 148 147 149 0.026598173077548956 16 574 20 941
295 0.9773010735377105 0.051507468689085456 -0.38257199596107533 54 62 61 0.9582481626271417 16 588 20 1267
296 0.940339892987896 0.02509685598391227 -0.3823384071361171 53 61 61 0.24236717015014853 16 727 20 1398
297 0.8315024066420372 0.08670830149512065 -0.3830978336664464 141 137 138 0.505374883815451 16 312 24 194 26 458
298 0.8310925072413238 0.08116865079818016 -0.3846325476155243 177 177 173 0.23896256662306523 16 355 24 225 25 892
299 0.8312090384351652 0.03432889423960929 -0.3836395624874919 178 178 180 0.2524408870377874 16 647 24 593 25 1237
300 0.8319600929549444 0.024725887004166662 -0.38467921261877297 116 112 115 0.017827420445448935 16 708 24 654
301 0.8309230844505174 0.013415725875361249 -0.3844041088106132 112 111 114 0.0915024083964905 16 770 24 752
302 0.8309230844505174 0.013415725875361249 -0.3844041088106132 112 111 114 0.0915024083964905 16 771 24 753
303 0.8339762813142488 0.010678997062344948 -0.3843294863356583 173 176 177 0.07100439332447847 16 785 24 774
304 0.8312973034898297 0.010406715064314877 -0.3833942118400693 174 176 182 0.18584839430714126 16 787 24 776 27 711
305 0.832168238883151 0.0037178735123345667 -0.3844770006067127 123 120 119 0.12256882751924063 16 832 24 840
306 0.8321503805524608 -0.009718636793907609 -0.3840529721027829 115 115 117 0.04070098345683316 16 911 24 952
307 0.8621789627848577 -0.024299395858285742 -0.3817458057851331 18 21 20 0.7793617814822358 16 980 24 1067
308 0.8330792404135533 -0.0338418836571907 -0.38319018732360577 121 117 120 0.07472871576685405 16 1044 24 1137
309 0.8326271323250032 0.02280592444304212 -0.3837859471581597 169 170 170 0.25741807881929296 16 729 25 1318
310 0.8318204793706533 0.002412680355146745 -0.3828654094789401 108 110 118 0.05848039102083536 16 842 25 1434
311 0.8318204793706533 0.002412680355146745 -0.3828654094789401 108 110 118 0.05848039102083536 16 843 25 1435
312 0.8312111792285791 -0.008908778858479197 -0.38201386810216337 165 165 166 0.09925197991618026 16 905 25 1516
313 0.8321514835653834 0.07539427098327643 -0.3904076971196754 130 129 129 0.017001855512010246 17 389 18 151
314 0.831248645452414 0.03766190601359833 -0.3861729200718285 195 195 197 0.12541088042005788 17 597 18 350
315 0.8323472573554436 0.005082132259990097 -0.3841447112898146 132 129 126 0.016507095986761814 17 787 18 570
316 0.8307925342867065 -0.03461523588999321 -0.383986828303143 174 180 179 0.16564574217059785 17 1057 18 818
317 0.8307613641817104 -0.03463868162045023 -0.38360882687687303 156 162 164 0.17433439609053253 17 1059 18 819 25 1729
318 0.8325700649289492 0.08992518788427067 -0.38453685846723845 198 197 199 0.2659047714975924 17 306 19 85
319 0.8311357792485283 0.06626949388174824 -0.3849678854268399 184 184 183 0.38575754503980747 17 429 19 181 20 835 25 1005
320 0.8787738024620232 0.05146880032260689 -0.3859561227526661 25 25 27 1.4744017190902166 17 554 19 287
321 0.830770408779374 -0.025748071556893484 -0.3828424066815461 112 114 111 1.2879695096886183 17 985 19 693 24 1076 25 1632 28 1317 30 1604
322 0.8310508572875253 -0.030309376838085142 -0.38299045585189917 165 171 169 0.4464573841775541 17 1028 19 731 25 1686 26 1128 28 1345 29 1030
323 0.8318250605239362 0.08015177115705169 -0.38544077091482926 135 130 131 0.19348810778773193 17 342 20 711
324 0.8296108468488523 0.07304361284595724 -0.3869939812024876 178 180 177 0.5488697677817354 17 391 25 953
325 0.8317879601182164 0.06891829128869803 -0.3883723569639384 171 170 171 0.17746833776957952 17 424 25 992
326 0.8309403033268458 0.06254014545619044 -0.3874043851447003 135 135 134 0.2713772254286464 17 459 25 1039
327 0.885098893597141 -0.06745524251166504 -0.3814799137231871 21 24 23 0.6691076523183132 17 1181 25 2125
328 0.8325074595076187 0.042550187910745885 -0.3856623948541503 145 144 149 0.04275169784347323 18 310 20 972
329 0.8306387848867469 0.13814882464374093 -0.38677062831740705 203 203 207 0.18821190020158787 19 24 20 502
330 0.8311588885663365 0.12942245210223158 -0.38689205438573326 205 205 209 0.5698220394584339 19 36 20 511 28 276
331 0.8320546088011895 0.10119542048213367 -0.38614189058535886 200 203 206 0.15879438228858478 19 62 20 552
332 0.8328932958651141 0.08062011388297513 -0.38459847630587435 200 200 202 0.24225379262302757 19 113 20 709
333 0.9517338522611033 -0.029678474684335963 -0.3789721148714669 200 200 202 0.4821428225942682 19 753 20 1818
334 0.829828639633945 0.07235688202186238 -0.38463074315660367 187 187 189 0.2516509962899916 19 142 21 652 24 279
335 0.9876659358512041 -0.0024037279865142197 -0.3783612447187855 68 74 74 0.48253643633375676 19 601 22 1088
336 0.8322344175957513 0.07354856460860662 -0.38521097502968976 137 134 130 0.16866539848850876 19 138 25 957
337 0.8306300126762938 0.04580611487666434 -0.38429469614981615 157 160 161 0.10318950157024577 19 282 25 1168
338 0.8292204945440849 0.0213856688816086 -0.3838745494484126 170 174 173 0.05894420516331768 19 406 25 1313
339 0.8307256226969474 0.008798238610616387 -0.3841184439072247 109 114 116 0.047968055544018215 19 479 25 1397
340 0.8307243823597794 0.0013425843949408595 -0.3838656150089725 117 123 125 0.1281481434165009 19 527 25 1438
341 0.9439529972846785 -0.006190798795661396 -0.37769460740126276 42 49 49 0.9520219262991744 19 609 25 1872
342 0.9918580018995095 -0.012726186795850612 -0.3743093831870024 68 77 77 1.8695558683545241 19 646 25 2025
343 0.9502496779373132 -0.032515352041415105 -0.37667701967189365 36 40 41 1.660785111611417 19 775 25 2064
344 0.9392971822687863 0.050772721363623916 -0.3813468991796161 54 60 60 0.6595517240594619 20 1201 22 783
345 0.8851374738443287 0.03049662412323727 -0.37420854107971624 122 111 102 0.12906573762688778 20 1221 22 921
346 0.9382066120328596 0.024983621102493445 -0.3783310634648322 36 40 36 0.5853335370353868 20 1399 22 938 25 1626
347 0.9450685851698051 -0.004483033627731994 -0.3773385727959321 34 42 39 0.7486227593912839 20 1633 23 1882 24 939
348 0.9655088607312156 -0.004752041610113386 -0.3727737089248552 56 59 62 0.9785381676273841 20 1683 23 1855
349 0.9123130373927273 -0.039541182586149116 -0.39020388710769444 176 175 176 0.28736614522737164 20 1801 23 2082
350 0.8758133808897811 -0.04752537925453073 -0.3863692679245638 26 23 25 0.7022360942907162 20 1822 23 2140
351 0.8306850454491043 0.12840089237028537 -0.3841885376126584 205 205 209 0.04489223845439665 20 510 28 275
352 0.8307968524623456 0.072114349708154 -0.38459463276774075 203 203 205 0.20589442809176642 21 657 24 286
353 0.9871036162146696 -0.06004291306803348 -0.3803828182785431 60 48 61 1.6516721013576963 21 1783 24 1264
354 0.9627912280760285 0.03201318938703031 -0.37891142582769816 185 196 192 0.2223171767016361 22 885 24 684
355 0.986430609270552 0.028011295200340052 -0.3776577732825606 62 73 69 0.11679501046539396 22 906 24 712
356 0.9442557710785878 -0.0056317707940082284 -0.3782858715030762 36 44 43 0.02703675687715193 22 1142 24 946
357 0.8835112407528863 -0.00587509136358764 -0.38180049046620906 23 29 27 0.3217891850995128 22 1194 24 936
358 0.981532832759802 -0.06257157269821086 -0.3763197492953413 40 42 52 1.03014044774525 22 1365 24 1279
359 0.9131851966734738 0.08664289267982414 -0.379573363865868 26 32 30 0.008461953616537706 22 522 25 1194
360 0.9431253315234868 0.055273550229853606 -0.377412584072888 42 51 50 0.197717942790027 22 753 25 1458
361 0.9526023671101366 0.028843678564791007 -0.37471933906805033 51 56 58 0.32453994852103274 22 910 25 1646
362 0.93824274236773 -0.04166478311267378 -0.37665972110571944 169 175 175 0.8284461883542686 22 1318 25 2092
363 0.9043732239916596 0.03661770122343588 -0.382590100581468 24 30 28 1.1401157559243265 23 1640 24 618
364 0.831897420998205 0.08418082753035079 -0.38817887674153984 181 181 180 0.12238564801736913 24 218 25 878
365 0.8319421158943882 0.06364264230992082 -0.3860698681434953 121 120 116 0.04372654461728669 24 357 25 1030
366 0.8319421158943882 0.06364264230992082 -0.3860698681434953 121 120 116 0.04372654461728669 24 358 25 1031
367 0.829448080529078 0.052511523604720924 -0.3863926245578556 177 179 178 0.3509065903776388 24 442 25 1105
368 0.8593173579545633 0.012225801300370067 -0.38258669146623736 162 170 169 0.5038204076557921 24 779 25 1465
369 0.8303111908690487 -0.0025913156533908088 -0.3829752110510499 181 181 185 0.33040910043217664 24 891 25 1471
370 0.8530618518836743 -0.012323162673613287 -0.38335759785837203 28 28 30 0.4732485975487647 24 974 25 1608
371 0.8308590606175131 -0.015164462155738053 -0.3839513974386717 133 132 135 0.25421542301982003 24 993 25 1564
372 0.8308590606175131 -0.015164462155738053 -0.3839513974386717 133 132 135 0.25421542301982003 24 994 25 1565
373 0.9413524473586307 -0.042145027575002714 -0.3703759870947393 29 35 33 0.21234302115346043 24 1189 25 2116
374 0.9413524473586307 -0.042145027575002714 -0.3703759870947393 29 35 33 0.21234302115346043 24 1190 25 2117
375 0.8827537247075513 -0.07252791923544058 -0.3777415936253635 168 168 164 0.5920828274453455 24 1337 26 1366
376 0.8296800207222006 0.07266599272626559 -0.385046607682184 191 191 193 0.4455620959614381 24 277 27 350
377 0.8808198609287754 0.05376865180732761 -0.3747424589756732 23 29 27 1.3194186603192113 24 468 27 518
378 0.761692612132955 0.09856122806556564 -0.38766565100417116 21 19 18 0.29829562813055976 25 309 26 311
379 0.7696475996534388 0.09513065581643143 -0.39188876231013187 39 40 36 0.09653075757119664 25 450 26 351
380 0.7614222683892102 0.0862375686339928 -0.38836903320069543 46 47 43 0.44278895427529974 25 463 26 363
381 0.7628716399736356 0.06823064123415726 -0.38979963390582667 52 59 53 0.29914334159819467 25 650 26 430 28 615
382 0.8306733309997509 0.0661491377358653 -0.381127191108917 134 133 137 0.41926376717352476 25 998 26 538 29 624 28 644
383 0.7667244688731377 0.10771877884289977 -0.3904040659855634 18 17 17 0.1481200386897088 25 260 27 164
384 0.7663174799857237 0.06952640445999508 -0.3900643331563915 25 25 21 0.47138714449937974 25 668 27 285 28 611
385 0.7675752523888076 0.0659109365081978 -0.3894317066784668 55 58 53 0.303659273742265 25 707 27 294
386 0.7716168917146454 0.06481709539318242 -0.38881773580008866 51 51 51 0.17586720824856228 25 739 27 300 28 650
387 0.7656052789161308 0.07986627412763088 -0.3914514128554175 31 31 27 0.2262364487140641 25 571 28 520 26 389
388 0.7639667800983865 0.05593405999347128 -0.3894458276414803 62 62 62 0.11391304616412286 25 774 28 720
389 0.7639667800983865 0.05593405999347128 -0.3894458276414803 62 62 62 0.11391304616412286 25 775 28 721
390 0.7668003551233943 0.04485040101008949 -0.38935294917505775 25 25 25 0.006540584543102834 25 870 28 808
391 0.7696062002038553 0.04576160257047154 -0.3878701770472307 48 43 39 0.12194149236044938 25 877 28 801
392 0.7645672290635878 0.04160341753485225 -0.3883982058488607 68 67 67 0.12157380258604443 25 880 28 830
393 0.7645672290635878 0.04160341753485225 -0.3883982058488607 68 67 67 0.12157380258604443 25 881 28 831
394 0.7661168034663406 0.04160268189169305 -0.3893839349036862 30 27 24 0.0659784834421763 25 895 28 832
395 0.7646589794451507 0.04006476577075898 -0.38988529100512576 41 38 33 0.1889802320586575 25 903 28 845
396 0.7643876902228077 0.03505402685367349 -0.38951234820241937 33 30 27 0.2898195567613362 25 945 28 909
397 0.7678163295313942 0.03661212492056088 -0.3886954490290846 24 23 23 0.24245203119943173 25 948 28 886
398 0.7693691234409517 0.028561215448184064 -0.3884613930107039 29 24 22 0.2836911716193326 25 1012 28 967
399 0.8290885341548829 0.058167478452594436 -0.379997053428281 143 146 149 0.856155100514283 25 1054 28 707 30 1005
400 0.8290084632390583 0.05815054660218634 -0.3795738356858046 154 160 164 0.786056857221245 25 1055 28 708 26 583 30 1006
401 0.7744746993756736 0.027376693524203882 -0.38839118527197736 62 63 59 0.28154479133242144 25 1057 28 976 27 485
402 0.7674658364616095 0.01949545543746063 -0.3884412821302975 26 26 23 0.22378311031649908 25 1082 28 1045
403 0.828570146864699 0.05188487810017518 -0.3808885145877679 176 176 177 0.14097058149670505 25 1094 28 758
404 0.8321428631624135 0.04967450936435597 -0.38150424626501706 172 174 172 0.15237622617215119 25 1142 28 768
405 0.8312895613160957 0.044176044380292004 -0.38177559171691233 133 130 129 0.03698777219876254 25 1179 28 813
406 0.8310129310861226 0.03979960343706726 -0.38121266822460975 165 165 165 0.10119357930825038 25 1203 28 846
407 0.8299251782287631 0.03641814915214229 -0.37981624192583824 176 182 189 0.596479879652499 25 1219 28 880 30 1153
408 0.8773030814711198 0.0556375801465593 -0.3815399589484413 173 176 175 1.076285536239089 25 1256 28 737
409 0.8821799159657884 0.019528619539997034 -0.3792758690981571 24 27 28 0.6998803818220154 25 1493 28 1032 29 823
410 0.7717929938818919 0.11967126251348618 -0.38176503723269467 51 51 47 0.0212984973215831 26 233 28 277
411 0.7645772593983929 0.11770530450903101 -0.39224436270926105 53 54 51 0.44437791340570304 26 251 28 288
412 0.7681438043814965 0.11448262529882859 -0.3910681118937317 57 58 54 0.2871893024846339 26 265 28 308
413 0.7736386573246948 0.09967410097251846 -0.3872930782399161 61 62 58 0.006858771425366574 26 327 28 345
414 0.7611474220874236 0.08904903435929004 -0.38738317783357157 35 39 32 0.13598026873927999 26 355 28 419
415 0.7618281400816718 0.08031930301034658 -0.39025508018250415 44 44 43 0.2236116925867932 26 380 28 508
416 0.7618281400816718 0.08031930301034658 -0.39025508018250415 44 44 43 0.2236116925867932 26 381 28 509
417 0.762746679309686 0.07928267874203927 -0.39146646324968465 45 46 42 0.21958523316142572 26 386 28 524
418 0.8284827029230943 0.09514798054224403 -0.3805041521343404 187 190 193 0.2643375039132856 26 414 28 393 29 482
419 0.7755367167589028 0.07452608092182837 -0.3895609705591432 53 52 52 0.0947575906313598 26 424 28 568
420 0.829575703641853 0.0876801541232469 -0.3787995148855854 125 125 128 0.06102788500010272 26 446 28 452
421 0.7748184686028919 0.06520150227720348 -0.38831658196277496 20 20 16 0.17295916017216023 26 461 28 645
422 0.7682638084950331 0.059962933857170844 -0.3917341841351404 58 57 55 0.06899155563206934 26 478 28 695
423 0.7687583465804754 0.05672784848547099 -0.38924282175043523 61 61 59 0.10971816520457241 26 498 28 717
424 0.7694599266866825 0.05238730832777375 -0.3913893466956986 64 65 61 0.03439346437255625 26 513 28 755
425 0.8319147566708104 0.0710117554148761 -0.37953361578220407 183 183 183 0.22263677697865106 26 520 28 606 29 592
426 0.7674688136919512 0.040586504883998106 -0.3898392751588386 47 48 44 0.10681063598446096 26 566 28 844
427 0.7717060933091017 0.036599364555914324 -0.39208356321269416 21 19 16 0.025748914478196373 26 609 28 893
428 0.8685637061693161 0.06514586571810035 -0.37582903732201833 176 184 185 0.2351056134797385 26 620 28 665
429 0.956596649607484 0.06349915752949392 -0.3685314117794367 51 59 57 0.8222890623089272 26 790 28 688
430 0.8309915172605772 0.024139977981618405 -0.3804602367285055 113 113 114 0.057356816886750796 26 809 28 998
431 0.8303825070293319 0.005281195692933254 -0.38034171636832065 176 182 183 0.030156195294507727 26 907 28 1156
432 0.9878770629735049 0.03778077077670339 -0.3645775493421385 77 85 84 0.5386583046754617 26 955 28 862
433 0.8296570325233831 -0.01681673238290813 -0.3775400688266666 167 174 175 0.6773544074092291 26 1051 28 1279 31 1949
434 0.8299884906346021 -0.03148529147058018 -0.38196329213452096 169 173 175 0.07338515620266783 26 1136 28 1353
435 0.9724369307178266 -0.011127816834428417 -0.3676801460277485 51 56 58 0.7221801713517224 26 1174 28 1223
436 0.8761334883828524 -0.03637270929098344 -0.37784342938873194 23 29 27 0.23630481387895275 26 1203 28 1361
437 0.9569354089523793 -0.024771326566284214 -0.37136635519200717 43 45 51 0.14028927782525552 26 1224 28 1281
438 0.9133607733232236 -0.0973362748795947 -0.37389151708377893 28 34 34 0.3587918606533029 26 1439 28 1557
439 0.9372748272919603 -0.09758535303554398 -0.3736643973753366 31 37 39 0.4906867105519727 26 1444 28 1555 30 1820 31 2139
440 0.828338339308837 0.1089432799804394 -0.37818224775008774 156 155 158 0.33050688207457973 26 370 29 441
441 0.7682504188250275 0.10776030986490664 -0.38196107195675205 34 34 33 0.13422511446478197 27 153 28 319
442 0.7660889907369772 0.08918906843095854 -0.3899246732055954 54 52 49 0.08001406844313938 27 228 28 428
443 0.7622172442923857 0.08271028362568883 -0.39124813282445753 52 53 49 0.05266285387257397 27 245 28 480
444 0.8302815253668799 0.10338133256509716 -0.3800124989454318 190 193 195 0.38064210518296254 27 257 28 339 29 458 30 651
445 0.7671897995989843 0.06108915854027667 -0.3886193947248061 50 51 47 0.17026769786759094 27 304 28 686
446 0.9218315438965635 0.06571101517872383 -0.37499368899228835 187 191 190 0.44085793062997247 27 529 28 677
447 0.8282857110848533 0.03610557148652554 -0.3804036013113399 180 183 183 0.17667683546717644 27 538 28 888
448 0.9071991063298193 0.0554254347074199 -0.3770509260312562 33 39 39 0.2416877708936216 27 565 28 739
449 0.8310520116735475 0.020032792089534842 -0.38116706873983747 152 150 149 0.3108086157042423 27 647 28 1035
450 0.8323081333498938 0.020283089447056698 -0.3813984859282346 177 174 172 0.33928278228557956 27 650 28 1033
451 0.892072713194915 0.03520807444642543 -0.37502572721356886 171 184 183 0.8475566912083135 27 664 28 899 30 1145 31 1427
452 0.9905516579635921 0.040976503458039035 -0.3679210321140815 67 77 77 1.840484855017956 27 760 28 835
453 0.9829707780419126 0.035510811307909694 -0.3706688007467187 63 71 72 1.836633265955966 27 795 28 894
454 0.9674236378518787 -0.006279881071277176 -0.37015183182462186 54 62 63 1.6112460593266578 27 987 28 1203
455 0.8307425461525754 0.10947949365868376 -0.37905881363647115 144 140 142 0.3242278945599912 27 236 29 439
456 0.8281127437114864 0.07977180537339999 -0.3797206725334932 188 188 188 0.06921993184052551 27 314 29 540
457 1.001485118479625 0.05017845327734113 -0.37547010598942177 66 70 71 0.6680311524089282 27 728 30 1045
458 0.9312306638572798 0.012652446281314771 -0.375339175758942 178 184 183 0.03841982000340615 27 861 30 1292
459 0.8274434740245122 0.09283942053721854 -0.3792039168706285 189 192 193 0.019329307709955324 28 407 29 490
460 0.8322507219443714 0.07127480220217186 -0.38093506574647223 186 188 187 0.10262534244317055 28 605 29 591
461 0.8817611841905177 0.019470571306471753 -0.377733947237971 23 28 25 0.06409803596502787 28 1031 29 822
462 0.9386667033802112 -0.03669294478375629 -0.3753869774694907 33 41 40 0.4437016607197188 28 1338 29 1022
463 0.8304373855226331 0.09474267217931547 -0.3781043014361206 190 189 190 0.09344186116764323 28 392 30 697
464 0.8281089374901061 0.09259581181188806 -0.37876420142072587 184 186 187 0.04278677596601949 28 409 30 720
465 0.8753804231910767 0.08570228696296367 -0.37658597612097244 31 34 33 0.46999218628479134 28 488 30 771
466 0.9677927716279376 0.05049686989971575 -0.370969379289452 181 188 187 0.5764654466643117 28 779 30 1037 31 1196
467 0.9060315725869619 -0.011242096664823795 -0.3739379653732991 167 173 173 0.29795219581574733 28 1240 30 1479 31 1732
468 0.8332076217842831 -0.033376334316642484 -0.37954949442150837 161 167 165 0.738175660448797 28 1364 30 1657
469 0.943380267120915 -0.04197246894620526 -0.3724033171841122 30 33 36 0.1656516144313614 28 1369 30 1643
470 0.9323626598399027 -0.05801339832920691 -0.37268998021900734 27 32 34 0.36635148095149067 28 1450 30 1716
471 0.881558625148434 -0.07247197138155684 -0.3758049858580863 169 170 166 0.3537486032469683 28 1514 30 1787 31 2122
472 0.9837168508650526 -0.1514540054767806 -0.37417679405462795 14 18 15 0.9224071519571151 28 1571 30 1850
473 0.8531433402474643 0.05790666525968157 -0.37500783777807783 31 34 33 0.6862603064677587 28 710 31 1314
474 0.8293108046432189 0.005366902463443982 -0.3763950994348369 176 182 183 0.0710767921654963 28 1155 31 1755
475 0.9061180806024092 -0.03643874998504373 -0.373907724846128 166 172 170 0.006274924546487751 28 1351 31 1935
476 0.8402015234265968 0.06613212425374643 -0.37782375606676527 187 190 191 0.185352114079701 29 619 30 941
477 0.8807111874325838 -0.00579803429209883 -0.3726624903855525 35 38 37 0.19635497035402347 29 920 30 1452 31 1740
478 0.9488641192803394 -0.015924391152645774 -0.3724800489865266 80 88 90 0.25824670695715024 29 947 30 1486
479 0.9355523683159794 -0.03569530474787023 -0.36933176652184546 27 30 29 0.012836862536068985 29 1023 30 1611
480 0.9105691300506439 -0.035649889953690596 -0.3691522364742843 28 31 30 0.17734881020031235 29 1032 30 1628
481 0.8754165717172633 -0.03627662110236869 -0.3748496303528082 25 28 26 0.518311131882591 29 1046 30 1649 31 2000
482 0.9241818587596962 -0.05319134858809101 -0.37149366013790874 166 169 169 0.01721983115297984 29 1095 30 1700
483 0.9119030270173324 -0.09453028584418653 -0.36762922126072717 22 28 28 0.06717151432533605 29 1213 30 1825
484 0.9369594714340339 -0.04168642988276626 -0.371368903203434 185 188 189 0.06632143494798963 29 1051 31 1907
485 0.9432836763794791 -0.06718468325485612 -0.37207879245233555 27 35 34 0.9334592083857179 29 1140 31 2045 30 1746
486 1.0934653454064014 0.1008415800653769 -0.36519854281451386 99 93 96 0.8373813734202183 30 707 31 698
487 1.0768657463216933 0.10014719779015034 -0.36622968820838164 91 90 92 0.7363352249247127 30 714 31 715
488 1.0884126266639012 0.0956853107751556 -0.364433125942889 108 107 107 0.7822343912698987 30 729 31 737
489 1.0855169776618732 0.09284256627981875 -0.3653001043885192 107 106 106 0.7405107472722601 30 752 31 759
490 1.079009265991799 0.08856576246532101 -0.36410457192849466 169 174 174 0.68650895614726 30 773 31 790
491 1.089932319593549 0.08805056802028337 -0.3626857939874325 163 166 165 0.7604052474220566 30 786 31 779
492 1.083471454306989 0.08686539690865282 -0.3644551212820028 169 169 169 0.7533602324827067 30 795 31 801
493 1.087886715590709 0.08669933869267749 -0.36372923357192594 91 91 93 0.6811990387442657 30 796 31 796
494 1.0748499559326885 0.08638221144297552 -0.36619455954486735 160 165 166 0.7558555491467509 30 800 31 815
495 1.0834714354258599 0.08393661974636367 -0.36439060757250014 166 169 169 0.6418589413507552 30 809 31 819
496 0.8807263898252289 0.07951533984703654 -0.374170624923405 29 32 35 0.08324522044491098 30 828 31 1092
497 1.089648512142584 0.07966341445354556 -0.36407475067563594 107 106 107 0.670409014847789 30 841 31 842
498 1.089648512142584 0.07966341445354556 -0.36407475067563594 107 106 107 0.670409014847789 30 842 31 843
499 1.0900439167172264 0.07948057032354185 -0.3670617450258992 172 177 177 0.7745796010490513 30 846 31 856
500 1.0724422285556034 0.07875239444415645 -0.36601319611974625 98 99 95 0.6306015313635696 30 847 31 875
501 1.0831662816888863 0.07487062475418535 -0.3616215064810111 107 107 111 0.3980695235566041 30 863 31 879
502 1.0866593507777134 0.07498098767955802 -0.3628606200642903 165 170 170 0.6538724714580313 30 865 31 880
503 1.0737991698191447 0.07400885983042993 -0.3649630819898227 157 165 164 0.4711233830190772 30 877 31 898
504 1.08031025027731 0.07171113127348991 -0.3656813239426791 109 109 112 0.6026854385466387 30 890 31 907
505 1.0859121143159252 0.06951309119704935 -0.3641622199332521 112 112 116 0.6464397783116768 30 912 31 911
506 1.0803173117069689 0.0694740818407727 -0.3640885652750777 170 175 177 0.4623229590554366 30 913 31 921
507 1.0838322257313229 0.06972651792127976 -0.3659114299128371 166 169 170 0.6431905682274893 30 914 31 922
508 1.0939216228748965 0.06756539422589124 -0.36474395658289305 164 166 164 0.7606599600973029 30 930 31 923
509 1.0878609660962055 0.06702174742510748 -0.36611488165363465 128 129 131 0.7006198569112135 30 935 31 932
510 1.0863125135256297 0.06297286383031125 -0.36146746266859514 158 163 162 0.4091533748431219 30 961 31 944
511 1.0911678143553842 0.06331892421231143 -0.3644560343776516 111 114 114 0.5777533224541246 30 962 31 948
512 1.0762435008588243 0.06231614165924337 -0.36660869580979694 149 153 152 0.6027638855163645 30 971 31 982
513 1.087707596589091 0.06203966579793726 -0.3653818440851215 109 109 112 0.5698424749937477 30 972 31 964
514 1.087707596589091 0.06203966579793726 -0.3653818440851215 109 109 112 0.5698424749937477 30 973 31 965
515 1.0836061251679372 0.06149308028874308 -0.3650549288193797 153 159 159 0.6850873048790952 30 978 31 971
516 1.0920912241639942 0.058543669604694 -0.3645167106570198 109 108 110 0.5250420257652271 30 993 31 985
517 1.0920912241639942 0.058543669604694 -0.3645167106570198 109 108 110 0.5250420257652271 30 994 31 986
518 1.0865254595315519 0.056729343678435545 -0.3630364426684821 135 138 139 0.46035622502555956 30 998 31 1002
519 1.081172448906002 0.05513336864566591 -0.3649895195752959 111 112 112 0.340943042998433 30 1007 31 1023
520 1.0931798511972022 0.054236354003861814 -0.36316125772485475 163 166 160 0.49147320206895034 30 1010 31 1013
521 1.086756080134927 0.053053128456787314 -0.36547056001846373 163 167 167 0.5837036988602371 30 1018 31 1029
522 0.8799244582533698 0.05424809852861454 -0.37046583636545616 25 31 31 0.26526476953876565 30 1024 31 1297
523 1.0902144424325997 0.051166022143861324 -0.36408363385897646 165 165 167 0.46568942009020564 30 1028 31 1032
524 1.0877456857474785 0.049218765151138905 -0.3638349690935336 96 95 100 0.44360402180377956 30 1034 31 1048
525 1.0826542159415475 0.04924680304216392 -0.3647351939025251 157 163 161 0.28236419207987057 30 1035 31 1056
526 1.0774434310145315 0.04818362908461207 -0.3649337916844632 98 97 99 0.33392136190600225 30 1040 31 1066
527 1.0860602827381232 0.047695205244877296 -0.3634270099750005 159 159 162 0.5475905990033271 30 1041 31 1058
528 0.9355270166108679 0.04940419724062106 -0.3698003392584286 29 32 31 0.05327356219181813 30 1046 31 1241
529 0.9355270166108679 0.04940419724062106 -0.3698003392584286 29 32 31 0.05327356219181813 30 1047 31 1242
