# 3D point list with one line of data per point:
#   POINT3D_ID, X, Y, Z, R, G, B, ERROR, TRACK[] as (IMAGE_ID, POINT2D_IDX)
# Number of points: 426
1213 1.0763909057080183 0.12466743528386645 -0.3815649427615066 121 121 121 0.37282151701642213 15 512 22 369
1214 0.8915750536940495 0.09427220422882451 -0.38449556151496744 194 194 196 0.2088667202780938 15 563 22 468
1215 0.8639361079776654 0.07022155316044744 -0.38371776700748134 37 31 30 0.3179381491635071 15 692 22 645 24 335
1216 0.9926101764671562 0.07400729184052686 -0.38018307116783717 67 72 73 0.31040346495265797 15 704 22 633
1217 0.9221041989540267 0.06982106912912213 -0.38113728289232385 46 38 29 0.2519044815111783 15 710 22 659
1218 0.9221041989540267 0.06982106912912213 -0.38113728289232385 46 38 29 0.2519044815111783 15 711 22 660
1219 0.9400487770928366 0.05582369121709387 -0.3808411292565194 178 186 183 0.23189662625518034 15 794 22 751
1220 0.9472337208689965 0.01971496096152159 -0.3826634032754035 31 38 37 0.12189271799076604 15 965 22 972
1221 0.8637323494015063 0.00010763252845855972 -0.3815498173622371 176 179 180 0.18248724196326224 15 1096 22 1164
1222 0.8637323494015063 0.00010763252845855972 -0.3815498173622371 176 179 180 0.18248724196326224 15 1097 22 1165
1223 0.915140205468076 -0.006060102531937078 -0.38071672375247023 159 168 165 0.0019668907370540534 15 1103 22 1171
1224 0.915140205468076 -0.006060102531937078 -0.38071672375247023 159 168 165 0.0019668907370540534 15 1104 22 1172
1225 0.9638331163724333 -0.019208468153428953 -0.379216285880886 53 52 54 0.3582253967995928 15 1152 22 1214 19 679 25 1977 20 1760 28 1261 24 1041
1226 0.873141575577837 -0.04785581755314248 -0.38133206446699003 20 20 20 0.25965825403844117 15 1308 22 1378
1227 0.873141575577837 -0.04785581755314248 -0.38133206446699003 20 20 20 0.25965825403844117 15 1309 22 1379
1228 0.8659435321582251 -0.05527295641769076 -0.3815381271989829 167 167 169 0.314466588465714 15 1338 22 1409
1229 0.8597620237564642 0.06518934843897659 -0.3798714128333768 49 41 45 0.1456922747428949 15 716 23 1465
1230 0.8597620237564642 0.06518934843897659 -0.3798714128333768 49 41 45 0.1456922747428949 15 717 23 1466
1231 0.8782308612314063 0.02491706872343038 -0.3815990202872303 31 34 33 0.011226890289668197 15 951 23 1744
1232 0.9871549134715841 0.008517239882914945 -0.3796302688003099 63 69 73 0.26006055622680563 15 1013 23 1739 16 799 21 1404
1233 0.9102995063935257 -0.006237393940136645 -0.3841386227520013 32 35 34 0.07915407905013808 15 1105 23 1950
1234 0.9156454941869272 -0.01173194132841118 -0.38149306401922933 34 34 34 0.05246169445813718 15 1131 23 1967
1235 0.8894756171001316 -0.016835496673323708 -0.38221667531738956 20 23 22 0.35912500457621077 15 1159 23 2025 24 1013
1236 0.8894756171001316 -0.016835496673323708 -0.38221667531738956 20 23 22 0.35912500457621077 15 1160 23 2027 24 1014
1237 0.9510603579869378 -0.0341332835307895 -0.38199546335521384 41 44 47 0.151761863435303 15 1220 23 2038
1238 0.9510603579869378 -0.0341332835307895 -0.38199546335521384 41 44 47 0.151761863435303 15 1221 23 2039
1239 0.9837404011217674 -0.049128315608516236 -0.3782579472479988 198 201 200 0.1986953450983978 15 1272 23 2063
1240 0.9360823469790767 -0.04583050707737282 -0.37911649334501824 34 37 40 0.07132494377079616 15 1276 23 2088
1241 0.9844471535489281 -0.061236379935028666 -0.3794697710752293 199 199 201 0.22277770865224997 15 1304 23 2099
1242 0.8319556285141779 0.07148057259785513 -0.3836882517920006 189 191 190 0.14583628989450576 16 409 17 395 24 288
1243 0.8962483473755303 0.06872421701299324 -0.38243493495287284 20 26 24 0.03805509214528699 16 462 17 470
1244 0.8299175604791473 0.05466425451270321 -0.3855851017047623 193 194 194 0.2813566549804045 16 524 17 496 24 422 18 246 25 1080
1245 0.9564625590854312 0.02903003346963312 -0.3798113678365239 36 39 41 0.0457924609499693 16 697 17 696
1246 0.9298275912471978 0.009220462260076341 -0.38096633756231163 169 177 174 0.056772572204898335 16 794 17 794
1247 0.8639697340798758 0.008173773411304422 -0.3831992014580977 32 35 34 0.05891572755921171 16 804 17 783
1248 0.8326994478001736 -0.0015611478522814847 -0.3827886546760336 118 118 118 0.020700162513278643 16 867 17 834
1249 0.8921447566379379 -0.019660547306969887 -0.38281771034684386 40 38 33 0.08178776196994994 16 953 17 944
1250 0.8329988259064617 -0.025212771656660322 -0.38306403350103246 161 165 166 0.056156168389944645 16 993 17 977
1251 0.8958665260803239 -0.03131239611895473 -0.3816013121976957 149 158 157 0.14282423586716828 16 1009 17 1030 19 748
1252 0.8958665260803239 -0.03131239611895473 -0.3816013121976957 149 158 157 0.14282423586716828 16 1010 17 1031 19 749
1253 0.8334630806018992 -0.032555934539110064 -0.3832678678739128 89 84 88 0.05888779271198008 16 1034 17 1038
1254 0.8336362325432429 -0.035563939402510944 -0.3829290371395997 116 116 118 0.10049938364642953 16 1056 17 1061 24 1153
1255 0.8336362325432429 -0.035563939402510944 -0.3829290371395997 116 116 118 0.10049938364642953 16 1057 17 1062 24 1154
1256 0.9156136472417657 -0.04280169450725203 -0.3814685101495229 157 160 159 0.11813310306499371 16 1063 17 1096
1257 0.9156136472417657 -0.04280169450725203 -0.3814685101495229 157 160 159 0.11813310306499371 16 1064 17 1097
1258 0.8318391292910097 -0.03804434759997011 -0.3835071884084562 88 87 89 0.07265332718035708 16 1071 17 1085
1259 0.8318316917464388 -0.038040012301947916 -0.38327602359134477 88 87 89 0.13215399527411387 16 1072 17 1086 25 1750
1260 0.9047929532512764 -0.07845007672518799 -0.38053901832038683 19 24 19 0.15070313203911212 16 1180 17 1209
1261 0.9047929532512764 -0.07845007672518799 -0.38053901832038683 19 24 19 0.15070313203911212 16 1181 17 1210
1262 0.8952769372377483 -0.08167835528033301 -0.3813286726196208 23 23 19 0.12985659596901747 16 1194 17 1224
1263 0.8320138168477677 0.12302225150307289 -0.38596623730213986 138 132 136 0.4803454081185905 16 184 18 43 17 232
1264 0.963533952453813 0.039736903062113166 -0.38110915448859606 179 185 183 0.05127816371884495 16 645 18 445
1265 0.9021157030073516 0.0316611791725079 -0.3824184392926771 171 180 178 0.023818161388908767 16 672 18 446
1266 0.8897678842791369 -0.016919507185348615 -0.38292998313122395 29 30 26 0.3705070617579107 16 941 18 732 20 1616 25 1794
1267 0.8316873629837518 0.13140755576897728 -0.3869674435849528 188 185 185 0.06795803806901196 16 149 19 34
1268 0.9640551123588914 0.10586569581439755 -0.381673280166409 182 178 179 0.1958760943938464 16 298 19 93 23 1102
1269 0.9603704147118304 0.03173524627120339 -0.37965065751738525 49 52 53 0.0781796043498185 16 682 19 400 23 1614
1270 0.8319604427702877 0.005180943205533483 -0.38313559332133573 174 176 178 0.18204091109425388 16 820 19 493
1271 0.8319824172723962 -0.004606035255261558 -0.3833418347774231 159 165 165 0.16551379834644891 16 886 19 566 25 1482
1272 0.8584506326663082 -0.04844365428258753 -0.38266127251925075 20 21 18 0.1654619405590882 16 1098 19 839
1273 0.8318195920303154 0.14077483789440215 -0.3879189644588779 163 155 158 0.10963037534396732 16 121 20 501
1274 0.8315793078453053 0.1267765277726804 -0.3864401825791821 149 148 150 0.21368387896529373 16 168 20 514 18 40
1275 0.9915324294572098 0.10312430463569716 -0.3823080923343244 46 54 51 0.4636270217402086 16 332 20 979
1276 0.9482341177902264 0.08273248829450686 -0.38527148262676164 37 40 40 0.0989893842004141 16 420 20 1000
1277 0.8335336607174363 0.04751327814366519 -0.3839805700600572 194 194 198 0.05666596199867979 16 564 20 938
1278 0.8319582344356498 0.046068392567845624 -0.38415437037004546 148 147 149 0.032138830924687126 16 573 20 940
1279 0.8319582344356498 0.046068392567845624 -0.38415437037004546 148 147 149 0.032138830924687126 16 574 20 941
1280 0.9796361211951723 0.0516961172288048 -0.38460553526476743 54 62 61 0.18654466557444335 16 588 20 1267
1281 0.8317746310075753 0.029163335753847955 -0.3835600256816977 135 135 141 0.03296140218950676 16 676 20 1085
1282 0.8951633677489188 0.02867386485375009 -0.3830329782455204 23 26 25 0.23661142178678138 16 690 20 1244 25 1467
1283 0.8312029622679783 0.025609919301862148 -0.3830116243018194 145 145 149 0.0350984171328133 16 699 20 1111
1284 0.9475790432124561 0.019921076069566775 -0.38343414953542315 51 56 59 0.11464993288512318 16 753 20 1458
1285 0.8894901188810976 -0.016832650464748106 -0.38211979727017614 20 27 21 0.20321003370979804 16 940 20 1615 25 1793
1286 0.8983962678973813 -0.029688933584355103 -0.3815330059845895 32 30 28 0.33545362098338977 16 996 20 1727 19 735
1287 0.8983962678973813 -0.029688933584355103 -0.3815330059845895 32 30 28 0.33545362098338977 16 997 20 1728 19 736
1288 0.9528805190555475 0.10797142507653262 -0.38203247483274716 34 40 42 0.07836925710932863 16 280 21 645
1289 0.8320007778693502 0.08327364660385048 -0.3855615897924028 182 181 181 0.3928802522123016 16 344 21 606
1290 0.8320007778693502 0.08327364660385048 -0.3855615897924028 182 181 181 0.3928802522123016 16 345 21 607
1291 0.9620861699974466 0.09420357959848576 -0.38105364617738013 180 185 179 0.3063306926688693 16 361 21 758
1292 0.991768114027179 0.04115426978750938 -0.38086907521459307 53 64 62 0.4316753945020201 16 642 21 1139
1293 0.8330364855785575 0.03110845771597443 -0.3847929521410359 193 194 197 0.08388763655517402 16 666 21 1005
1294 0.8608640212133815 0.0011438982038689633 -0.3833977217671634 34 26 21 0.07595933581719239 16 849 21 1336 25 1541 17 827
1295 0.893309167204023 -0.028043425623106893 -0.38060230986238114 186 186 186 0.09177689508597031 16 992 21 1606
1296 0.9290331732470113 -0.06104098638047974 -0.38043294710264164 179 179 181 0.5952642379734961 16 1127 21 1781
1297 0.9529717105206067 -0.08020430350364793 -0.3788355471307728 184 187 188 0.3213421762640849 16 1172 21 1835 25 2272 17 1206 19 957 24 1346 27 1263
1298 0.9529717105206067 -0.08020430350364793 -0.3788355471307728 184 187 188 0.3213421762640849 16 1173 21 1836 25 2273 17 1207 19 958 24 1347 27 1264
1299 0.9026205890957533 0.10570995799547889 -0.38502222662989904 183 186 187 0.02967955529687386 16 270 23 1129
1300 0.8920341993089989 0.09489518692840583 -0.38587646703344813 181 184 183 0.049379648524714305 16 313 23 1207
1301 0.9513660979932379 0.09200059041071006 -0.381270477693996 34 40 39 0.10589991596439964 16 363 23 1203
1302 0.966756550203523 0.09027514304664659 -0.37960321943249586 47 51 48 0.10440436357823807 16 375 23 1206
1303 0.9964796171421304 0.08623228606705803 -0.3733853345326258 68 75 79 0.13672112214623308 16 404 23 1211
1304 0.8731185591533603 0.07561158415628857 -0.38592044500953376 29 35 35 0.2789207673736101 16 415 23 1363 20 877
1305 0.8731185591533603 0.07561158415628857 -0.38592044500953376 29 35 35 0.2789207673736101 16 416 23 1364 20 879
1306 0.8738755994138478 0.07649957930418685 -0.3893011893558591 21 27 25 0.20947164589426015 16 417 23 1365
1307 0.9330283156531667 0.07444696086126498 -0.38029547515183487 177 183 183 0.07154154781086607 16 446 23 1326
1308 0.9922981171712499 0.07365018364672275 -0.379799491104186 69 68 70 0.30073205329840474 16 483 23 1303 24 437
1309 0.9953257583527434 0.0697491606473671 -0.375393170360173 67 73 73 0.07423300941606376 16 499 23 1321
1310 0.9452592122058662 0.05012331124899154 -0.37898363403959845 181 187 185 0.024381341065528413 16 583 23 1513
1311 0.9163219144889132 0.019546910421560874 -0.3844761296142081 190 196 196 0.0992511794599835 16 750 23 1741
1312 0.979690553183686 0.01618062800902089 -0.377516957331879 67 72 79 0.04641151631196742 16 763 23 1699
1313 0.8713585631449059 -0.001206747565379709 -0.37930677505757815 30 30 30 0.14039334354842484 16 861 23 1963
1314 0.8313516407098175 0.11620587450937597 -0.38315747881068263 184 183 185 0.21754118710805134 16 207 24 132
1315 0.9414108955079077 0.11366200028687752 -0.38801206197241317 32 35 35 0.1122858344501094 16 260 24 181
1316 0.83170915302363 0.09122903084714805 -0.3843808357073979 135 131 133 0.21079304661328166 16 282 24 177 21 561
1317 0.8306913976175767 0.08363161986982087 -0.38244754947718257 141 141 143 0.15141340031682013 16 327 24 206
1318 0.9231292133742425 0.06385996427207162 -0.38349926540193996 48 38 37 0.02285096341803523 16 507 24 447
1319 0.9231292133742425 0.06385996427207162 -0.38349926540193996 48 38 37 0.02285096341803523 16 508 24 448
1320 0.8328943025199524 0.05414383683284971 -0.382628873654712 114 113 112 0.09483075336971603 16 525 24 425
1321 0.8315047914634736 0.05172815266038632 -0.38274369882462933 115 111 113 0.09453605970038563 16 541 24 440
1322 0.8324798815250619 0.05042427325044433 -0.38305619375318956 137 133 134 0.0847823256835233 16 550 24 452
1323 0.8317417265509811 0.047558682786453026 -0.3829319829504589 178 177 179 0.09956721505936428 16 563 24 474
1324 0.833264966979811 0.03149043519592001 -0.38264230703223184 149 148 149 0.08293488958200941 16 661 24 603
1325 0.9654895486694915 0.03205377684070164 -0.38159410599207144 176 184 181 0.07088410773592982 16 686 24 681
1326 0.9517375565978108 0.029772950585900456 -0.3819565068630088 32 40 39 0.04750631374463311 16 693 24 691
1327 0.9517375565978108 0.029772950585900456 -0.3819565068630088 32 40 39 0.04750631374463311 16 694 24 692
1328 0.8320431102699763 0.0027041425676862254 -0.382367121305778 177 176 178 0.05753181297333073 16 836 24 847
1329 0.9785263557147091 -0.0060745142281966365 -0.3808901247540515 179 185 185 0.013767128281098957 16 870 24 955
1330 0.9785263557147091 -0.0060745142281966365 -0.3808901247540515 179 185 185 0.013767128281098957 16 871 24 956
1331 0.9782473574853894 -0.011345847447839322 -0.3805837497495217 40 50 53 0.000319544822375391 16 891 24 989
1332 0.8313842640902659 -0.012775403948370954 -0.38292709793876933 121 120 122 0.03213970090252646 16 927 24 965
1333 0.8318064587396048 -0.013076593305763275 -0.3819073407965517 151 150 152 0.045971001961552176 16 929 24 971
1334 0.8323711341327823 -0.01499488849760815 -0.3826341029444092 172 178 178 0.04558946345467249 16 942 24 990
1335 0.9630409164916168 -0.029802554540412356 -0.37978752384792686 184 187 188 0.2990513484217111 16 983 24 1102 27 1081
1336 0.8337586901213221 -0.03419565609196386 -0.38354105511676323 121 117 120 0.017693130443068205 16 1044 24 1137
1337 0.8720678080184697 -0.05381936504989307 -0.38250973392405374 165 171 169 0.08491723822180779 16 1121 24 1248
1338 0.8720678080184697 -0.05381936504989307 -0.38250973392405374 165 171 169 0.08491723822180779 16 1122 24 1249
1339 0.9017115396354708 0.09463448870013257 -0.3828304478587848 180 186 184 0.24912304500798402 16 316 25 1088 26 527 28 446
1340 0.8837301232812841 0.04979165427438227 -0.3815492224504911 172 174 173 0.02722824767800318 16 570 25 1309
1341 0.8606332714075535 0.005124534157718527 -0.3839620586454577 162 170 169 0.02836885902674295 16 817 25 1513
1342 0.8974480563391142 -0.022656085603373927 -0.3811698347577502 154 165 162 0.01348508176708606 16 965 25 1853
1343 0.8325014970442502 -0.0337298622046893 -0.38268880109127024 156 160 161 0.11754521331276288 16 1042 25 1722
1344 0.9287132872786332 0.10383195008123225 -0.38494097006409156 24 28 23 0.14367659527311913 17 320 18 117
1345 0.9405610505597422 0.08171659633328152 -0.381720438492132 184 187 188 0.22477054805137897 17 427 18 208 24 341
1346 0.9408422519845949 0.05636551936586652 -0.3822913505685661 170 175 173 0.16082068708130892 17 559 18 330
1347 0.8953634945590289 0.04365844103378537 -0.38343489821879806 169 172 175 0.11660628450484105 17 599 18 384
1348 1.0730988324352995 0.02411928928859784 -0.384255845673916 114 117 116 0.0018933258863675344 17 771 18 598
1349 0.8323733005409844 0.0014879626277585557 -0.38387252342583733 172 175 178 0.039565308171548616 17 814 18 590
1350 0.9869030951910777 0.002437168676312984 -0.38272153622189775 60 65 70 0.12200805875067598 17 848 18 662
1351 0.9869030951910777 0.002437168676312984 -0.38272153622189775 60 65 70 0.12200805875067598 17 849 18 663
1352 0.9100339968502805 -0.011575144235996915 -0.3827589628982062 160 166 166 0.1417178654366579 17 901 18 713
1353 0.8319693626082623 -0.025186742552641406 -0.38348399424153745 169 175 175 0.03524925896621779 17 976 18 763
1354 0.8331833279717207 -0.027027418684893997 -0.38393222920430725 179 180 182 0.04683572808481255 17 993 18 775
1355 0.9730048182738184 -0.03720203255148869 -0.3819287850579837 170 177 174 0.11851226716425663 17 1063 18 864
1356 0.938208903054641 -0.04626894898094704 -0.38275028089604873 26 29 30 0.15008942903955014 17 1101 18 897
1357 0.983297393453498 -0.05718526075308597 -0.3817279132792337 40 46 47 0.10798411401277035 17 1128 18 946
1358 0.9927145081127896 -0.06196158082739431 -0.3803599314639844 177 182 182 0.10004619345722568 17 1146 18 970
1359 1.007176922116694 -0.15070532541771747 -0.3781531182676728 19 20 20 0.0665208857940723 17 1268 18 1083
1360 0.8333238786832612 0.08968208084391745 -0.38397532272720214 198 197 199 0.0469999303066885 17 306 19 85
1361 0.831240280550279 0.055693956917297976 -0.38413443883915704 110 109 109 0.14514692646239355 17 488 19 222 24 407
1362 0.831240280550279 0.055693956917297976 -0.38413443883915704 110 109 109 0.14514692646239355 17 489 19 224 24 408
1363 0.983655292436867 0.0668666233937438 -0.3795751202848968 179 179 180 0.193404442740016 17 526 19 256
1364 0.8602152057076061 0.011944468485474096 -0.3834034375458096 190 193 192 0.1508175475653874 17 763 19 471 24 778 20 1278
1365 0.960998486468747 -0.018229902442818365 -0.3800178537337258 168 175 175 0.10047883481840486 17 938 19 674 25 1960
1366 0.9530562088835176 -0.03016758974572538 -0.3797963397518836 170 177 175 0.0505408157156777 17 1019 19 752
1367 0.8317381422425097 -0.030689280670407017 -0.38250088343827615 176 179 182 0.32201124360386935 17 1028 19 731
1368 0.8336642029011406 -0.03417216137392382 -0.38294838283885096 119 121 122 0.23322953244472194 17 1052 19 765
1369 0.9094670888135007 -0.03741604181255015 -0.38085398723915453 167 177 170 0.06809550664697868 17 1076 19 799
1370 0.8872674448902398 0.09029721874664974 -0.38275864471254795 32 31 31 0.16772796966718714 17 331 20 832
1371 0.8836321094634532 0.0867672782299513 -0.3827617104675035 186 186 186 0.1758797321904306 17 357 20 843
1372 0.8329232168296958 0.056689350662622595 -0.38388090014357173 110 109 111 0.1396005390497827 17 479 20 882
1373 0.8329232168296958 0.056689350662622595 -0.38388090014357173 110 109 111 0.1396005390497827 17 480 20 883
1374 0.9200516995812283 0.060993162368100526 -0.382223081956652 40 46 44 0.15337048483269355 17 520 20 1089 19 251
1375 0.9630126528691271 0.03964891356485454 -0.38045501709592844 169 172 171 0.3883330848075929 17 642 20 1320 24 632 25 1604
1376 0.955747500895793 0.10408304108225397 -0.3791628298540358 37 30 25 0.10770369061496086 17 323 24 221
1377 0.9619383306144068 0.0940085215895811 -0.38070651781853443 189 192 191 0.23170661177024754 17 379 24 278 22 475
1378 0.9514167170336858 0.09195708755376686 -0.38126105355794637 41 52 48 0.25657125878028547 17 386 24 284 21 754
1379 0.9503596163398697 0.09105617551897388 -0.37928966835022926 29 32 33 0.13577263442198653 17 387 24 285
1380 0.8320174360995524 0.07209229060534247 -0.38424586191177834 192 190 193 0.16935082339934301 17 394 24 283
1381 0.9661861246133993 0.08977014696239029 -0.37878876336089096 38 40 40 0.13540821182186044 17 404 24 307
1382 0.8298606552452837 0.06588591395416389 -0.38497687516660456 191 191 193 0.2183966423131662 17 430 24 331
1383 0.9147692370058034 0.05009747361750671 -0.3814117080110235 28 31 32 0.08201454424365145 17 571 24 531
1384 0.9496009190949635 0.04647444563443598 -0.38020053530609466 34 37 40 0.06043400458591426 17 608 24 591
1385 0.9903561170182499 0.04076188733664543 -0.3789900216846842 50 58 57 0.181433993895847 17 644 24 636
1386 0.9903561170182499 0.04076188733664543 -0.3789900216846842 50 58 57 0.181433993895847 17 645 24 637
1387 0.8728729867736281 0.012784361782629662 -0.38315428589405637 23 26 25 0.23705494645738076 17 760 24 777
1388 0.8312568546670024 0.008337451588957046 -0.38321427988762496 129 129 131 0.034980213996975644 17 772 24 789
1389 0.8315243157698997 -0.027814286896900478 -0.38274422753641735 107 110 111 0.12930620532530945 17 999 24 1087 25 1651
1390 0.832456578400845 -0.03485816740781426 -0.38263734026142976 85 79 84 0.36789634885908656 17 1055 24 1143
1391 0.832456578400845 -0.03485816740781426 -0.38263734026142976 85 79 84 0.36789634885908656 17 1056 24 1142
1392 0.8321249323154302 -0.03674084121086573 -0.3831623856920675 109 112 114 0.19721092386931105 17 1080 24 1164
1393 0.9839078528206707 -0.049371864440929863 -0.37850504170334265 184 189 187 0.010571041507117053 17 1103 24 1210
1394 0.9773583936878807 -0.0731533281957343 -0.37849304967440106 32 40 42 0.03126677586911269 17 1182 24 1320
1395 0.8319958095190094 0.11060398524246581 -0.38585464126403746 148 145 142 0.47286689538531934 17 260 25 673
1396 0.8317714934852195 0.09590541220342758 -0.3848651327600456 172 168 171 0.2677538238429956 17 283 25 791 26 419
1397 0.9017613263283024 0.10493232553017297 -0.38254826782917534 181 180 180 0.2951346893064373 17 297 25 1013
1398 0.9017613263283024 0.10493232553017297 -0.38254826782917534 181 180 180 0.2951346893064373 17 298 25 1014
1399 0.8300632233892097 0.07106594633775 -0.38476065155316197 194 194 194 0.31610060179605687 17 397 25 961 27 356
1400 0.8299577297209204 0.04822700513585352 -0.3855007112369603 175 179 174 0.8616904165417577 17 529 25 1146
1401 0.8677743969591984 0.008746488669648637 -0.3824057102506466 164 172 172 0.11470209423542727 17 780 25 1506 28 1110
1402 0.8677743969591984 0.008746488669648637 -0.3824057102506466 164 172 172 0.11470209423542727 17 781 25 1507 28 1111
1403 0.8315244175092152 -0.0260666869620563 -0.38328813381459875 136 136 138 0.045595395355345694 17 985 25 1632
1404 0.8314890643165816 -0.027838054393738935 -0.3824980075713863 120 124 124 0.05111479725354655 17 1000 25 1652
1405 0.8325289570541273 -0.03597183434888004 -0.3829768668167985 170 175 173 0.09711420116411187 17 1067 25 1739
1406 0.8333299549702052 -0.03779155311435347 -0.3825438532713875 96 96 96 0.0834360116464593 17 1084 25 1760
1407 0.9809567047850464 -0.045740912332329464 -0.3788618430754893 46 49 49 0.1566116988900223 17 1100 25 2195 28 1374
1408 0.9269040467421759 -0.050300613699306836 -0.38130713847439407 41 47 47 0.06729601679213998 17 1107 25 2110
1409 0.9269040467421759 -0.050300613699306836 -0.38130713847439407 41 47 47 0.06729601679213998 17 1108 25 2109
1410 0.9318592229151053 -0.05183026389713918 -0.38114804143037706 167 170 171 0.07476784356073872 17 1115 25 2132 19 848
1411 0.8722763736935366 -0.05377412922758905 -0.38287111147709263 158 164 164 0.09761859637368 17 1129 25 1967
1412 0.9541256733914882 -0.09407122149848178 -0.3791313644200009 25 31 33 0.11369263606992631 17 1236 25 2291 27 1285
1413 0.8299635822572524 0.06342846317618941 -0.3854951763471289 198 201 204 0.07490294177730719 18 199 20 846
1414 0.9852369452091159 0.0640571035202525 -0.3814174115661254 88 90 94 0.29915181115773937 18 326 20 1208
1415 0.860117894086187 0.004887161269118784 -0.3816363069683797 192 192 193 0.3251577487089615 18 586 20 1347
1416 0.996350997428748 -0.0007153864246521543 -0.3778601387558723 61 72 72 0.5425191581256937 18 679 20 1690 22 1070
1417 0.9606651078957537 0.0318334672763757 -0.38026477166923145 55 63 62 0.3471711635547525 18 480 21 1185
1418 0.9651742352218263 0.0320756640949361 -0.38121395217800935 193 200 199 0.35875401870319684 18 484 21 1191
1419 0.9020470639445272 0.10515134281650147 -0.3833971620329444 182 181 181 0.05517170384002888 19 73 20 770
1420 0.8965606041206874 0.06889331621457756 -0.3828369273153855 27 33 31 0.0808170148425027 19 204 20 961
1421 0.8938294394603082 -0.028479842618648075 -0.3820169300458509 187 188 187 0.3104176710404802 19 728 20 1707
1422 0.8319978628651313 0.07170822658108673 -0.3841794885462715 193 198 199 0.11193549475923596 19 148 21 659 20 798
1423 0.8309443140470051 0.07135686078749752 -0.38464073719875375 142 141 144 0.10187412303030767 19 150 21 661
1424 0.8637802482533308 0.07028300070288011 -0.383260618381988 41 37 35 0.12514074577304315 19 177 21 745
1425 0.998678559091227 0.028071988238859917 -0.3792541787373253 70 73 74 0.29797957043783013 19 440 21 1275
1426 0.9013838811923092 0.09425437938027117 -0.3818865807685978 193 196 197 0.03070725650753031 19 96 22 463
1427 0.9013838811923092 0.09425437938027117 -0.3818865807685978 193 196 197 0.03070725650753031 19 97 22 464
1428 0.9603219349674993 0.10253297518733029 -0.3815096011514663 42 37 39 0.1252666429784556 19 98 22 438
1429 0.9293127338613817 0.07202073962966404 -0.3813806277536538 196 197 192 0.026630229197271295 19 205 22 639
1430 0.9915337093783987 0.07106065972250616 -0.3800265662810442 180 180 180 0.15135699609719402 19 240 22 650
1431 0.9915337093783987 0.07106065972250616 -0.3800265662810442 180 180 180 0.15135699609719402 19 241 22 651
1432 0.8608332843900708 -0.05765970100143128 -0.3833462172057913 25 24 26 0.1276037853017767 19 879 22 1423
1433 0.8316959739102943 0.06571474379098625 -0.38385501953630213 176 176 176 0.13484694800159103 19 181 25 1005
1434 0.8601003149352288 0.06514984980786213 -0.382298486727351 35 30 20 0.06034682086320019 19 198 25 1141
1435 0.8601003149352288 0.06514984980786213 -0.382298486727351 35 30 20 0.06034682086320019 19 199 25 1140
1436 0.8331659029159427 0.05455984202914027 -0.3843915786068557 115 118 121 0.5266248886908859 19 230 25 1093 27 435 28 741 29 692 30 1032
1437 0.9367447366561605 0.058615887506835516 -0.3803992388353728 43 49 49 0.10876603443727827 19 267 25 1411
1438 0.887295712892189 0.027919741249506122 -0.3816017497002262 27 30 29 0.04280000627655783 19 382 25 1441
1439 0.8297782582647849 0.020811248398766226 -0.3827589285980868 170 174 173 0.13234393623271126 19 406 25 1313
1440 0.8320620021093869 0.011777929090776074 -0.3832186534016103 116 119 118 0.10839957568114494 19 461 25 1376
1441 0.8730950838922841 0.012945489983033147 -0.3839955669887012 19 25 23 0.0398248137894386 19 474 25 1501
1442 0.8310830014681603 -0.008048914879991237 -0.3829468545219394 160 170 173 0.13149551665940123 19 582 25 1503
1443 0.8324590903209 -0.007877136299965235 -0.38340497192625067 146 146 146 0.12837446764073382 19 583 25 1504
1444 0.8324590903209 -0.007877136299965235 -0.38340497192625067 146 146 146 0.12837446764073382 19 584 25 1505
1445 0.8327368895437169 -0.009957430857054412 -0.3831790767105124 110 116 116 0.15372478502823594 19 596 25 1524 28 1251
1446 0.8320318460567757 -0.017378397840761887 -0.38304010711127606 165 169 168 0.10794736313109439 19 636 25 1578
1447 0.8327283056311183 -0.030063130458372566 -0.38290589574019424 155 163 163 0.10923231802475296 19 724 25 1683
1448 0.9840685449300901 -0.06107784656830622 -0.3786350573229088 175 181 180 0.02526083816060908 19 891 25 2245
1449 0.9840685449300901 -0.06107784656830622 -0.3786350573229088 175 181 180 0.02526083816060908 19 892 25 2246
1450 0.8638258917510664 -0.06105190926649817 -0.3824532887271751 25 23 18 0.0024043453195243887 19 894 25 2003
1451 0.9531131306248467 0.09292849407468397 -0.38437275144907956 38 45 46 0.10550884321288222 20 947 22 488
1452 0.870792541942055 0.007540827573112309 -0.3812831771771395 49 45 46 0.10346241024302527 20 1356 22 1091
1453 0.870792541942055 0.007540827573112309 -0.3812831771771395 49 45 46 0.10346241024302527 20 1357 22 1092
1454 0.9540348200362947 0.032577038477879905 -0.3816316967828141 69 64 68 0.009316717178222942 20 1354 23 1617
1455 0.9540348200362947 0.032577038477879905 -0.3816316967828141 69 64 68 0.009316717178222942 20 1355 23 1618
1456 0.8986824136639072 -0.025977349397736008 -0.3811155381359397 161 169 167 0.2762126444640653 20 1700 23 2050 26 1171
1457 0.8986824136639072 -0.025977349397736008 -0.3811155381359397 161 169 167 0.2762126444640653 20 1701 23 2051 26 1172
1458 0.9618890472330679 -0.018495864378651524 -0.3820249021706793 201 204 203 0.037850404401829234 20 1746 23 1958
1459 0.8319637232281437 0.04635049034840745 -0.38266612934849686 160 155 158 0.0651373258668199 20 939 28 799
1460 0.8669420889604199 0.013729151372486812 -0.3852188513303414 26 28 27 0.1018848668331896 20 1279 28 1073
1461 0.8669420889604199 0.013729151372486812 -0.3852188513303414 26 28 27 0.1018848668331896 20 1280 28 1074
1462 0.9585755995027994 0.042903858378425454 -0.3773362276892519 70 74 79 0.14116074892225786 20 1288 28 820
1463 0.9083722562031554 0.019341927308397972 -0.37988590281218293 31 37 37 0.14268616870301115 20 1353 28 1029
1464 0.9184421540580022 0.01602213450560925 -0.38024557152994737 39 42 45 0.13555367170923585 20 1433 28 1049
1465 0.9469242846004944 0.019554954976529988 -0.38122774683616895 48 54 56 0.09982462623020485 20 1463 28 1021
1466 0.9469242846004944 0.019554954976529988 -0.38122774683616895 48 54 56 0.09982462623020485 20 1464 28 1022
1467 0.9780190580238299 0.0198881449818418 -0.3804927936847066 201 204 203 0.054458515126636194 20 1522 28 1010
1468 0.9780190580238299 0.0198881449818418 -0.3804927936847066 201 204 203 0.054458515126636194 20 1523 28 1011
1469 0.9620291748519942 -0.022245488629852716 -0.38150572065429955 45 47 55 0.4911391039545244 20 1773 28 1269 25 1985 26 1206 29 959 31 1704
1470 0.9620291748519942 -0.022245488629852716 -0.38150572065429955 45 47 55 0.4911391039545244 20 1774 28 1270 25 1986 26 1207 29 960 31 1705
1471 0.9410909541905419 0.08739342859542755 -0.3832026084952232 38 41 40 0.13661949646312604 21 770 22 528
1472 0.9265805561202095 0.07019075630990798 -0.3813191994662082 191 196 196 0.014399929449755766 21 860 22 653
1473 0.9731131863918144 0.05668628870990895 -0.38401506533205404 49 56 54 0.2033132788871626 21 1027 22 746
1474 0.9731131863918144 0.05668628870990895 -0.38401506533205404 49 56 54 0.2033132788871626 21 1028 22 745
1475 1.0747505153002868 0.0531571894561717 -0.378439036478421 116 119 118 0.36950697835347274 21 1160 22 764
1476 1.072893190451621 0.023900548945309588 -0.3843585569981701 108 108 110 0.2791953337677924 21 1379 22 913 24 786
1477 0.9205817964079485 -0.001201495173788765 -0.3821461447055702 33 36 35 0.03894913949002984 21 1410 22 1129
1478 0.920570449419331 -0.0011999285984992446 -0.38211175118010743 29 32 31 0.035489383472960684 21 1411 22 1127 24 908
1479 0.920570449419331 -0.0011999285984992446 -0.38211175118010743 29 32 31 0.035489383472960684 21 1412 22 1128 24 909
1480 0.9604357045683726 -0.01807934906343989 -0.37949472135123885 198 201 200 0.16866571135138475 21 1588 22 1211
1481 0.9844429270174543 -0.062341005038105704 -0.3728409743772051 40 40 44 0.4007891673027288 21 1795 22 1364
1482 0.9581462870950656 0.04403184459886715 -0.38340821855374263 191 199 198 0.05209584224627228 21 1074 23 1550
1483 0.9100341982047843 0.024838187611626445 -0.3831869233825729 181 189 188 0.29379633348579703 21 1164 23 1712 24 699 26 909
1484 0.9103305649395959 0.024891258457973176 -0.38400962668360145 190 196 194 0.3209129144491607 21 1165 23 1713
1485 0.860316154652051 0.00511482422746512 -0.3823645247907153 192 192 194 0.19595996742901972 21 1293 23 1932
1486 0.9588031835164631 0.006229578672430581 -0.38189857334632293 34 40 40 0.04107574148195771 21 1397 23 1783
1487 0.9789045004499162 -0.011484337205954112 -0.38160479594379504 52 58 60 0.02448201746815358 21 1559 23 1888
1488 0.9789045004499162 -0.011484337205954112 -0.38160479594379504 52 58 60 0.02448201746815358 21 1560 23 1889
1489 0.9420140335268302 -0.037792927946697905 -0.3841344328398072 30 36 36 0.045052112609169415 21 1674 23 2060
1490 0.9420140335268302 -0.037792927946697905 -0.3841344328398072 30 36 36 0.045052112609169415 21 1675 23 2061
1491 0.9412540280524879 -0.042767717857976145 -0.38198434007016147 186 186 186 0.13817976675124807 21 1692 23 2075
1492 0.9412540280524879 -0.042767717857976145 -0.38198434007016147 186 186 186 0.13817976675124807 21 1693 23 2076
1493 0.9234770718565641 -0.05401449556190593 -0.38209617022459513 177 178 178 0.2871634315843365 21 1740 23 2120
1494 0.985168932588545 -0.06156611421579586 -0.38071508241080537 199 199 201 0.03416341438182331 21 1787 23 2098
1495 0.9372677485197752 -0.06442368090374885 -0.3838018232058674 27 30 30 0.1675687450209164 21 1791 23 2142
1496 0.9474832928260295 -0.06891949850671261 -0.38115514179146537 30 33 34 0.2298490964921801 21 1807 23 2148
1497 0.8317571769158774 0.0913036750603473 -0.38451660477760247 135 131 133 0.03832257464977222 21 562 24 178
1498 0.9034630709856922 0.09059436265514913 -0.38164479984719557 36 39 40 0.056141164194430174 21 665 24 240
1499 1.0782510154104357 0.03914779993026736 -0.3836150495004019 130 132 134 0.19618361518696226 21 1280 24 697
1500 0.8971712095572478 0.006344126678614068 -0.3828527596472771 23 27 22 0.13550366846275186 21 1334 24 844
1501 1.0018236642312661 -0.01167124073938849 -0.37956135875736996 66 73 78 0.052640927997341706 21 1572 24 991
1502 1.0019635185840037 -0.011644158414400325 -0.3797303759553569 67 78 78 0.16745384877461697 21 1573 24 992 22 1141
1503 0.9227555375004145 -0.04804357737894246 -0.3817718751014482 29 29 31 0.13618401802506866 21 1714 24 1211
1504 0.9326925693330522 -0.05205465997954005 -0.3826870303624912 179 179 179 0.11959957943417766 21 1735 24 1231
1505 0.8738038346653095 -0.0641676403656404 -0.3765155022450647 24 27 26 0.3474438231170911 21 1793 24 1311
1506 0.8861341791888839 -0.07593408127388543 -0.3751108263784891 24 24 26 0.28479936227857106 21 1831 24 1350
1507 0.952283584745584 -0.08221935247399446 -0.37103198310191554 51 45 47 0.019648444162156553 21 1842 24 1355
1508 0.952283584745584 -0.08221935247399446 -0.37103198310191554 51 45 47 0.019648444162156553 21 1843 24 1356
1509 0.9646766862824813 0.10628187271810882 -0.3828194278023077 191 194 193 0.057661602688181664 22 423 24 224
1510 0.8675667723565422 0.07018810991907512 -0.3825337260378818 191 194 197 0.18282326416531214 22 643 24 338
1511 0.8675667723565422 0.07018810991907512 -0.3825337260378818 191 194 197 0.18282326416531214 22 644 24 339
1512 0.9897000555900132 0.06350041756312802 -0.3817804228593113 189 196 190 0.04509894886291299 22 707 24 501
1513 0.9062424126788243 0.0468500166627962 -0.3826919466508926 30 31 30 0.052361111458672116 22 810 24 557
1514 0.9062424126788243 0.0468500166627962 -0.3826919466508926 30 31 30 0.052361111458672116 22 811 24 558
1515 0.9613214139224489 0.035166711195771645 -0.38126087569748324 43 49 49 0.1207352478410421 22 866 24 659
1516 0.9652673600615512 0.0320080722782422 -0.381323326173753 185 196 192 0.07060551077795175 22 885 24 684
1517 0.9464450450712112 0.024767505231718622 -0.38079148549878433 182 188 186 0.16269094312191673 22 935 24 714 27 798
1518 0.940847033372422 0.019659130256189716 -0.3817414766067069 182 188 187 0.08218723794279892 22 974 24 762
1519 0.940847033372422 0.019659130256189716 -0.3817414766067069 182 188 187 0.08218723794279892 22 975 24 763
1520 0.9650814920603054 -0.01936142083637312 -0.38141261398433224 57 58 60 0.12725787821599926 22 1213 24 1040
1521 0.866707972608774 0.07325669735317619 -0.38256321449060354 39 40 36 0.14923603966810292 22 621 25 1095
1522 0.8946577760573621 0.03923620708246208 -0.3823815238945657 29 34 34 0.10058314389858473 22 854 25 1408
1523 0.9502874733400748 -0.026011906683678303 -0.3806727625749147 43 51 50 0.01121841260040696 22 1253 25 1982
1524 0.9878872487303019 -0.060334987771979535 -0.3784242626785986 48 46 53 0.4495895564335261 22 1344 25 2251
1525 0.9688211456118712 -0.09575475810172734 -0.37996524739879295 33 39 41 0.5627433481070137 22 1469 25 2297
1526 0.9730872046832314 0.08242268791024988 -0.384400063083418 49 57 56 0.2321661665905254 23 1265 24 374 26 704
1527 0.9464581103919224 0.08180455748191644 -0.3821983437911474 37 43 45 0.008564570207077828 23 1271 24 349
1528 1.0040826501973077 0.05064809389501095 -0.38369097088967385 62 70 71 0.03418808352207776 23 1476 24 599
1529 0.8892376042985537 0.045197660348102325 -0.3831240881223851 31 34 33 0.25000491694880866 23 1582 24 556 25 1353
1530 0.9289759617725134 0.03727687482991482 -0.3843434948716206 30 36 34 0.03341250308497121 23 1606 24 630
1531 0.9690616980540433 0.02869068131710047 -0.3823343334223431 61 67 67 0.03318393124526817 23 1635 24 704
1532 0.9723701855899284 0.025092272803051346 -0.38188318891304845 193 199 197 0.0491051832167061 23 1661 24 730
1533 0.9366742577763614 -0.05910850699064805 -0.3820464163594567 28 31 32 0.18136698517365843 23 2126 24 1269
1534 0.8914508718531867 0.10216703344689503 -0.3858725658282966 23 29 27 0.7283566672904805 23 1161 25 1002
1535 0.9196817367265823 0.008687123544088711 -0.3820866596488651 39 39 41 0.179541964143619 23 1817 25 1684 28 1098
1536 0.967282873424106 -0.033638614894284886 -0.37899743573987305 46 47 51 0.11496954495495193 23 2024 25 2099 27 1100
1537 0.9833605361154499 -0.05277712930576085 -0.3779349241080269 199 202 203 0.06945659559943071 23 2077 25 2219
1538 0.9062944057742532 0.04694019181483007 -0.38271036833046435 34 35 34 0.17991739380576574 23 1565 26 795
1539 0.9408421015132029 0.019760593589597298 -0.38171792719338077 186 191 192 0.10456765942641912 23 1721 26 986
1540 0.833846326480415 0.13673403696207168 -0.38649033849807485 183 179 180 0.7035943046160235 24 106 25 456
1541 0.8321664455982402 0.12343535460345773 -0.38670696179549263 122 117 117 0.7148911141598482 24 125 25 567
1542 0.9482750076117273 -0.0435323142457458 -0.380870412040741 29 35 33 0.34454732630194984 24 1189 25 2116
1543 0.9482750076117273 -0.0435323142457458 -0.380870412040741 29 35 33 0.34454732630194984 24 1190 25 2117
1544 0.9340362458283096 -0.056994607706832436 -0.38128682330849345 35 35 37 0.3606150439681972 24 1254 25 2166
1545 0.9340362458283096 -0.056994607706832436 -0.38128682330849345 35 35 37 0.3606150439681972 24 1255 25 2167
1546 0.9293642297914181 -0.06110712275873309 -0.3808382047893548 163 169 163 0.27994644778444194 24 1280 25 2184
1547 0.9882674747245237 -0.06415695197863902 -0.3783297811770496 41 44 47 0.2327344204729433 24 1283 25 2261
1548 0.98089274309962 -0.06455441797273727 -0.37852367370694145 38 44 44 0.2737104102446338 24 1287 25 2254 27 1234
1549 0.9212364885056084 -0.06353583925483329 -0.3820127767830578 23 26 25 0.38555474597450723 24 1293 25 2180
1550 0.8316602299667383 0.13624678881594043 -0.38572553329567966 166 160 164 0.0014497396801892207 24 105 26 282
1551 0.8320756029193849 0.13169261383161887 -0.3873278335907287 194 193 193 0.5778994534889268 24 113 26 301 25 494 28 270
1552 0.8297518889583133 0.10978737605767636 -0.3851297754549743 194 193 193 0.3121148268202205 24 141 26 372
1553 0.8295819335791823 0.09743276004584182 -0.38477156461113227 194 193 193 0.3273431184589824 24 160 26 404
1554 0.9407128330786212 0.0872425669060618 -0.3824231514287694 33 40 34 0.1373458724323095 24 300 26 626
1555 0.9407128330786212 0.0872425669060618 -0.3824231514287694 33 40 34 0.1373458724323095 24 301 26 627
1556 0.9719816862215841 0.08178892951726496 -0.38275116120119773 46 50 52 0.21187645054417661 24 375 26 705
1557 0.9209150054213627 0.0122275743624647 -0.3790172894636169 176 184 181 0.03992819141614686 24 807 26 1001
1558 0.9350734552800254 0.01322215225562198 -0.38265484945150624 179 190 188 0.09409151572519532 24 809 26 1014
1559 0.9454790031063218 -0.07289811709436421 -0.3774312200823942 187 187 187 0.1093718663612526 24 1329 26 1393
1560 0.9814987890814125 0.1161275043975147 -0.38681269765653487 59 59 59 1.756827422830255 24 203 27 378
1561 0.8834577248635934 0.0549761886262485 -0.38067490037726653 23 29 27 0.09724524775236555 24 468 27 518
1562 0.9450990623420448 0.0498377815843257 -0.37873757142052616 183 189 187 0.248304175988543 24 565 27 657
1563 0.9450990623420448 0.0498377815843257 -0.37873757142052616 183 189 187 0.248304175988543 24 566 27 658
1564 0.9850695487066364 0.025458945360789215 -0.3725505346221182 53 64 62 0.039702563190937054 24 727 27 853
1565 0.8319881590518715 0.01013003767706256 -0.3835516438714358 181 183 184 0.31811933924368146 24 775 27 710
1566 0.8319881590518715 0.01013003767706256 -0.3835516438714358 181 183 184 0.31811933924368146 24 776 27 711
1567 0.8327717440457183 -0.010043180641261364 -0.3834778285314416 115 115 117 0.34427788801022763 24 950 27 851
1568 0.8327717440457183 -0.010043180641261364 -0.3834778285314416 115 115 117 0.34427788801022763 24 951 27 852
1569 0.8925550336288532 -0.019770250579626652 -0.38364385715421073 45 40 38 0.21144317229929674 24 1038 27 970
1570 0.8784546287011553 -0.043129825373859974 -0.38144375932500396 173 173 173 0.19499261377882451 24 1195 27 1071
1571 0.8784546287011553 -0.043129825373859974 -0.38144375932500396 173 173 173 0.19499261377882451 24 1196 27 1070
1572 0.9410848454115354 -0.07388914227195646 -0.3810230431016781 27 30 29 0.01496670536126992 24 1330 27 1246
1573 0.9410848454115354 -0.07388914227195646 -0.3810230431016781 27 30 29 0.01496670536126992 24 1331 27 1247
1574 0.9044385998352242 -0.07821356861323818 -0.37980226612000567 23 23 23 0.004952376285473481 24 1348 27 1248
1575 0.9044385998352242 -0.07821356861323818 -0.37980226612000567 23 23 23 0.004952376285473481 24 1349 27 1249
1576 0.8915824333915804 -0.0923465455200738 -0.3811204365334032 164 164 164 0.15947602831269134 24 1374 27 1271
1577 0.8299887580398551 0.1253170341612631 -0.38755595604096676 185 181 182 0.18164533253619888 25 548 26 324
1578 0.8759282160295604 0.1096651188867882 -0.37985319120388605 26 32 31 0.12656664383817914 25 867 26 427
1579 0.831810420382206 0.06624431817405647 -0.3824844211613102 144 143 143 0.22531490969875362 25 998 26 538
1580 0.8315327727516648 0.05171796897586893 -0.38324655749419523 114 115 110 0.2173928354001552 25 1107 26 630
1581 0.8315327727516648 0.05171796897586893 -0.38324655749419523 114 115 110 0.2173928354001552 25 1108 26 631
1582 0.8468455530180192 0.05950356364451043 -0.3885428723176745 177 180 179 0.12624660557180642 25 1134 26 616
1583 0.867646714488576 0.06645687269731514 -0.3837659196845558 30 30 30 0.10902848601148014 25 1165 26 610
1584 0.9093196832848701 0.05512695389300551 -0.381486261072899 29 35 35 0.06353803109145541 25 1354 26 751
1585 0.9670666691911173 -0.0766763240784831 -0.37791736688265787 34 37 40 0.1666993173811217 25 2277 26 1409
1586 0.8317940035856882 0.12149891236378986 -0.3852380977897247 178 175 174 0.13884495045571252 25 575 27 201
1587 0.8320484396396441 0.09950748050269255 -0.38497290753674007 177 177 179 0.1322241597741959 25 758 27 270
1588 0.8323429758873497 0.07966282756533453 -0.384093015572833 115 110 105 0.13381050553765028 25 900 27 324
1589 0.8313734893747272 0.042485102159343376 -0.38165721492326293 169 175 175 0.1743701903464173 25 1184 27 496
1590 0.8313734893747272 0.042485102159343376 -0.38165721492326293 169 175 175 0.1743701903464173 25 1185 27 497
1591 0.9078403246152568 0.0801930988193405 -0.38010718686107553 28 31 32 0.1367099402577561 25 1210 27 426
1592 0.9534961607888649 0.03593990302384844 -0.3813376771136108 170 176 176 0.23801028892578813 25 1600 27 738
1593 0.9534961607888649 0.03593990302384844 -0.3813376771136108 170 176 176 0.23801028892578813 25 1601 27 739
1594 0.9600530133141876 -0.03028706135690823 -0.38412171685811664 45 53 54 0.14145275020622392 25 2055 27 1078
1595 0.9600530133141876 -0.03028706135690823 -0.38412171685811664 45 53 54 0.14145275020622392 25 2056 27 1079
1596 0.9420394973524191 -0.06876972990993298 -0.38236383146497394 169 172 171 0.056118062778838226 25 2223 27 1222
1597 0.9420394973524191 -0.06876972990993298 -0.38236383146497394 169 172 171 0.056118062778838226 25 2224 27 1223
1598 0.9891193056228144 -0.08769448075774089 -0.37619713873912497 21 27 27 0.012693212101694603 25 2296 27 1282
1599 0.832184251684611 0.13386478393115603 -0.38787319050246105 145 140 140 0.17830646583782309 25 473 28 265
1600 0.832184251684611 0.13386478393115603 -0.38787319050246105 145 140 140 0.17830646583782309 25 474 28 266
1601 0.7693089778532866 0.05747534451844419 -0.39080451583027764 64 64 64 0.14008781728981673 25 797 28 716
1602 0.7650918108685226 0.040752933157403186 -0.3933283242332437 41 38 33 0.03850664052618748 25 903 28 845
1603 0.7680308633819426 0.019642179259390605 -0.39093211029125546 26 26 23 0.07454737096642455 25 1082 28 1045
1604 0.8319707807827004 0.049998010146207555 -0.3844891712596374 173 175 175 0.017334854209296178 25 1138 28 770
1605 0.8787670654355036 0.05591207466055379 -0.38403186754447344 173 176 175 0.11624553030650855 25 1256 28 737
1606 0.8328401175340518 -0.009965871482411062 -0.38366423974453867 122 122 122 0.1441134264740839 25 1523 28 1250
1607 0.8327749019694232 -0.021302423829718097 -0.3843328293549304 161 170 170 0.19809993783844432 25 1606 28 1295
1608 0.9349639436654545 0.013294163385414117 -0.38229473668363667 170 173 172 0.16744031208141108 25 1699 28 1068
1609 0.9287818696598612 0.009193941416855422 -0.37957039003348575 171 178 173 0.15885233973909768 25 1720 28 1094
1610 0.8890273024338176 -0.03396104337985894 -0.38397143767105474 21 24 23 0.11936477212469175 25 1895 28 1342
1611 0.9650865736829164 -0.019169800611061053 -0.3808468975937906 56 58 60 0.09407801314662174 25 1976 28 1260
1612 0.9100560790591142 -0.07382209545731386 -0.3815505606516995 145 153 150 0.04130440111200243 25 2204 28 1508
1613 0.9943607977214024 -0.05869950345705238 -0.37981845500210304 177 177 177 0.12187557819663039 25 2248 28 1426
1614 0.8319946399123033 0.08963237560479104 -0.3853629158575915 125 125 128 0.046010674479643236 26 446 28 452
1615 0.8333054077143762 0.07874038819165145 -0.3843562467794285 181 184 185 0.02608483738713228 26 500 28 556
1616 0.8787321225471146 0.08728146331690266 -0.38450545696365807 31 34 33 0.03841060881123877 26 526 28 487
1617 0.8322566837779543 0.028311988032426693 -0.3840824772760042 106 107 108 0.0053063870919602815 26 779 28 961
1618 0.8328304370304473 0.024365592364926993 -0.38423464160810605 113 113 114 0.010167950339362509 26 809 28 998
1619 0.8321653624540186 0.005211720090327199 -0.38366860628543464 176 182 183 0.007914393238126387 26 907 28 1156
1620 0.8324179782856843 -0.017410389709140366 -0.3841345412728404 171 176 178 0.0060964738678986625 26 1051 28 1279
1621 0.9850342867357279 0.0052218933172493995 -0.38080214175292143 187 190 191 0.33247151893835286 26 1101 28 1114
1622 0.9850342867357279 0.0052218933172493995 -0.38080214175292143 187 190 191 0.33247151893835286 26 1103 28 1116
1623 0.8332980098392059 -0.0270630976978494 -0.38386945154480173 170 175 175 0.1534148246831996 26 1105 28 1323 30 1612
1624 0.8463128180584705 -0.024982047554428354 -0.38906866599775314 169 175 175 0.0003698756581231782 26 1106 28 1306
1625 0.947683285705875 -0.005767953224489562 -0.3821225158228306 38 46 45 0.06944650129474167 26 1123 28 1204
1626 0.947683285705875 -0.005767953224489562 -0.3821225158228306 38 46 45 0.06944650129474167 26 1124 28 1205
1627 0.8578586768232419 -0.0577650779819676 -0.3839103915050089 28 30 29 0.10701715778186152 26 1289 28 1479 29 1130 30 1743
1628 0.9232131021304152 -0.04802709910406292 -0.38242850793019495 24 27 28 0.20046188112929178 26 1291 28 1402 30 1676
1629 0.9827670362917743 -0.06492918674729191 -0.38090436801910094 36 40 45 0.05069057284005297 26 1380 28 1458
1630 0.831804986691729 0.1331841154032402 -0.38622743943475935 135 131 126 0.2590910957795531 26 290 29 395
1631 0.831804986691729 0.1331841154032402 -0.38622743943475935 135 131 126 0.2590910957795531 26 291 29 396
1632 0.8329362065237128 0.1229214669137496 -0.3861521512303171 137 136 136 0.19211225352165326 26 335 29 414 28 293
1633 0.8339831195715881 0.10963361252908058 -0.38575421322116576 187 187 189 0.12200795079914864 26 377 29 444
1634 0.8612043670437276 0.07452658740668097 -0.3852033851658336 38 31 24 0.022148264299792428 26 545 29 578
1635 0.832372568841504 0.046220621419424665 -0.3852717987552498 137 140 139 0.0970655121416567 26 661 29 723
1636 0.9947794017522414 0.06794834264348146 -0.3840077004546092 79 78 85 0.11348078251571131 26 815 29 642
1637 0.9556616358158583 0.04339193551667105 -0.38283388293974674 179 185 185 0.09642149859067183 26 872 29 736
1638 0.9556616358158583 0.04339193551667105 -0.38283388293974674 179 185 185 0.09642149859067183 26 875 29 735
