# 3D point list with one line of data per point:
#   POINT3D_ID, X, Y, Z, R, G, B, ERROR, TRACK[] as (IMAGE_ID, POINT2D_IDX)
# Number of points: 430
405 0.833125802199187 0.025144816319940897 -0.385852720547252 138 137 137 0.2997606185922527 3 1388 11 1322
406 0.9273362551814801 -0.05532991323757901 -0.3824732667602837 207 213 213 0.16414577938475003 3 1681 11 2444
407 0.965992017685894 0.10699924819412496 -0.38469398476015965 182 182 182 0.17929569578069834 3 998 26 561
408 0.8331776347331089 0.09920565195848381 -0.3860122576274855 133 133 135 0.14474716645060165 3 1000 26 405
409 0.8331776347331089 0.09920565195848381 -0.3860122576274855 133 133 135 0.14474716645060165 3 1001 26 406
410 0.9273813050575521 0.07551150066274269 -0.3846179742790352 175 183 181 0.13396366056900857 3 1130 26 663
411 0.8336800959893409 0.008717268597378676 -0.38565501079965037 108 108 110 0.4192129266372435 3 1458 26 891 29 863 30 1374 25 1405
412 0.8321449933768885 -0.003383383202053037 -0.38545231596368484 102 108 110 0.11813064520354251 3 1520 26 974 30 1462 29 919
413 0.8331533582196479 -0.014799378770409736 -0.38542397244576126 165 171 173 0.09901941513559082 3 1562 26 1039 29 957
414 0.8330878459802425 -0.03236968757716962 -0.38490181238026755 122 122 124 0.03540872217866854 3 1627 26 1140
415 0.9301408919937059 -0.09025406161158996 -0.3832388180452624 23 26 25 0.028286364164393944 3 1784 26 1419
416 0.9052415790886216 -0.09573659203060275 -0.3843290039920722 22 25 24 0.06357647665008143 3 1796 26 1429
417 0.9024432679061121 0.10538206113509484 -0.38358062888622696 186 186 182 0.13715100467244917 3 987 27 319
418 0.9024432679061121 0.10538206113509484 -0.38358062888622696 186 186 182 0.13715100467244917 3 989 27 321
419 0.9310898347504838 0.0778793669081004 -0.3833216253917665 34 40 42 0.24531564387047652 3 1109 27 478 28 581
420 0.9316690933524584 0.0669219075159358 -0.38370883416808715 41 46 51 0.033577550250349725 3 1196 27 540
421 0.9316690933524584 0.0669219075159358 -0.38370883416808715 41 46 51 0.033577550250349725 3 1197 27 541
422 0.9596919925907014 -0.02278706787830255 -0.3823416132301486 175 181 179 0.07906927086679169 3 1563 27 1040
423 0.834240967374712 -0.032739670878918985 -0.3860353250186504 97 97 99 0.22072302781896463 3 1629 27 977 29 1036 28 1357
424 0.9643945702898611 -0.08138445399461873 -0.3815390747231086 186 190 189 0.42048876555278525 3 1747 27 1266 28 1511 24 1345 25 2279
425 0.8898843740056999 -0.09684974245233062 -0.3846416144116334 30 30 30 0.34763225198462594 3 1798 27 1277 25 2260
426 0.7733264732182185 0.13729944715050266 -0.3968207176416099 41 41 37 0.0866488471662628 3 861 28 250
427 0.9697019843421907 0.09158593154989524 -0.38348129786749924 40 43 42 0.2385382634220636 3 1057 28 489 6 819 30 754
428 0.9484571582843268 0.08789046684984109 -0.3843675216850427 189 190 186 0.11308501127449393 3 1070 28 521 29 536
429 0.8643020250825554 0.07478419883670798 -0.3851891855170871 181 181 183 0.04802541615153125 3 1121 28 589 27 383
430 0.8643020250825554 0.07478419883670798 -0.3851891855170871 181 181 183 0.04802541615153125 3 1123 28 591 27 384
431 0.9724163591933358 0.0511081462095183 -0.3818796533084807 191 191 191 0.18796128118010466 3 1259 28 780
432 0.8327745890617829 0.04939058488180077 -0.38675423333985454 117 118 120 0.06979034334487919 3 1274 28 785 29 713 30 1076
433 0.832754868670105 0.049367917325057506 -0.3866565661799011 117 120 119 0.03416743482427727 3 1276 28 787 29 715
434 0.8329712598704238 0.039089178482373615 -0.3871310329183557 170 176 177 0.013296549799045501 3 1314 28 860
435 0.832126476460402 0.0385166236857288 -0.38734114601349323 120 121 123 0.02694425950498334 3 1318 28 870
436 0.9889725273195256 0.00848230210678281 -0.3813463723596764 75 81 83 0.27764526231396325 3 1431 28 1089
437 0.9609455844035627 -0.034298828280218616 -0.38511186484441357 39 45 47 0.020454458127890072 3 1596 28 1314
438 0.8938774500321546 -0.029844962837358865 -0.3897155311798159 159 167 166 0.5285267527611388 3 1597 28 1309
439 0.9178565625295712 -0.03785890714981085 -0.3856251046150124 28 34 34 0.07651344796127106 3 1619 28 1348
440 0.9178565625295712 -0.03785890714981085 -0.3856251046150124 28 34 34 0.07651344796127106 3 1620 28 1349
441 0.9740380948059817 -0.0688548107831314 -0.38305687773123215 22 28 26 0.21329422984816473 3 1713 28 1475 30 1733
442 0.9740380948059817 -0.0688548107831314 -0.38305687773123215 22 28 26 0.21329422984816473 3 1714 28 1476 30 1734
443 0.8325868005703065 0.0862366496825979 -0.38649231990815874 183 186 187 0.11185680224791666 3 1055 29 522 26 462
444 0.8325868005703065 0.0862366496825979 -0.38649231990815874 183 186 187 0.11185680224791666 3 1056 29 523 26 463
445 0.8342783329563656 0.06321390305927634 -0.386555703939549 184 184 186 0.11018893759887212 3 1206 29 647
446 1.0019576995323451 0.06055007489047015 -0.3836226634766151 61 67 69 0.19860546158216003 3 1232 29 673 31 1088
447 0.9645740803341457 0.03201824020389234 -0.3839104141354673 42 48 48 0.01613151380015945 3 1346 29 768
448 0.9875418631047047 0.001992106076002096 -0.3830401504016603 55 57 63 0.018285981881980818 3 1465 29 875
449 0.9875418631047047 0.001992106076002096 -0.3830401504016603 55 57 63 0.018285981881980818 3 1466 29 876
450 0.8344424846955543 -0.02050018733039637 -0.3856154601199947 140 140 142 0.14375763775937078 3 1579 29 983
451 0.9551597678659317 -0.03039237215065189 -0.38285683568998324 162 170 167 0.15501600822220174 3 1588 29 996 26 1237
452 0.8797896086012728 -0.04332182577571853 -0.38464778915246817 164 169 167 0.3000984193896045 3 1655 29 1069 28 1400 31 2019
453 0.9153553250408727 -0.0677133501071137 -0.379155031334168 159 164 164 0.10312333543904134 3 1729 29 1149
454 0.8326484521031895 0.06981789687239252 -0.3867325861586541 186 189 192 0.1492555138194723 3 1154 30 929
455 0.8306789637740305 0.05482168110032974 -0.3867820251469016 185 188 189 0.06904953062923146 3 1251 30 1036
456 0.9036695525727543 0.04159664790526546 -0.38558640871182764 20 26 24 0.09975539046738699 3 1306 30 1113
457 0.8339703588493125 0.029769070191888514 -0.3861658241003022 184 185 191 0.13637966762699286 3 1362 30 1204 28 945
458 0.9742108205450424 0.025202248517160568 -0.38408377077922057 177 184 182 0.08512896850906826 3 1369 30 1195
459 0.8437471255602264 0.007948357605772796 -0.3818521332919905 178 181 182 0.03946334408426525 3 1464 30 1379
460 0.9275650043701649 -0.0018212850673767105 -0.3833817669442342 29 28 35 0.04736463075993962 3 1494 30 1404
461 0.8326877851044294 -0.002124310742002282 -0.3858859717987891 179 183 183 0.009560926560467115 3 1515 30 1449
462 0.832156319175344 -0.003392648624987015 -0.38557914343398325 119 119 120 0.13307441523672506 3 1519 30 1461 29 918
463 0.8326118722396685 -0.007145193415841735 -0.38571947181262745 120 120 122 0.03242901824285672 3 1529 30 1487
464 0.9111766515177318 -0.011793613176946965 -0.3848360493033104 167 173 173 0.1103847420363672 3 1532 30 1478 28 1239
465 0.9687274769468933 -0.016440945681358884 -0.3829608175554512 37 44 45 0.1731464651377871 3 1538 30 1480 31 1649
466 0.9685579878314907 -0.016434051216519033 -0.3827235717851707 28 34 36 0.040705556270628176 3 1539 30 1481
467 0.9687274769468933 -0.016440945681358884 -0.3829608175554512 37 44 45 0.1731464651377871 3 1540 30 1482 31 1651
468 0.9793333208036804 -0.04258947142717582 -0.38114600442079755 165 168 167 0.13114632067919554 3 1622 30 1624 27 1147
469 0.9832314290582096 -0.06523003770440755 -0.3813557470645806 32 35 36 0.25497716757100813 3 1699 30 1719 31 1980
470 0.8801307319951903 -0.07474274603805696 -0.3849948944043759 25 23 24 0.13096538778937797 3 1751 30 1791
471 0.9625776244059516 0.04324066502031953 -0.38343164653866246 33 33 35 0.2309121634687878 3 1303 31 1273
472 0.8892739157815316 -0.03395702230702304 -0.3840242242511799 31 31 31 0.2399700008680457 3 1618 31 1957 30 1622
473 0.990764581569255 -0.04676469865492153 -0.38146778232346024 36 42 44 0.12824066356415734 3 1634 31 1829
474 0.9240642390467877 -0.05436027704848475 -0.3826833282421596 186 186 186 0.3655404874099324 3 1678 31 2012
475 1.079077465685064 0.1760094095157805 -0.3899695437901634 89 89 88 0.3136275487202 4 982 6 494 30 404
476 1.0862404101091276 0.16524473899155753 -0.39157160466254753 148 148 148 0.0007082994927862539 4 1080 6 559
477 0.9552165556160749 0.10904781451216525 -0.3855230263963206 44 52 53 0.11228341653905387 4 1278 6 676
478 1.0827095720677853 0.11028003963747583 -0.3919728879382239 167 175 172 0.009573755930136981 4 1334 6 796
479 1.0930693711178883 0.09515809565957298 -0.3880444150841606 149 155 153 0.1683989078790187 4 1412 6 913 8 631
480 1.08826388916987 0.08992100192829938 -0.3890605440117724 113 115 115 0.007166165734261113 4 1454 6 954
481 1.1053167105682213 0.08408076960314942 -0.3895810720703449 133 142 142 0.009907515210038081 4 1510 6 1014
482 1.0823225195625559 0.08259080966877558 -0.39014217722450106 160 169 168 0.004092407619907831 4 1516 6 1009
483 1.0837543121770274 0.08056850046641421 -0.38896180282545706 120 123 122 0.0637914589381555 4 1531 6 1025 8 743
484 1.0987583114958528 0.07997446389160624 -0.38977898731577687 113 119 118 0.06491497128139538 4 1540 6 1037 9 641
485 1.0961762402650803 0.06590753540678013 -0.3939846988909038 111 118 117 0.004295682524375295 4 1647 6 1115
486 1.0790206855754094 0.05492961601944557 -0.3895844274840429 101 102 99 0.00059911437342642 4 1696 6 1165
487 1.0846201971794898 0.05464645049392082 -0.3884837601843016 134 139 138 0.010089068150455417 4 1699 6 1167
488 1.0890202242673717 0.04715472321031569 -0.39027573182388786 147 155 154 0.015777785997482127 4 1752 6 1208
489 1.1031576306840472 0.035044140975529235 -0.38760380589757515 134 146 144 0.02981068996356126 4 1826 6 1281 7 1143
490 1.089418448533999 0.031148904730728438 -0.3899047586263162 155 163 160 0.0020227888384045547 4 1845 6 1303
491 1.0950350288940256 0.029473225005891935 -0.3888474974811128 106 107 109 0.014292222453103416 4 1851 6 1314
492 1.0789117496709064 0.019378094703546542 -0.38829673488752625 97 98 97 0.03186587142844129 4 1920 6 1371 7 1230
493 1.0789117496709064 0.019378094703546542 -0.38829673488752625 97 98 97 0.03186587142844129 4 1921 6 1372 7 1231
494 0.9319687830271015 0.009332345477441474 -0.3843624412850265 190 196 196 0.42852446961582563 4 2026 6 1420 26 1028 31 1545
495 0.9321581127277729 0.009220928001522523 -0.3849677401749434 178 184 184 0.08103707295868486 4 2027 6 1421
496 0.9319728038020546 0.009329796614481882 -0.38440039020581707 196 202 204 0.38945024451176125 4 2028 6 1422 7 1249 26 1030 31 1544
497 0.8990983471874441 0.006724070208675927 -0.386219154139186 26 32 30 0.13890876250842124 4 2057 6 1442 8 1156
498 1.0005781223323584 -0.0003605669106671907 -0.3830508899005932 59 70 70 0.2979987497860515 4 2077 6 1498 30 1364
499 0.9427073861115617 -0.011919180754824501 -0.3849477608715218 35 38 39 0.05208537838334664 4 2184 6 1576
500 0.9427073861115617 -0.011919180754824501 -0.3849477608715218 35 38 39 0.05208537838334664 4 2185 6 1577
501 0.9624002781477667 -0.023485290339149832 -0.38773767813892046 188 194 194 0.05881440839167174 4 2249 6 1662
502 0.9374602348374027 -0.05957650573765705 -0.38277818958902315 29 32 33 0.053277950406405185 4 2477 6 1920
503 1.0838202633874492 0.11436664966228997 -0.3874488609177977 159 167 164 0.17872859615110068 4 1314 7 605
504 0.9731403794259749 0.08775001308663387 -0.3832775513726493 189 200 198 0.04516012541415018 4 1408 7 649
505 1.0955251422804295 0.09445530985973606 -0.38739224220954105 105 108 107 0.16168221844511868 4 1420 7 741 6 925
506 1.0880090537775167 0.09225007920955886 -0.3892611549946311 121 127 121 0.17173497118020012 4 1434 7 767
507 1.1007344918155262 0.09137258328754978 -0.38834364172737584 108 114 112 0.19299873604742773 4 1445 7 787
508 1.1007344918155262 0.09137258328754978 -0.38834364172737584 108 114 112 0.19299873604742773 4 1446 7 788
509 1.0820596672708882 0.0891031137714994 -0.3888972468787955 133 141 141 0.15968630267247683 4 1457 7 785
510 1.0820596672708882 0.0891031137714994 -0.3888972468787955 133 141 141 0.15968630267247683 4 1458 7 786
511 1.0954448066434972 0.08357595598076441 -0.3863938891126706 115 118 117 0.16303055920715726 4 1508 7 844
512 1.0967912122083554 0.05629976257316877 -0.3851048697681642 123 129 127 0.12772727853405247 4 1691 7 1016
513 0.8610130358210041 0.01208451024285477 -0.38517504465941504 178 184 185 0.03720951869998177 4 2030 7 1211
514 0.8928853822070174 -0.01966491663475 -0.38412152491759854 44 34 36 0.11459776914947074 4 2263 7 1447 29 967 6 1656
515 1.081745350371965 0.10641919962429808 -0.3882175428739524 120 126 126 0.16602155353002176 4 1349 8 553 6 814
516 1.0994802542736908 0.07636325002405542 -0.38751317501329086 138 144 144 0.12188348987057311 4 1560 8 796
517 1.0923929211754286 0.04428323219176311 -0.38747576245987553 100 106 105 0.03658958897886577 4 1767 8 1002
518 1.0800398034893761 0.04085949653285895 -0.3885253781709253 158 167 166 0.037826035584825966 4 1785 8 1012 9 912
519 1.0924474853136477 0.03950111426073873 -0.3892991071882722 150 157 154 0.009779339833658845 4 1795 8 1024
520 1.0924474853136477 0.03950111426073873 -0.3892991071882722 150 157 154 0.009779339833658845 4 1796 8 1025
521 1.0944298141683888 0.023896529022882605 -0.3881776564345698 96 99 94 0.007546544152017895 4 1881 8 1105
522 1.0944298141683888 0.023896529022882605 -0.3881776564345698 96 99 94 0.007546544152017895 4 1882 8 1106
523 0.986908679105104 -0.053523564506021776 -0.38258891610490214 191 195 193 0.13051419791810473 4 2415 8 1572
524 0.9526142116175229 -0.0780058165947007 -0.3835473341171475 40 45 52 0.022673932317920805 4 2531 8 1761
525 0.9953351981204019 -0.15286234681460595 -0.38524146082590827 33 33 33 0.17225266940658152 4 2641 8 1988
526 1.0813069136698954 0.07971134512116616 -0.38921368580817195 164 173 170 0.02103376974296234 4 1535 9 625
527 1.095063853709509 0.07102824053759321 -0.39059673766140224 145 153 150 0.0726716928305807 4 1616 9 696
528 1.1048902036768993 0.06149845234311649 -0.3892432356850978 100 103 102 0.09741350351279625 4 1668 9 774
529 1.104589738634583 0.05986087959025779 -0.38913023479381714 101 104 105 0.0801890037117495 4 1680 9 793
530 1.0933231435419115 0.03927508237955398 -0.38825506269726395 97 103 103 0.029649984616205147 4 1800 9 939
531 1.097218467230046 0.03795912780174557 -0.3884667912000108 138 146 144 0.042703739610780916 4 1806 9 948
532 1.098760455195626 0.018409750707269665 -0.3880858016906278 126 130 126 0.027593189177131855 4 1922 9 1072
533 1.0913772302872498 0.012835745415927502 -0.38894539526682154 97 101 96 0.010895734509501378 4 1966 9 1100
534 0.9240252869741097 0.008796833452467323 -0.3843566906051168 50 43 46 0.20897364237500013 4 2033 9 1017 31 1555
535 0.9038953874031765 -0.08186647644457325 -0.3843785142816785 42 41 40 0.241152150295358 4 2575 9 1684 29 1191 8 1809
536 0.893120807161034 -0.09335589834068607 -0.3849581138834973 179 179 181 0.3133732490890856 4 2604 9 1757
537 0.832200978225477 0.10853072582289974 -0.38652063034081396 197 197 199 0.19334492220332422 4 1193 10 137 30 635
538 0.8322754848610937 0.07195785808926532 -0.3847429704646581 203 203 207 0.5357081464139561 4 1497 10 297 13 658
539 0.9237390569472459 0.07066247047408938 -0.3841570357957132 47 38 37 0.11235659099699961 4 1548 10 365
540 0.9237390569472459 0.07066247047408938 -0.3841570357957132 47 38 37 0.11235659099699961 4 1549 10 366
541 0.8744328753907862 0.061113875088434536 -0.3853715963845515 28 31 30 0.18784157343811075 4 1631 10 398
542 0.8340246796162075 0.04788787044010593 -0.38498461401230466 192 191 194 0.04623106475800021 4 1731 10 445
543 0.9316892986957075 -0.0021050109870745116 -0.3838884698621314 40 41 42 0.5755006867295754 4 2119 10 748
544 0.8330975648288932 -0.014903184164844893 -0.3854197904425157 193 198 201 0.18547433422260343 4 2264 10 804 27 878
545 0.8320569010202575 -0.020435309737181134 -0.38535815884827457 135 133 137 0.03804943058199897 4 2310 10 837
546 0.8334099148488251 -0.036067013617341125 -0.38552395646422516 175 174 174 0.29261186677373147 4 2413 10 959
547 0.8341967217177004 -0.037850551591920745 -0.3855495037588656 106 101 106 0.3132241406503869 4 2423 10 965
548 0.8316052466580931 0.07159465071813279 -0.3861460350740103 134 136 139 0.14937345348477607 4 1501 26 521
549 0.8342159528250795 0.051460005771200426 -0.38493451242312254 179 184 184 0.025627052946600806 4 1692 26 638
550 0.9030693316435751 0.04153044536300869 -0.38429228104750085 26 34 33 0.509249540803556 4 1780 26 821 23 1598
551 0.9203420537846964 0.016073708167608097 -0.38366416169410916 34 40 42 0.5710362149468714 4 1982 26 980 24 773 29 832
552 0.8574924009144628 0.015549478920716656 -0.38484198100474776 32 32 34 0.09670430377058328 4 1999 26 889
553 0.9835563913407678 0.00898946649449859 -0.3827777199100753 65 71 73 0.03841425003544746 4 2011 26 1091
554 0.9786969688659426 0.08207794350692306 -0.38145341617614664 191 191 191 0.16999262461876283 4 1460 27 531 29 559 30 819
555 0.8589556248910876 0.07648186712201577 -0.38727040818913083 31 34 33 0.05666864585001346 4 1463 27 369
556 1.0029851121082212 -0.011644412144626687 -0.38013333338478106 71 81 84 0.3139940266524581 4 2167 27 1035
557 0.9688815575924076 -0.016420923015496545 -0.38320422044803565 46 56 59 0.35122621071510013 4 2199 27 1023 28 1248
558 0.8333444031477616 -0.015867624340008255 -0.3864614130330515 171 174 176 0.19172913710115477 4 2267 27 883
559 0.8339952542933761 0.09085301575360127 -0.3868345569155461 192 192 194 0.04035332347407463 4 1333 29 509
560 0.978688466365005 0.08774128544717305 -0.3815993044123361 43 49 49 0.08418637632954665 4 1409 29 538
561 0.980093254632965 0.08249443572702271 -0.38390483308373363 192 200 199 0.27006061236608414 4 1461 29 560 6 919 8 601 30 820
562 0.8918057277212715 0.03985023980696154 -0.3841515013767374 180 188 189 0.045650169672424405 4 1790 29 743
563 0.8928563807842368 -0.019655828510702272 -0.38403919762272654 45 38 39 0.13159277793042007 4 2262 29 966 6 1655
564 0.8920437143897653 -0.022590265250717976 -0.3839989946146328 177 183 181 0.09569831038553134 4 2282 29 975 6 1678
565 0.9591687685844311 -0.033700457831212456 -0.38225605856128775 42 48 50 0.07575545977668438 4 2321 29 1006 31 1801
566 0.9516951220648224 -0.03385040717166506 -0.3823668150581348 45 52 56 0.17112070339245242 4 2322 29 1009 6 1734
567 0.9516951220648224 -0.03385040717166506 -0.3823668150581348 45 52 56 0.17112070339245242 4 2323 29 1008 6 1733
568 0.833833549441644 -0.027188331965570335 -0.38603872166878084 165 169 173 0.12478579050230974 4 2355 29 1011 27 945
569 0.9898460337040752 -0.06422722795102868 -0.379667810590586 43 42 44 0.02173921359343661 4 2462 29 1117
570 0.94832970254831 0.08793351438556402 -0.3844292276015326 183 191 189 0.07481670879290316 4 1398 30 777
571 0.94832970254831 0.08793351438556402 -0.3844292276015326 183 191 189 0.07481670879290316 4 1399 30 778
572 1.098048319162109 0.09014992676668764 -0.3876297641236401 161 165 165 0.17944386465914677 4 1455 30 789
573 0.8686193342080571 0.06701131894783952 -0.38561088404260035 43 40 43 0.011939134475648061 4 1565 30 947
574 1.0934282059204452 0.015172143777138207 -0.3875082533954648 96 95 99 0.06476667939106673 4 1949 30 1232
575 0.9733568661396353 -0.011405516358115923 -0.38224655884081926 179 183 182 0.2269757004481563 4 2175 30 1445 27 1007 28 1225
576 0.8332405559795687 -0.007717049244696524 -0.38517789001458735 151 149 156 0.023936929918579555 4 2208 30 1494
577 0.8309792913121411 -0.011933613401068782 -0.38597072155526946 179 182 184 0.01896499057581734 4 2240 30 1517
578 1.0804961638585755 -0.03777735048093788 -0.3849000202707468 74 77 79 0.05271044631825554 4 2270 30 1541
579 0.9551668151683286 -0.0331743362169804 -0.3828551168630805 28 27 34 0.027742581003609712 4 2318 30 1579
580 0.9234970431778287 -0.05820220553229655 -0.38329407296899265 161 167 165 0.059896746117392353 4 2479 30 1717
581 0.9417239866904961 0.11309270992634848 -0.38674967395148807 42 48 50 0.039829573473027735 4 1244 31 775
582 0.8850358552491259 0.08750345391894479 -0.38503959765096657 189 197 198 0.11311669386373105 4 1378 31 1033
583 0.9944634963003244 0.06744917618315564 -0.3832277942874939 59 50 50 0.03980685826390048 4 1614 31 1044
584 0.9076810250110694 0.04730225331625276 -0.3853830014555383 33 34 37 0.10604313568260341 4 1744 31 1328
585 0.9076810250110694 0.04730225331625276 -0.3853830014555383 33 34 37 0.10604313568260341 4 1745 31 1329
586 0.8600759455541934 0.003579254810874357 -0.38490313839716905 174 178 180 0.2248225581290451 4 2107 31 1707 28 1163 30 1396
587 0.8545032023964059 -0.012755664024608867 -0.384987364681931 37 37 39 0.04600625867953889 4 2234 31 1857
588 0.9004029387734817 -0.08124006898115467 -0.38329520579913867 178 178 178 0.13690287110023464 4 2578 31 2131
589 0.9419106153537918 0.11302268553750708 -0.38997205104095767 39 47 48 0.10398557445460618 5 1224 6 656
590 1.1137634458623595 0.11122949583858525 -0.40065844975946735 128 136 133 0.05084465374361302 5 1325 6 825
591 0.9390143837681963 0.07874908577298591 -0.38507070089435136 47 47 51 0.21784344461576868 5 1447 6 907 29 566
592 0.9390722153750387 0.07871307928243836 -0.38521200913091375 45 46 49 0.097488709320767 5 1448 6 908
593 1.0827749196652534 0.0764619033742469 -0.39167681917221986 160 171 169 0.012103612711353788 5 1515 6 1048
594 1.088810296103552 0.06390582135431833 -0.39069545128104965 151 155 153 0.0007987377460351973 5 1602 6 1119
595 1.1065018021725401 0.059222960087311004 -0.39318827779834115 131 135 135 0.05110319147106071 5 1640 6 1150
596 1.0063157947595591 0.05063203563949945 -0.38593145694906195 59 69 76 0.05821991514562232 5 1681 6 1156
597 1.0063157947595591 0.05063203563949945 -0.38593145694906195 59 69 76 0.05821991514562232 5 1682 6 1157
598 1.0876270825271088 0.04977740418728463 -0.389019718121595 154 163 162 0.08760670557554208 5 1692 6 1192 9 857
599 1.0858510678363216 0.018135910188086034 -0.38595394151792933 139 147 146 0.25639493427809446 5 1878 6 1377 8 1149
600 0.8645434285435358 0.008268948770220672 -0.3839419235423356 49 48 57 0.003993626213324268 5 1984 6 1428
601 0.9875548224981225 0.001590554651179145 -0.3836796918694346 63 61 65 0.005420530139571468 5 1995 6 1483
602 0.8688415669124193 0.0009362665828922094 -0.3849747399808653 48 44 52 0.006323346708938229 5 2045 6 1495
603 0.9548728599188405 -0.01826150846720921 -0.38324582342794 187 198 196 0.024581349890748037 5 2141 6 1633 31 1685
604 0.9548728599188405 -0.01826150846720921 -0.38324582342794 187 198 196 0.024581349890748037 5 2142 6 1634 31 1686
605 0.960027315022896 -0.055719617486032776 -0.38111285515063936 18 25 21 0.09953564884925535 5 2341 6 1871 30 1693
606 0.8669686829792319 -0.0559951297032486 -0.3845741496585314 185 185 187 0.00977099806796782 5 2387 6 1948
607 0.9488158334645074 -0.07424969826946985 -0.38316066379234814 192 196 191 0.06693557016183932 5 2417 6 2012
608 0.8854035421779225 -0.0685352359152466 -0.38268809462514713 27 30 29 0.0364026458789481 5 2427 6 2022
609 0.9647417562410808 -0.08149370101187921 -0.38191636885395114 196 196 196 0.25906861798302966 5 2433 6 2042 29 1171 26 1412
610 1.109804888040735 0.3046145633238681 -0.39732735440628664 77 64 53 0.4783559681051181 5 211 7 193
611 1.0853648632947506 0.1210493178749243 -0.38953779809450323 153 157 157 0.21954975921559508 5 1245 7 570
612 1.0809271561265543 0.112654310734093 -0.3869446528351301 111 114 115 0.18185108902716388 5 1287 7 612
613 1.093988643065397 0.0934964144522716 -0.39072643924966244 143 151 150 0.2252333956238066 5 1402 7 765
614 0.9521507951211872 0.0471344035712566 -0.3840518253548185 51 50 54 0.43568799879499714 5 1701 7 999 9 708 31 1256
615 1.0863320644675813 0.03498072164482535 -0.3874725641094264 153 160 158 0.11364605043908846 5 1776 7 1137
616 0.866803697480249 0.014084294189108861 -0.38557236793106225 30 36 38 0.06596603506743956 5 1941 7 1197
617 0.983630500188147 -0.04648357147714135 -0.3825580260804199 45 50 56 0.3346447701259006 5 2286 7 1607 31 1842
618 0.9907679778847184 -0.061390527185144164 -0.3821187609669684 54 49 55 0.1545218064974914 5 2346 7 1701 31 1943 29 1097
619 0.9220783333594544 -0.06382044946886924 -0.38307516176248635 28 31 32 0.07546842170186807 5 2389 7 1750
620 0.9104528389501074 -0.0684254009312573 -0.3829162696284131 27 30 31 0.04813016143952442 5 2413 7 1794
621 1.1002687884870554 0.11336854056853957 -0.38728760258016126 132 140 139 0.18157365272435902 5 1294 8 533
622 1.098342422402901 0.09008708129028428 -0.38808255609076575 142 149 148 0.18375537933432204 5 1424 8 672 6 965
623 1.0986445648994465 0.0846553299714426 -0.38969179116921093 104 110 108 0.13385793366923715 5 1462 8 726
624 1.1013635898348861 0.037969311251557045 -0.38875822030388824 95 96 98 0.054438523995528676 5 1754 8 1037
625 1.0851287073925389 0.02998645237087124 -0.3900150351350774 161 164 163 0.1854052255564979 5 1804 8 1078 9 994
626 1.0864488338420337 0.016135493592214802 -0.389305098529106 102 101 103 0.10570732753786141 5 1887 8 1163 9 1076
627 0.8548027968554213 -0.07522086770573395 -0.38526120995356256 28 31 34 0.7036812249714081 5 2460 8 1786
628 0.8548027968554213 -0.07522086770573395 -0.38526120995356256 28 31 34 0.7036812249714081 5 2461 8 1787
629 0.8899200027698535 -0.09688960065620728 -0.38478909590832 35 34 37 0.48274950775035314 5 2495 8 1907
630 1.088637030424488 0.09219561346346798 -0.38990088336191026 125 131 136 0.20789185154277245 5 1409 9 564
631 1.1005489290936632 0.08900781750473656 -0.3893428425893123 75 76 80 0.24858880738207578 5 1432 9 583
632 1.1005489290936632 0.08900781750473656 -0.3893428425893123 75 76 80 0.24858880738207578 5 1433 9 584
633 0.9990530587449067 0.07566616284129614 -0.3839676419097936 189 197 196 0.06129714504750142 5 1495 9 552
634 1.0920022573366992 0.07982024615977183 -0.38955232209899465 121 127 126 0.17437586975975586 5 1496 9 635
635 1.107902383261379 0.05740326850980577 -0.3903352755557667 128 133 128 0.1349071915482068 5 1646 9 823
636 1.0959673138770305 0.053307220061836746 -0.3899260640417334 133 139 139 0.11985546865067123 5 1664 9 836 6 1178
637 0.8327999373976163 0.10110846605101177 -0.3868237101101334 192 195 196 0.09613782274773901 5 1234 29 471 26 398 28 365 30 674
638 0.9110914525978524 0.08793794611472891 -0.3857998258233395 182 190 189 0.2721035035551304 5 1365 29 531 30 775
639 0.916278255690621 0.08188175333006087 -0.3837513202304643 182 187 185 0.007324535647654149 5 1416 29 550
640 0.8643370715530367 0.07478048792828457 -0.38495624877710394 184 190 190 0.0564067979386015 5 1456 29 577 6 868
641 0.832765663066929 0.07262960940502425 -0.3859969076249586 196 196 198 0.11489098692014359 5 1465 29 588
642 0.9791284137372103 0.056305576293829755 -0.38195203517436727 188 191 190 0.09272523685948111 5 1638 29 695
643 0.9032974062460385 0.04157407227383309 -0.38439567873951097 22 28 26 0.10243529830037851 5 1733 29 738
644 0.9294159517129134 0.03747994141105467 -0.3840615749326377 22 28 26 0.21192353511728818 5 1760 29 748
645 0.9294159517129134 0.03747994141105467 -0.3840615749326377 22 28 26 0.21192353511728818 5 1761 29 749
646 0.8919300783706879 0.03151801210645004 -0.38394409111188427 177 185 182 0.022338411440743465 5 1806 29 772
647 0.8849235352097267 0.024877747919944935 -0.3833194581927729 178 186 185 0.14276239553179937 5 1871 29 805
648 0.9363503400098756 0.01307871035237065 -0.3847694192727944 171 179 175 0.23837586519446202 5 1932 29 838
649 0.9363503400098756 0.01307871035237065 -0.3847694192727944 171 179 175 0.23837586519446202 5 1933 29 839
650 0.8331456278623193 0.013020035048107316 -0.38643231944402195 124 126 127 0.027966036947313123 5 1955 29 842
651 0.8331456278623193 0.013020035048107316 -0.38643231944402195 124 126 127 0.027966036947313123 5 1956 29 843
652 0.99979902997984 -0.0002845883830047055 -0.3817069712426296 51 63 65 0.38699107689156687 5 2007 29 882 31 1499
653 0.8909336901109279 -0.028547661948507625 -0.38082468108182504 175 181 181 0.13754991985074796 5 2237 29 1000
654 1.007514824357877 -0.07676318508201652 -0.3864674435227627 33 38 43 0.2970109843582578 5 2392 29 1146
655 0.8647675348978481 -0.06121511361818505 -0.38210243969250485 30 30 32 0.21313686899165263 5 2410 29 1142 30 1755 31 2104
656 0.8926208624324393 -0.09273842898803421 -0.3833344776612733 176 180 181 0.11324296206870059 5 2486 29 1210
657 0.8182047178279798 0.1716905565655794 -0.3968657599024744 23 24 20 0.081398063603359 5 518 30 271
658 0.8324178074031323 0.13196007086484768 -0.3880548174241197 192 192 194 0.014639379554706887 5 1075 30 521
659 0.8323590564380472 0.10997919264453511 -0.3875508667962618 131 128 133 0.0010879971551861999 5 1182 30 624
660 0.8961666827646053 0.10634321922777995 -0.3853777074438759 183 189 189 0.006047901074823035 5 1232 30 655
661 0.9583380003644377 0.0995113588157883 -0.3840100195881138 42 36 40 0.01487653592671105 5 1310 30 701
662 0.8645927502089322 0.07492325641991082 -0.3859399180253287 181 185 187 0.029661613966417134 5 1455 30 883
663 0.9936765417064879 0.07158683116423778 -0.3820317186396689 190 190 190 0.10587352488739595 5 1520 30 896 28 649 29 618
664 0.9530370921026062 0.030060531834028653 -0.3835135437812987 29 32 32 0.028808689941539952 5 1811 30 1169
665 1.0876984009242463 0.027261269433581255 -0.3880980221948975 137 143 144 0.12377920045966753 5 1821 30 1162 31 1218
666 0.8307437748576448 0.024247936683454378 -0.3869127065466439 178 184 186 0.10242148920601676 5 1879 30 1251
667 0.8577456612795203 0.015576615675259083 -0.38545795326097304 35 38 40 0.08894991463307593 5 1934 30 1301
668 0.8332609244026042 -0.007788907607138966 -0.3858905514030444 151 150 152 0.11567927268766603 5 2127 30 1493
669 0.8344814760504786 -0.012363851929157855 -0.384664168600009 175 175 176 0.1369592679738773 5 2158 30 1522
670 0.8892454463517314 -0.033986422570919037 -0.38396144802999915 37 37 41 0.18892219532771795 5 2269 30 1621 6 1760 31 1956
671 0.8315289827680851 -0.029793184875619418 -0.3852870934217256 153 152 154 0.1523888385296235 5 2280 30 1636
672 0.8732511292683782 -0.05434286275518705 -0.3855955954898539 165 169 164 0.12854598236103368 5 2375 30 1723
673 0.8732511292683782 -0.05434286275518705 -0.3855955954898539 165 169 164 0.12854598236103368 5 2376 30 1722
674 0.9944974018968675 -0.08958048763719306 -0.38329005538643307 20 26 24 0.06665272941650248 5 2441 30 1788
675 0.8654204056751901 -0.0890183907114752 -0.38413289499080894 19 24 19 0.16016335629185255 5 2488 30 1822
676 0.9036402017605799 0.10608308006908049 -0.3866437587686841 192 198 198 0.054293432888137476 5 1242 31 878
677 0.9036402017605799 0.10608308006908049 -0.3866437587686841 192 198 198 0.054293432888137476 5 1243 31 877
678 0.9736937286346037 0.08804883427962691 -0.3838704685618361 193 201 202 0.4188808407394737 5 1391 31 914
679 0.8739545235125057 0.013097411078849534 -0.3858924421186228 30 33 32 0.4224268832876545 5 1944 31 1608 6 1392
680 0.8719503163210758 0.007707415170193124 -0.3840797640312932 53 53 56 0.32291894718811115 5 1985 31 1652 7 1239 9 989 28 1121
681 0.8719503163210758 0.007707415170193124 -0.3840797640312932 53 53 56 0.32291894718811115 5 1986 31 1653 7 1240 9 990 28 1122
682 0.8329016522678417 0.00402726899066574 -0.3853251787423661 165 161 165 0.317618932663497 5 2033 31 1763
683 0.8327032143361321 6.0880061414454766e-05 -0.3856032686140364 134 131 135 0.33934550907751143 5 2072 31 1799
684 0.8327032143361321 6.0880061414454766e-05 -0.3856032686140364 134 131 135 0.33934550907751143 5 2073 31 1800
685 0.8798379489259035 -0.011921964762340823 -0.3848034713278312 31 31 33 0.03685112796662862 5 2136 31 1791
686 0.8798379489259035 -0.011921964762340823 -0.3848034713278312 31 31 33 0.03685112796662862 5 2137 31 1792
687 0.8325884449383295 -0.03273868900109466 -0.38517036987538356 111 110 114 0.3152789336364334 5 2298 31 2037
688 0.8342341500690081 -0.03775921046094235 -0.38479206691831025 110 103 111 0.28674888020373795 5 2321 31 2059
689 0.8342341500690081 -0.03775921046094235 -0.38479206691831025 110 103 111 0.28674888020373795 5 2322 31 2060
690 0.8982558021916872 -0.055932184793738175 -0.38387507189999825 22 25 24 0.18831959415729255 5 2373 31 2051
691 0.857821164254023 -0.06521318908300587 -0.384030731306287 32 35 37 0.030907571428764127 5 2429 31 2119
692 0.9630799383536603 -0.09258097828588843 -0.38248210692663853 37 37 48 0.3934984896442823 5 2464 31 2105
693 0.9591582695012342 0.10011870345283777 -0.38570441080327456 61 60 65 0.0306628460959208 6 742 7 559
694 0.9591582695012342 0.10011870345283777 -0.38570441080327456 61 60 65 0.0306628460959208 6 743 7 560
695 1.0990901542955591 0.10244678767693578 -0.38525205235146437 136 142 140 0.14220896006205472 6 855 7 680
696 0.8634733938229905 0.06407937280269375 -0.3848430655743297 199 202 205 0.16442753627763132 6 992 7 723 9 462
697 1.0832798941017494 0.0680975627661949 -0.37803529650548284 153 164 164 0.05568746442307374 6 1082 7 932
698 0.8547102455716606 0.04972068005254358 -0.38720101212237507 38 39 42 0.08465773231909274 6 1102 7 896
699 0.8908385228625131 0.04575111978571938 -0.3862636731480772 37 37 41 0.1375645933258299 6 1144 7 966 10 495
700 0.8905740821536475 0.0455930147902224 -0.38539469453815484 35 38 39 0.032603022968561324 6 1146 7 967
701 0.8905740821536475 0.0455930147902224 -0.38539469453815484 35 38 39 0.032603022968561324 6 1147 7 968
702 1.0972403176540135 0.05429059601704321 -0.3830080324483609 138 145 143 0.05499631916350765 6 1170 7 1025
703 0.9515175993847269 0.04532297696975301 -0.3822967945084513 53 49 51 0.017914183448238283 6 1172 7 1005
704 0.9586888546078394 0.044000073849107375 -0.3830378675375889 195 203 204 0.03152731396820939 6 1182 7 1013
705 1.0904065142374013 0.03361721680378011 -0.38923077611451656 115 119 121 0.1833429828082906 6 1286 7 1145 9 972
706 0.9425396153490729 0.01977925393949913 -0.3841585829592213 174 182 181 0.10339752930443323 6 1355 7 1171 31 1459 30 1246
707 0.9425396153490729 0.01977925393949913 -0.3841585829592213 174 182 181 0.10339752930443323 6 1356 7 1172 31 1460 30 1247
708 1.107809879152002 0.022556953238092457 -0.3886149609227534 107 107 103 0.012221017156888562 6 1364 7 1219
709 1.0842681341673344 -0.004682078216411942 -0.3833400838931774 160 168 167 0.08091773299152039 6 1521 7 1367
710 1.0918581504077953 -0.00477629112877372 -0.38608278782787614 149 157 157 0.07531128604946098 6 1522 7 1369
711 1.0976112689669124 -0.012716198076848609 -0.38971083069393786 153 162 165 0.1135546590449913 6 1562 7 1408 9 1237
712 0.9175087797511735 -0.012014621732025407 -0.38405328862173294 34 35 37 0.04125445664316945 6 1584 7 1398
713 0.9175087797511735 -0.012014621732025407 -0.38405328862173294 34 35 37 0.04125445664316945 6 1585 7 1399
714 0.9412779849813292 -0.09926718737332753 -0.382764189057172 39 45 45 0.12294209760406842 6 2111 7 1941 9 1772
715 1.1132909314785493 0.3079243432703337 -0.40073786356713387 83 69 59 0.4237451341823915 6 256 8 158
716 1.1043988376603897 0.2974448372546236 -0.4026222980413467 107 104 89 0.38163027464229377 6 266 8 188
717 1.1043988376603897 0.2974448372546236 -0.4026222980413467 107 104 89 0.38163027464229377 6 267 8 189
718 1.1011903796640565 0.11854648178946481 -0.38866487908975167 137 144 140 0.13724619192594256 6 746 8 510
719 1.0883581573109915 0.10284885532175791 -0.38992932877780406 114 116 116 0.11254973275313604 6 843 8 584
720 0.948818234828891 0.08226607191244378 -0.38490782415241115 44 51 54 0.0337984360779709 6 886 8 566
721 0.9808138943684632 0.08274437460530762 -0.38494589635308574 196 202 204 0.02811818365602421 6 918 8 600
722 1.080067050269437 0.09153144097256043 -0.3831290666194413 157 165 166 0.7510851165192828 6 929 8 637 12 280
723 1.1052605853839925 0.0870337473200112 -0.3896358621596072 137 145 142 0.10027354547056486 6 998 8 719
724 1.0885050408208494 0.08067319874904993 -0.3889309792951227 95 94 97 0.060060557730669234 6 1027 8 756
725 0.9871665654907127 0.06431266198071274 -0.38367573715028574 49 42 39 0.05506486185731612 6 1068 8 769 31 1077
726 0.9882090673149498 0.06473172745330343 -0.38517290797033354 71 70 70 0.34554260957568833 6 1069 8 770 29 657
727 1.1014093272748404 0.06867349472495461 -0.3916499648904474 126 134 135 0.06216709146754678 6 1098 8 859
728 1.08575256471116 0.008740047735997437 -0.38862260942639326 111 114 113 0.04071875833130541 6 1435 8 1215
729 1.0909521417724455 0.007833966044642603 -0.38563435956231423 154 163 162 0.04568388148613459 6 1439 8 1219
730 1.1025439844066327 -0.007489874722048941 -0.3837514646047739 126 132 129 0.078011560622227 6 1533 8 1296
731 1.0992025938932062 -0.01859939785990716 -0.38892023966927225 104 111 114 0.11452168200980303 6 1602 8 1353 9 1274
732 1.0886146113833297 -0.019397137405651223 -0.38811384001923144 147 154 155 0.09510166938082446 6 1607 8 1354
733 0.927855952507221 -0.05055652384943423 -0.3829584232576855 53 45 50 0.19339269284272628 6 1854 8 1565 31 1993 30 1682
734 0.8793866075906388 -0.06874190508070928 -0.3831316117750706 184 190 191 0.34983737804562093 6 2029 8 1734 12 960
735 0.8793866075906388 -0.06874190508070928 -0.3831316117750706 184 190 191 0.34983737804562093 6 2030 8 1735 12 961
736 1.1046646795934971 0.30019613796872896 -0.4001531689586117 96 89 81 0.20541916114090097 6 261 9 112
737 0.9954182942453927 0.0720933560108655 -0.384858148953479 193 202 203 0.13240880632948282 6 1023 9 570
738 1.1029484662739433 0.08095923109111382 -0.39186743495478515 138 147 143 0.03761249370881246 6 1036 9 643
739 1.0942488633326921 0.06568760702929524 -0.3906194627633343 104 104 105 0.006636227063721268 6 1110 9 736
740 1.0942488633326921 0.06568760702929524 -0.3906194627633343 104 104 105 0.006636227063721268 6 1111 9 737
741 1.0989322455673873 0.059367473365255705 -0.3892633475816321 145 156 152 0.012025754066211751 6 1142 9 791
742 0.8609737245382529 0.0052764541466981665 -0.38390481309838775 192 195 198 0.27675478365336126 6 1452 9 1003 29 878
743 0.8615995765244873 0.0011921919820170072 -0.38537712612331476 48 35 43 0.14283447800696367 6 1492 9 1031
744 0.8615995765244873 0.0011921919820170072 -0.38537712612331476 48 35 43 0.14283447800696367 6 1493 9 1032
745 1.0846167939960212 -0.005134274024814577 -0.38925768673295613 166 173 172 0.06372977233316607 6 1526 9 1190
746 0.9742765737750503 -0.011530561005184781 -0.3839202052583168 194 201 201 0.10241168143463546 6 1569 9 1184
747 0.9742765737750503 -0.011530561005184781 -0.3839202052583168 194 201 201 0.10241168143463546 6 1570 9 1185
748 0.9748044835996815 -0.07446498379648323 -0.3840003388554974 194 200 200 0.07614399422636121 6 1990 9 1608
749 0.8735812211124527 0.07555988149520255 -0.38552017801315364 29 35 35 0.030152790517627523 6 872 10 312
750 0.8727405198997171 0.06695408776747805 -0.3854619536652013 197 200 205 0.10547323422701632 6 970 10 358
751 0.9550197552534805 -0.08105452986420926 -0.381940381420649 186 192 192 0.030897949366764058 6 2045 10 1200
752 0.9658795735943398 -0.08942488340422336 -0.38071175717016686 56 61 66 0.13198259917352517 6 2075 10 1227
753 0.8962131973936673 0.10632588392728574 -0.3852302585016494 188 190 191 0.12482082361543646 6 646 29 465 28 356
754 0.864338245343921 0.07477822675470688 -0.384932972841931 199 202 206 0.06056291053354305 6 867 29 576
755 0.9578890476238894 0.043741451868644275 -0.38687646917380153 183 186 185 0.10942346366201364 6 1188 29 733
756 0.9559336390955353 0.04330281389558163 -0.3830553836841676 179 185 185 0.24931239130086785 6 1189 29 734 26 874
757 0.9537412659201225 0.030021525797042276 -0.3847489415651662 30 35 36 0.05432724035841995 6 1277 29 776
758 0.8545245528468339 0.025511751511080254 -0.3860568753166139 23 29 27 0.28440993150026633 6 1284 29 802 26 833
759 0.984478230325662 -0.15954371870772066 -0.38779092301977813 22 25 26 0.15546080115122674 6 2212 29 1243
760 1.0793101238057112 0.17013891940715262 -0.3910673926528423 60 60 56 0.3705453686265027 6 531 30 437
761 0.8679251253373945 0.07410683438491283 -0.3851166069527287 33 34 36 0.1414067305975373 6 883 30 887
762 1.0803108511292527 0.09061831147347381 -0.38892106144655075 147 153 153 0.15107959161499618 6 941 30 776
763 0.926381780784556 0.06702415296257268 -0.3844248511179431 181 187 185 0.36348194169713866 6 1012 30 944 7 798 31 1139 28 676 29 636
764 0.926381780784556 0.06702415296257268 -0.3844248511179431 181 187 185 0.36348194169713866 6 1013 30 945 7 799 31 1140 28 678 29 637
765 0.9479755818815632 0.05081724622059381 -0.38329849685685474 179 187 186 0.02132603508699663 6 1131 30 1044
766 0.8905673731424466 0.03154896609668975 -0.38690384857862964 94 86 80 0.11131565064320652 6 1247 30 1176
767 0.8689466444229023 0.008973785910574775 -0.38527213288796436 169 177 178 0.13046431441278958 6 1417 30 1348
768 0.8964260683567267 -0.01867007941753787 -0.384491099323394 162 170 169 0.0132931545937297 6 1651 30 1528
769 0.8857142602725282 -0.04332789289636284 -0.3836687212790421 24 24 26 0.30436894402419024 6 1835 30 1670
770 1.097610654231423 0.2620017413743435 -0.38702661273658534 28 28 22 1.3867606274428466 6 294 31 381
771 0.8857138234978594 0.019042048501478233 -0.38431852141106165 34 37 38 0.20635988669876454 6 1348 31 1549
772 0.8648772873449744 0.0001862636502824397 -0.3849739923968711 188 191 192 0.05095558629381748 6 1502 31 1729
773 0.8648772873449744 0.0001862636502824397 -0.3849739923968711 188 191 192 0.05095558629381748 6 1503 31 1730
774 0.8645793372592832 -0.05858992333127804 -0.38363247602346445 183 183 185 0.03884854100487882 6 1974 31 2095
775 1.103577538379 0.24195814238193103 -0.3995912951712686 29 29 23 0.051802489313716116 7 271 9 202
776 0.880111045310723 0.08791836878438436 -0.3863380471905928 31 32 29 0.20814322180782813 7 552 9 308
777 0.880111045310723 0.08791836878438436 -0.3863380471905928 31 32 29 0.20814322180782813 7 553 9 309
778 1.083282265770769 0.09318793432130519 -0.38477407026193033 122 126 127 0.6880701513914053 7 729 9 529 12 278
779 1.0858800634149803 0.08150755982684482 -0.3914701918862007 130 133 134 0.03494615070960447 7 861 9 623
780 1.089462462608501 0.07997448504668721 -0.3925497619872105 162 172 172 0.031298674184036916 7 873 9 637
781 0.8543020881738818 0.026220090036808332 -0.3822811945760606 37 40 41 0.09954346572139812 7 1075 9 772
782 0.962985979574128 0.02884931670646729 -0.383909858292201 48 53 53 0.08437726796480718 7 1119 9 892
783 0.9707179699742633 0.02879255816711544 -0.3840687908122946 56 59 58 0.08821097161274803 7 1126 9 897
784 1.079198979518056 0.03295357933145964 -0.38968319813048974 105 106 110 0.03499894390509631 7 1147 9 969
785 0.8787531181667245 0.018753225613152995 -0.3820321120268555 182 188 188 0.5692590288437447 7 1149 9 894 12 515 18 503
786 0.9494024630372512 0.02012388893935362 -0.3857254265155367 46 51 54 0.07304537534012497 7 1176 9 962
787 1.105941863908692 0.016849284729410323 -0.38893302230180254 131 139 136 0.5801381137817185 7 1252 9 1080 31 1266
788 1.0965147786250937 0.01585529003992544 -0.3892916906402765 113 116 117 0.021124685795138695 7 1254 9 1079
789 0.8859274541164732 -0.011975374049389876 -0.38533816562072404 192 194 200 0.03202127328045684 7 1387 9 1157
790 0.8859274541164732 -0.011975374049389876 -0.38533816562072404 192 194 200 0.03202127328045684 7 1388 9 1158
791 1.089655210743952 -0.029239448671248315 -0.3922818866775092 122 125 126 0.0055625243300884775 7 1505 9 1327
792 1.0014659678325564 -0.0627516512993587 -0.3855672566273065 187 198 196 0.0017828672935748969 7 1709 9 1522
793 1.0014659678325564 -0.0627516512993587 -0.3855672566273065 187 198 196 0.0017828672935748969 7 1710 9 1523
794 0.9574133740861199 -0.08937061735644636 -0.3844484054653712 195 201 203 0.03481995680799744 7 1903 9 1717
795 0.9483857938070035 0.05094570954840154 -0.3841310215944307 194 194 194 0.14897985021997315 7 970 10 490
796 0.9166087734223871 0.019409026299595976 -0.3837140348395557 194 200 202 0.02638258336020081 7 1165 10 635
797 0.9166087734223871 0.019409026299595976 -0.3837140348395557 194 200 202 0.02638258336020081 7 1166 10 636
798 0.8731027093841455 0.004506963758804332 -0.38547628430808617 194 196 202 0.18162315899539602 7 1270 10 699 31 1672
799 0.9108881949887818 -0.01184731336939085 -0.3837246082674903 189 195 197 0.016595601915553305 7 1391 10 799
800 0.9108881949887818 -0.01184731336939085 -0.3837246082674903 189 195 197 0.016595601915553305 7 1392 10 800
801 0.9526729126613241 -0.03395072073138069 -0.38449406003309317 46 52 54 0.5776508177471161 7 1546 10 954 13 1259
802 0.978041820793574 0.05026877038463175 -0.3806906313721294 69 70 69 0.435875985193946 7 992 11 1069
803 0.978041820793574 0.05026877038463175 -0.3806906313721294 69 70 69 0.435875985193946 7 993 11 1070
804 0.9313930225650426 0.009223755703778603 -0.38353958538156446 201 204 205 0.2803295042820342 7 1248 11 1568
805 0.8588994591693069 -0.0010165185424704784 -0.3855384198312614 36 38 44 0.15986028824466358 7 1322 11 1678
806 0.9373743450631219 -0.0028255879752402454 -0.3810976114259853 53 61 62 0.2809578115335655 7 1347 11 1727
807 0.9410103610794457 -0.00643471806369957 -0.3811079382963392 198 204 202 0.27153448477531744 7 1366 11 1784
808 0.9540182138486172 -0.030539082919381236 -0.3808703165620671 197 201 200 0.2349288922057921 7 1521 11 2104
809 0.9540182138486172 -0.030539082919381236 -0.3808703165620671 197 201 200 0.2349288922057921 7 1523 11 2102
810 0.9658931329573378 -0.08450664131000281 -0.3806939658598981 58 56 63 0.12803607904186654 7 1870 11 2801
811 0.9658931329573378 -0.08450664131000281 -0.3806939658598981 58 56 63 0.12803607904186654 7 1871 11 2802
812 0.8960841223954787 0.039719383792242144 -0.38490080104535707 47 46 53 0.11524414022126074 7 1012 31 1407
813 0.9080016515481085 0.02894512995298436 -0.38600867499772834 37 39 40 0.16619221221517724 7 1087 31 1448
814 0.9612559235618974 0.006700272210316378 -0.38516128626462864 26 32 30 0.17739627359868188 7 1283 31 1520
815 0.9828115597452396 -0.04647577326894311 -0.3810094466288072 42 45 51 0.14250800122325646 7 1606 31 1841
816 1.0365968230454097 -0.06137882941452935 -0.3819420263598758 203 204 200 0.14631836819356353 7 1685 31 1850
817 0.996002558429889 -0.05939976768244027 -0.3820046277221414 186 189 190 0.13882549001794334 7 1686 31 1920
818 0.9278878822500046 -0.062184471410857714 -0.38336101286541147 183 184 180 0.05199692330277384 7 1740 31 2043
819 0.9421171002872011 -0.06874036291661503 -0.3818720392158201 181 187 185 0.13883253516610125 7 1780 31 2049
820 0.9421171002872011 -0.06874036291661503 -0.3818720392158201 181 187 185 0.13883253516610125 7 1781 31 2050
821 0.8749149803559917 0.061473096701095076 -0.3856652656946654 32 33 33 0.08708074528676081 8 641 9 506
822 0.9502527810881115 0.05190051917239863 -0.3873878152412333 196 201 204 0.09695971309495621 8 849 9 672
823 1.0845846012192202 0.06117676812590863 -0.3887927448184495 147 153 149 0.049742513780054745 8 899 9 760
824 1.0057858421320376 0.04980593238895808 -0.38638201419799945 61 71 74 0.08729902402211925 8 920 9 758
825 1.0828300541209355 0.058467092407819984 -0.39195123599995346 172 180 179 0.0679834181606538 8 926 9 784
826 1.0864399816426988 0.05518160818254516 -0.3905535393511095 139 145 145 0.061332693812250226 8 946 9 814
827 0.8926607507802732 0.031956193570776836 -0.38591704944349653 198 200 205 0.04903159105559679 8 965 9 775
828 0.8544230634909746 0.02606827156720261 -0.38527008784926164 35 39 38 0.0171926570048364 8 980 9 787
829 0.9564404923670042 0.03294892057612016 -0.3853046627757534 54 48 50 0.09720730306834818 8 995 9 853
830 1.097664347680287 0.025878335056041136 -0.3862085474200196 151 159 156 0.03253435624972167 8 1101 9 1014
831 0.9354500407685772 0.013020450903221988 -0.3826961985949776 193 200 206 0.40635876129135146 8 1109 9 1001 11 1521
832 1.0036937189190287 0.015048964323222126 -0.38742161111082174 70 78 79 0.06580685044535681 8 1125 9 1027
833 0.9335316931240113 0.00961111540091083 -0.3875541264484584 196 201 206 0.052304603935864 8 1146 9 1022
834 0.9335316931240113 0.00961111540091083 -0.3875541264484584 196 201 206 0.052304603935864 8 1147 9 1023
