# 3D point list with one line of data per point:
#   POINT3D_ID, X, Y, Z, R, G, B, ERROR, TRACK[] as (IMAGE_ID, POINT2D_IDX)
# Number of points: 435
309 0.8327156396715935 -0.032717149640887976 -0.3824231719486392 103 101 101 0.3448633351582069 2 1720 3 1635 31 2040
310 0.8338799667445481 -0.03412086014211633 -0.3848650467168126 182 185 182 0.2423881161911078 2 1726 3 1639
311 0.8338201424631511 -0.035192563913472974 -0.38424870985599935 102 102 104 0.23668006176119963 2 1738 3 1646
312 0.8338201424631511 -0.035192563913472974 -0.38424870985599935 102 102 104 0.23668006176119963 2 1739 3 1645
313 0.8327229400382137 -0.03795037751319382 -0.38231695484945616 104 101 102 0.3513403375499505 2 1764 3 1655 31 2063
314 0.8602704908991555 -0.048876685277508866 -0.3843128653354585 25 28 29 0.17126363327715977 2 1810 3 1683
315 0.8408680070422366 -0.05461428790008354 -0.3775727281714621 174 177 176 0.0743131379771409 2 1856 3 1720
316 0.865436520491898 -0.059002258641869657 -0.38395804737461187 167 170 169 0.08678178197875902 2 1865 3 1721
317 0.8640445000259208 0.0635967870406338 -0.38455567868307045 186 192 192 0.3834688667469121 2 974 5 1557 12 265 27 446
318 0.8953511383879371 0.03169720702732513 -0.3805494952343874 43 39 40 0.10753400292172885 2 1219 5 1801
319 0.844894722979737 -0.004147409278368458 -0.37262522603378123 182 185 186 0.06799788043507202 2 1503 5 2103
320 0.833023883795471 -0.02527219191891871 -0.380738574736011 176 177 178 0.010810201435181778 2 1651 5 2249
321 0.8331763656635807 -0.029898071841838608 -0.37986664126185216 180 180 182 0.018558531196015964 2 1692 5 2281
322 0.8329795975801045 -0.035773805023247326 -0.37998260986570453 177 180 183 0.1362720415993535 2 1748 5 2313
323 0.9877737856632792 0.07523416997081285 -0.38240612129031093 63 66 69 0.4536197495958002 2 944 11 760
324 0.8549366565279259 0.08811214212938949 -0.3850474294595898 28 31 30 0.2637043017334671 2 784 12 131
325 0.9246460703957716 0.07057355207894603 -0.38401308837108117 44 33 28 0.2054188580924288 2 953 12 276 26 680
326 0.9246674108600853 0.07062944544795775 -0.3839981174457043 43 34 27 0.01788023481238849 2 954 12 277
327 0.9230670451313359 0.06692936927984089 -0.3827304988618758 178 181 181 0.46481916726583505 2 975 12 298 27 528 31 1145
328 0.9230670451313359 0.06692936927984089 -0.3827304988618758 178 181 181 0.46481916726583505 2 976 12 299 27 529 31 1146
329 0.8648016274157694 0.03736303014398468 -0.3859022411042803 23 28 26 0.21025230912054652 2 1183 12 417
330 0.9301327398012026 0.037145921633569265 -0.3837777766663264 25 31 29 0.1338921434944717 2 1192 12 451 27 706
331 0.8585315991239225 0.01541140525891317 -0.3856643642722578 38 41 44 0.1747752685871163 2 1357 12 523
332 0.9362784786028849 0.013033403226865834 -0.38242146181262665 176 188 186 0.23128691884890226 2 1368 12 557 27 866
333 0.845970422463872 0.006669865656296357 -0.38818313571182045 188 191 192 0.13391695004133938 2 1421 12 559
334 0.987098379332716 0.0016102774566551642 -0.38136844893895816 58 63 71 0.2271681840560378 2 1435 12 637 26 1120
335 0.9221882426697512 -0.0013990044865015078 -0.3829117784322365 29 35 35 0.04304931125416266 2 1471 12 633
336 0.952548565530385 -0.015363348143930677 -0.3820994912621765 41 43 49 0.1406026391283612 2 1552 12 703
337 0.9633626665332218 -0.022467366614943394 -0.3818332541012536 55 49 56 0.30733622808075406 2 1583 12 749 26 1202
338 0.9596192724445473 -0.02360570229250988 -0.3806732606688194 193 199 197 0.28004585474255084 2 1597 12 757 27 1052
339 0.9653350542701965 -0.030011681211683815 -0.3810037202636285 180 188 187 0.19088589238218956 2 1634 12 794 27 1088
340 0.8956422267727244 -0.028784554542667446 -0.38404019938138206 174 180 178 0.42288982930045416 2 1650 12 778 26 1173
341 0.8678213284007469 -0.06418970697031283 -0.3835408021793135 22 28 28 0.21478409660338896 2 1880 12 940
342 0.8678213284007469 -0.06418970697031283 -0.3835408021793135 22 28 28 0.21478409660338896 2 1881 12 939
343 0.9558076665193188 -0.08115137643681487 -0.3815160554508708 175 185 185 0.06512230811997732 2 1905 12 998
344 0.9246030743584871 0.06390524395913888 -0.3839022807647579 48 47 50 0.11694312688691759 2 1006 26 721
345 0.9246030743584871 0.06390524395913888 -0.3839022807647579 48 47 50 0.11694312688691759 2 1007 26 722
346 0.9318571304729141 0.00916068454126352 -0.3825737471490731 179 185 185 0.15248974567135223 2 1390 26 1024
347 0.9249788728022609 0.0013742101668820336 -0.38353894941066224 46 46 50 0.06490676256912593 2 1445 26 1054
348 0.9249788728022609 0.0013742101668820336 -0.38353894941066224 46 46 50 0.06490676256912593 2 1446 26 1055
349 0.9446966931930292 -0.0063751131040562245 -0.38626494139226175 178 184 183 0.10399555868590589 2 1496 26 1113
350 0.9524283771225072 -0.015332195716005678 -0.3820446768765322 48 54 59 0.07982072627671774 2 1553 26 1160
351 0.8977278168101149 -0.01895966063360317 -0.38526927498918606 162 171 170 0.06277351034804117 2 1577 26 1129
352 0.9320759050781083 -0.02489702313250279 -0.38690587770574913 29 35 33 0.10037951996790417 2 1613 26 1185
353 0.901294722128918 -0.030303070606867037 -0.3859436986599019 31 30 32 0.05018698640791825 2 1660 26 1183
354 0.8680707932589491 -0.05636680808197962 -0.385239361886417 162 168 168 0.056707005798351334 2 1843 26 1280
355 0.8759489211196266 -0.06390552418438102 -0.3897303402420057 21 25 24 0.03795134871912989 2 1869 26 1315
356 0.9033341388554519 0.10542934260441085 -0.383608679557015 197 200 203 0.13055250913398225 2 697 27 324 31 878
357 0.8338832862139095 0.07373148456934038 -0.38791418132279976 130 128 125 0.13287452650238807 2 878 27 354
358 0.833648772751135 0.07236576082711997 -0.3870935343289723 193 193 189 0.10303282372434307 2 890 27 360
359 0.8477042314955394 0.059391286805057904 -0.38782338536989686 187 187 187 0.24136549186550815 2 1014 27 440
360 0.892455985533016 0.031241049940891344 -0.383233788261303 173 181 180 0.0008821339883901588 2 1229 27 682
361 0.9725394982833074 0.019648997347472965 -0.3794589314075508 66 72 76 0.06778308700484724 2 1316 27 872
362 0.9725394982833074 0.019648997347472965 -0.3794589314075508 66 72 76 0.06778308700484724 2 1317 27 873
363 0.9575368263855186 -0.022786407229990886 -0.3772696551879946 175 181 179 0.17420627544603393 2 1592 27 1047
364 0.9692970888792919 -0.03375326791104678 -0.3799048075884503 51 58 62 0.05694951300851267 2 1662 27 1107
365 0.9722553064323032 -0.04297077923034587 -0.3795374709346552 46 52 54 0.05354550713739475 2 1728 27 1151
366 0.9952923072574817 -0.04966059442359101 -0.3772291562366122 46 57 59 0.061514329576031604 2 1767 27 1188
367 0.9382316157430123 -0.04643072752672988 -0.3805089451419568 37 40 43 0.06978040449479064 2 1770 27 1140
368 0.9483197238142356 -0.06815598845901095 -0.3799035874556765 33 39 37 0.010366239269505395 2 1866 27 1236
369 0.8653915296787991 -0.06164564816876111 -0.38205083368408427 26 27 29 0.1646253336075277 2 1870 27 1160
370 0.9599742968554568 -0.09083481287041996 -0.3751574716978627 41 40 48 0.10539024379607469 2 1927 27 1290
371 0.8887497692802055 -0.09554939716744874 -0.3788877627120746 30 30 30 0.09713594286538395 2 1946 27 1284
372 0.9268436431009963 0.07478776021702906 -0.3816069066077702 191 199 200 0.06988711055844665 2 912 31 1077
373 0.9988104050593619 0.0716692164109997 -0.3824888444106749 79 75 84 0.4811696759267875 3 1171 11 825
374 0.9569409588756285 -0.09498088598611402 -0.3817100588020857 46 51 56 0.27918997337690205 3 1791 11 2895
375 0.8328269015553539 0.12058526397918128 -0.38620132625914 188 187 187 0.12093520500712818 3 935 26 336
376 0.9039860378042126 0.10592552119850246 -0.38556382156123936 180 183 182 0.12588973837335216 3 990 26 481
377 0.9039860378042126 0.10592552119850246 -0.38556382156123936 180 183 182 0.12588973837335216 3 991 26 482
378 0.9289342242961915 0.10272687054539177 -0.38322023782713516 28 34 32 0.026801324137264503 3 1009 26 526
379 0.988079380561577 0.07554058696746511 -0.382966966475205 62 70 69 0.0135929817690041 3 1144 26 757
380 0.9925052763515384 0.07093175897674131 -0.38368254858683104 62 68 70 0.04682150983763834 3 1178 26 793
381 1.0026089429867686 0.06053862625399146 -0.38328528077481283 73 80 84 0.17139897770984144 3 1234 26 846
382 0.9115518402010125 0.05062752720164714 -0.38448452634104135 178 184 182 0.12100909879623936 3 1266 26 778
383 0.9827916604265996 0.02584586261972569 -0.38512788445694496 60 71 69 0.15116161698001102 3 1371 26 999
384 0.9802037269146633 0.01991568366227905 -0.381911325224606 180 183 184 0.03444884132827683 3 1396 26 1029
385 0.9364844291412471 0.01301746319712689 -0.38335384222484625 175 184 183 0.12129840898675869 3 1422 26 1009
386 1.0023358581509871 -0.0006829917478701617 -0.3838245085139162 72 83 83 0.007425625111624045 3 1478 26 1144
387 0.9560263128926841 -0.018407097864466756 -0.3833455167961165 178 184 184 0.08702613220407808 3 1551 26 1178
388 0.9850302530071735 -0.06563071026440355 -0.3824621968484568 43 49 50 0.11466587126227683 3 1703 26 1375
389 0.9052678472192851 -0.09523836256959345 -0.3824633028844468 24 30 32 1.085387612116506 3 1799 26 1424 31 2144
390 0.8638321907207392 0.06364292346705924 -0.3833043436663127 198 201 204 0.8557370411162173 3 1206 31 1263
391 0.8748978443064651 0.06102437391830703 -0.3843503079254937 32 35 36 0.7501281445341378 3 1224 31 1270
392 0.8748978443064651 0.06102437391830703 -0.3843503079254937 32 35 36 0.7501281445341378 3 1225 31 1271
393 0.8748978443064651 0.06102437391830703 -0.3843503079254937 32 35 36 0.7501281445341378 3 1226 31 1272
394 0.8328336249058137 -9.653471594740941e-05 -0.3819600700422159 134 131 135 0.17258994676282494 3 1511 31 1801
395 0.8329857486999008 -0.0021115439737490025 -0.38280758183127256 196 196 200 0.3246052001629968 3 1518 31 1819
396 0.8321234586784095 -0.007820829299457254 -0.38269655583227175 192 192 196 0.22172730385981418 3 1539 31 1877
397 0.8312970375794639 -0.009337550804084204 -0.38238614915327945 193 193 195 0.3007051650415429 3 1549 31 1888
398 0.8455484798832567 -0.024103870648286636 -0.38317801242220473 192 192 194 0.32768505399686987 3 1597 31 1975
399 0.8343423077261578 -0.032440253161350546 -0.38229411546649533 117 112 120 0.16081542056921694 3 1632 31 2036
400 0.832731222250439 -0.03264279843008782 -0.38226807075568403 111 110 114 0.17036515073728634 3 1634 31 2039
401 0.8334656179053764 -0.03580585405381426 -0.38163490481858403 184 184 186 0.07656373111873697 3 1649 31 2050
402 0.8733054177422737 -0.06217305594309383 -0.3809717025656039 26 28 27 0.26031900208560427 3 1729 31 2099
403 0.8975376652721274 0.09910385111960306 -0.38203982597796365 30 33 34 0.0065025285551941255 4 1316 27 343
404 0.9770692478650728 0.08108003774216888 -0.3778546347487409 187 186 186 0.07310028797669718 4 1466 27 538
405 0.9801506609945267 0.0780679197132606 -0.3781379582060652 73 72 74 0.336466477441313 4 1500 27 564
406 0.9846049041096585 0.07417962757551362 -0.3777774594719862 66 72 72 0.09781429910254333 4 1539 27 585
407 0.9953504229848081 0.07431867684905166 -0.37739794977256497 181 185 181 0.10921875634260819 4 1540 27 607
408 0.995423120714189 0.07041610976431256 -0.3777212606288874 81 84 85 0.24410890038601438 4 1574 27 631
409 0.995423120714189 0.07041610976431256 -0.3777212606288874 81 84 85 0.24410890038601438 4 1575 27 632
410 0.995423120714189 0.07041610976431256 -0.3777212606288874 81 84 85 0.24410890038601438 4 1576 27 633
411 0.9579232528038589 0.06775046049827257 -0.3787403752820105 46 52 52 0.2507338170022011 4 1593 27 579
412 0.9971672220605475 0.06728445580603296 -0.3794364482285526 189 200 198 0.6332720512061674 4 1618 27 648 31 1034
413 0.9303731802403453 0.009501765547577553 -0.37832191880136706 181 184 183 0.2354626380360739 4 2025 27 876
414 0.9303731802403453 0.009501765547577553 -0.37832191880136706 181 184 183 0.2354626380360739 4 2026 27 877
415 0.9303731802403453 0.009501765547577553 -0.37832191880136706 181 184 183 0.2354626380360739 4 2027 27 875
416 0.9289438752140051 -0.0544640341638469 -0.37862030507271205 184 187 186 0.4310688924589072 4 2457 27 1171 31 2009
417 0.9410063174070015 0.11222390008141035 -0.3838516037531125 42 48 50 0.6530636311112149 4 1250 31 776
418 0.9695058915950275 0.10974986896490437 -0.38206205728144954 49 45 46 0.6074604269685864 4 1280 31 758
419 0.9581856735245835 0.10533455160791995 -0.38102890684043894 43 31 23 0.5936207831757534 4 1310 31 801
420 0.959090018848159 0.09425810880142019 -0.38170160805998476 43 33 25 0.5104750319892003 4 1362 31 893
421 0.9474844348530689 0.08709022790363947 -0.3814167558986072 193 199 199 0.529813440197503 4 1404 31 950
422 0.9311313869697863 0.07740026784340981 -0.3824122847887123 36 36 40 0.492139345982923 4 1486 31 1050
423 0.993785853750553 0.07385821903885416 -0.3798227359462543 51 44 41 0.41253585137496684 4 1547 31 999
424 0.9896481737880758 0.07016981624400015 -0.38018690404416255 49 43 37 0.5497960990233862 4 1584 31 1027
425 0.9931924680425598 0.06669606727336308 -0.3798711156708378 59 50 50 0.41042025082803996 4 1619 31 1046
426 0.9931924680425598 0.06669606727336308 -0.3798711156708378 59 50 50 0.41042025082803996 4 1620 31 1047
427 0.9834251410965847 0.060730164668817616 -0.3798205312833755 38 41 42 0.36538036391878315 4 1658 31 1112
428 0.9509809739961022 0.04648386054981134 -0.38055825298329254 35 41 43 0.239397465962555 4 1753 31 1260
429 0.9553929708457826 0.0427222408939973 -0.3810423390958521 195 198 199 0.2543131503359767 4 1774 31 1284
430 0.9553929708457826 0.0427222408939973 -0.3810423390958521 195 198 199 0.2543131503359767 4 1775 31 1286
431 0.9614197714302672 0.04255609935083096 -0.3798512036837023 33 33 35 0.3177124402166846 4 1776 31 1276
432 0.9989717730197494 0.013952471729496143 -0.3794192842690151 43 53 56 0.2722651049515816 4 1982 31 1423
433 0.9593458923631722 -0.055845251942467845 -0.3786724299194518 24 30 28 0.08924300178992886 4 2449 31 1971
434 0.888508593326732 0.09038657782053948 -0.38236646688228687 37 40 43 0.4777325186906809 5 1333 31 1012
435 0.8846852630175268 0.08674695160875288 -0.3818618670844413 188 196 197 0.49557751014238083 5 1353 31 1036
436 0.8846852630175268 0.08674695160875288 -0.3818618670844413 188 196 197 0.49557751014238083 5 1354 31 1037
437 0.8795380193610093 0.08135808815062814 -0.3835934183169319 187 193 195 0.44946389012499216 5 1397 31 1102
438 0.8795380193610093 0.08135808815062814 -0.3835934183169319 187 193 195 0.44946389012499216 5 1398 31 1103
439 0.8678029995780026 0.07343689882204363 -0.38245336506007943 49 46 50 0.4485029736701483 5 1460 31 1175
440 0.9231371542543473 0.06994360309434255 -0.380639236730899 48 36 36 0.5109158570131362 5 1505 31 1120
441 0.9231371542543473 0.06994360309434255 -0.380639236730899 48 36 36 0.5109158570131362 5 1506 31 1121
442 0.8684856470584204 0.06639912249877228 -0.382894264847992 56 49 58 0.36079007636183247 5 1529 31 1230
443 0.8603812709069242 0.062229494908500084 -0.3820433519475227 194 197 198 0.34790674871113764 5 1567 31 1282
444 0.9235708356426993 0.06342090773064378 -0.38153388310000563 41 32 32 0.41005129158087933 5 1568 31 1169
445 0.9346794989666124 0.06305696463973971 -0.38150243237117953 28 31 30 0.423863555756932 5 1574 31 1156
446 0.9269267108714572 0.06245005569251719 -0.38105902561519844 191 197 199 0.46576225953882316 5 1576 31 1171
447 0.9269267108714572 0.06245005569251719 -0.38105902561519844 191 197 199 0.46576225953882316 5 1577 31 1172
448 0.9379695562555804 0.05949424515251602 -0.38123590212609143 34 35 35 0.6001796979754109 5 1601 31 1179
449 0.9159263691289022 0.05566882714745397 -0.380742645229679 191 199 200 0.3814641262528146 5 1624 31 1235
450 0.9159263691289022 0.05566882714745397 -0.380742645229679 191 199 200 0.3814641262528146 5 1625 31 1236
451 0.9104655187332161 0.050187631001142805 -0.3819242150432591 191 197 199 0.46819576931244816 5 1667 31 1302
452 0.9071753632420946 0.04677401355349121 -0.3822347173245636 33 34 37 0.45596486258053504 5 1696 31 1331
453 0.8900977324721806 0.04507720119471621 -0.38235587613363897 34 37 40 0.22589675513690716 5 1705 31 1375
454 0.8900977324721806 0.04507720119471621 -0.38235587613363897 34 37 40 0.22589675513690716 5 1706 31 1376
455 0.8900977324721806 0.04507720119471621 -0.38235587613363897 34 37 40 0.22589675513690716 5 1707 31 1377
456 0.8956423261233148 0.039172158297155264 -0.38177276600782206 47 46 53 0.4330195810456657 5 1745 31 1410
457 0.8932031386427874 0.035284450742969084 -0.38179028241907936 194 197 199 0.19935505980848472 5 1777 31 1438
458 0.8894128966209142 0.03056102030172535 -0.3805441452886302 83 65 63 0.347348131471729 5 1807 31 1467
459 0.9413865038834145 0.025293307841463348 -0.38081422615224175 34 37 36 0.4577530382642728 5 1851 31 1435
460 0.9416198824864672 0.019407103288817482 -0.3804640688666473 190 196 194 0.30440829421352006 5 1887 31 1462
461 0.9352730918815547 0.012814463265508292 -0.38084822968799387 185 198 195 0.3732522196539755 5 1930 31 1512
462 0.9352730918815547 0.012814463265508292 -0.38084822968799387 185 198 195 0.3732522196539755 5 1931 31 1511
463 0.857434439566044 0.015168432325163057 -0.38195460843406737 46 46 50 0.13764730826894778 5 1932 31 1622
464 0.922776148710146 0.012416699515273128 -0.38060116105529607 184 192 191 0.18723325559607906 5 1934 31 1533
465 0.922776148710146 0.012416699515273128 -0.38060116105529607 184 192 191 0.18723325559607906 5 1935 31 1534
466 0.8608532389170467 0.011740047747055993 -0.3820983689120354 190 196 196 0.13452606392618685 5 1952 31 1638
467 0.9232544240785048 0.00856521983004236 -0.3807923846222897 49 44 46 0.26184700063538013 5 1957 31 1556
468 0.9261465199983961 0.007613363386221758 -0.38049669676860093 189 195 195 0.2814742431346533 5 1963 31 1558
469 0.9261465199983961 0.007613363386221758 -0.38049669676860093 189 195 195 0.2814742431346533 5 1964 31 1559
470 0.9270522851523281 0.0046326732092005435 -0.3805812078689499 50 48 53 0.2818924561602822 5 1985 31 1576
471 0.9270522851523281 0.0046326732092005435 -0.3805812078689499 50 48 53 0.2818924561602822 5 1986 31 1577
472 0.9922677554190042 0.0014863151326684615 -0.37954101422212194 189 197 196 0.5940237663856607 5 1990 31 1499
473 0.9301897052936017 0.0036842658674537234 -0.3804657565100005 187 193 191 0.2906961125383856 5 1994 31 1578
474 0.9301897052936017 0.0036842658674537234 -0.3804657565100005 187 193 191 0.2906961125383856 5 1995 31 1579
475 0.9984577404776558 -0.00043626760212079236 -0.37827248273130726 46 57 57 0.4459314212296308 5 2006 31 1500
476 0.9236820874398478 0.0013502353470005717 -0.3807536190484496 44 33 31 0.25411512351223803 5 2016 31 1597
477 0.9236820874398478 0.0013502353470005717 -0.3807536190484496 44 33 31 0.25411512351223803 5 2017 31 1598
478 0.9349046413257602 0.0003471697675465797 -0.3804035266338535 184 192 191 0.2912726605752359 5 2020 31 1587
479 0.9349046413257602 0.0003471697675465797 -0.3804035266338535 184 192 191 0.2912726605752359 5 2021 31 1588
480 0.9212346606662898 -0.0013188548594001166 -0.38085654117953716 33 40 39 0.22572421907394716 5 2036 31 1627
481 0.9212346606662898 -0.0013188548594001166 -0.38085654117953716 33 40 39 0.22572421907394716 5 2037 31 1628
482 0.8901099671567391 -0.017000364562842936 -0.3810871853118733 33 33 33 0.013985362922978853 5 2159 31 1813
483 0.9598384037278898 -0.02297060091935122 -0.38139537752475394 183 191 192 0.38054721805576786 5 2166 31 1714
484 0.8640005131420966 -0.024794871983476744 -0.3818951405677718 28 31 30 0.06442435605714296 5 2223 31 1941
485 0.9355274272496495 -0.0545515517998655 -0.37977735830129605 180 184 184 0.0736574448545571 5 2343 31 2004
486 0.9355274272496495 -0.0545515517998655 -0.37977735830129605 180 184 184 0.0736574448545571 5 2344 31 2005
487 0.9235205092498024 -0.05415342995218244 -0.37987907674209914 186 186 186 0.2063447728948899 5 2348 31 2014
488 0.9581669918474188 -0.07758005568830219 -0.37912900743736777 30 35 41 0.07232641481245045 5 2424 31 2067
489 0.955013972489662 -0.08818399023883951 -0.3786164061084597 183 183 183 0.23871879872577725 5 2456 31 2102
490 0.9659744413600537 -0.09245733607295133 -0.37859382415241466 178 182 181 0.08037141429745187 5 2464 31 2104
491 0.9659744413600537 -0.09245733607295133 -0.37859382415241466 178 182 181 0.08037141429745187 5 2465 31 2105
492 0.8651093911962597 -0.08895810967279685 -0.3814562119844996 21 25 24 0.6992668229182144 5 2487 31 2150
493 0.8537286646497817 0.022945641902836184 -0.3837243181719315 34 39 39 0.04666311522099955 6 1285 7 1083
494 0.860785988856473 0.00960467154728979 -0.38526085076388533 192 194 200 0.06940194727508549 6 1405 7 1213
495 0.868542123869976 0.006546543765834858 -0.3848673474634113 187 192 197 0.04817025442333557 6 1419 7 1235
496 0.860768291037417 0.002893296194772753 -0.3842286905806362 192 195 198 0.11996283739535363 6 1454 7 1258
497 0.8599176544400985 0.0013170740634884932 -0.3854886189116549 188 191 194 0.10813330752190094 6 1476 7 1276
498 0.8599176544400985 0.0013170740634884932 -0.3854886189116549 188 191 194 0.10813330752190094 6 1477 7 1277
499 0.9159572487919393 -0.008577234840975567 -0.3824975310452314 192 201 204 0.1405695064470369 6 1551 7 1363 9 1121
500 0.8854365517725833 -0.014392447423600522 -0.38482706074112305 187 190 191 0.05406480066557866 6 1596 7 1390
501 0.8956349958859376 -0.02523450195624389 -0.38286072105922503 55 48 54 0.1619931264567077 6 1683 7 1476 9 1229
502 0.8992413695964104 -0.02831923939969126 -0.3821838085270635 189 194 199 0.13141988627814344 6 1696 7 1500 9 1252
503 0.8992413695964104 -0.02831923939969126 -0.3821838085270635 189 194 199 0.13141988627814344 6 1697 7 1501 9 1253
504 0.8792134516432721 -0.045679960392403615 -0.3837327717938928 184 187 188 0.01291915933063424 6 1839 7 1613
505 0.8645614357981305 -0.06100517260763848 -0.3843922513299399 181 183 184 0.0109941540221635 6 1976 7 1746
506 0.9097509312300875 -0.07049319003300143 -0.3820366988880195 29 32 31 0.07052169409928229 6 2003 7 1796
507 0.8853158923416309 -0.07673313163011873 -0.38407218159418977 188 188 190 0.04070986776559724 6 2055 7 1854
508 0.8798040168952742 -0.07683544502521954 -0.3845044686372261 25 25 27 0.019916858090808932 6 2059 7 1858
509 0.8550370975085195 0.08729846368383981 -0.3861664875607322 35 38 37 0.26078831007780406 6 703 8 418
510 0.8620861125368379 0.07278285503862511 -0.38818066365099935 45 34 34 0.27239799615605587 6 866 8 522
511 0.9982531739214386 0.07595207685471979 -0.3838748873695849 62 64 69 0.13811350216131085 6 976 8 645
512 0.8792633736563775 0.0537908002069179 -0.38491917992280367 197 200 203 0.11339971904317027 6 1065 8 699
513 0.948091015355085 0.05423879470187147 -0.38291289849512916 40 49 50 0.23990877492995732 6 1095 8 795
514 0.8644747283383707 0.005828911323237455 -0.38432898449528274 49 48 57 0.20874726270683752 6 1429 8 1112
515 0.899350258270568 0.004392467535366897 -0.38756399811547754 25 31 31 0.116035457723077 6 1443 8 1156
516 0.8924446098714786 -0.021988311901663733 -0.38362835558041747 47 41 40 0.19807683485629188 6 1656 8 1338
517 0.8743154579930393 -0.050578796381558516 -0.3838483630521315 29 29 29 0.30586156745820603 6 1864 8 1557
518 0.8743154579930393 -0.050578796381558516 -0.3838483630521315 29 29 29 0.30586156745820603 6 1865 8 1558
519 0.8690771666013452 -0.061005184136461846 -0.3835726042053574 182 183 185 0.17969875644268687 6 1972 8 1648
520 0.8690771666013452 -0.061005184136461846 -0.3835726042053574 182 183 185 0.17969875644268687 6 1973 8 1649
521 0.8581902618693443 -0.060249899510672965 -0.38561845375791626 32 31 38 0.2117497855742013 6 1974 8 1643
522 0.8576080095037252 -0.06757792598758545 -0.38424185113997666 32 32 35 0.05780293215574113 6 2023 8 1716
523 0.9022743156317389 -0.0835030163443235 -0.3806415589463939 45 48 50 0.1337291045647833 6 2079 8 1809 9 1683
524 0.8899910744537505 0.10569097663122913 -0.38517281124669006 39 39 41 0.13937219786011235 6 629 9 254
525 0.9787544428163946 0.08537290146700778 -0.3819748400166748 52 63 61 0.2824853806582537 6 859 9 440
526 0.8597889440108416 0.060099960072970186 -0.38375095672410287 199 198 204 0.07704833513911391 6 1001 9 464
527 0.8900118658515314 0.04295741523952325 -0.3846437028859512 35 38 39 0.0019314177721867117 6 1146 9 642
528 0.9553784873781433 0.04070291103746175 -0.38292061525883453 196 202 203 0.2891441938924619 6 1188 9 750
529 0.9027671658244233 0.029414081461676733 -0.3835242419633198 191 196 201 0.11036759250788593 6 1247 9 792
530 0.9379770364305373 0.013570404854335198 -0.3832737542021101 46 48 56 0.22335863486426608 6 1377 9 980
531 0.8661464584705755 0.011356179126449945 -0.3835663586495154 31 34 37 0.07655867070112135 6 1386 9 923
532 0.954395144120818 -0.0206073516335763 -0.38307038990276504 192 200 199 0.16251719245837712 6 1634 9 1220
533 0.9364847398819366 -0.06484179158791097 -0.38185148463075946 32 35 36 0.0456267689211236 6 1952 9 1532
534 0.9804992252183137 0.11022265792805275 -0.3840456761116499 55 60 65 0.2890724984885391 7 509 9 289
535 0.8877630065569808 0.08794148458250393 -0.3835433051130241 46 43 41 0.0972968851678359 7 540 9 293
536 0.9536011136379625 0.09519204455039905 -0.3826483901431636 194 202 202 0.1763840200471415 7 567 9 345
537 1.0013595209591246 0.07652953079488353 -0.3835462784898013 76 76 81 0.1285740285127242 7 775 9 520
538 0.9942207246132633 0.07212901580002933 -0.3830766977442338 68 66 61 0.09169556978994724 7 809 9 556
539 0.8788821198508369 0.047312352808725665 -0.384776489698828 33 33 35 0.008613295994576569 7 914 9 594
540 0.8788821198508369 0.047312352808725665 -0.384776489698828 33 33 35 0.008613295994576569 7 915 9 595
541 0.9515612046616672 0.04465991765643729 -0.3837801971623452 51 50 54 0.1530255468697858 7 1001 9 706
542 0.9579891831745118 0.04142798669142188 -0.3826176098531456 192 201 201 0.26975530680662774 7 1016 9 747
543 0.965311955691686 0.02938476819219151 -0.3815161770627493 190 200 203 0.1565224827690764 7 1098 9 870
544 0.9684244694174357 0.0258446975487055 -0.3812000060236455 56 59 58 0.11574807023669306 7 1128 9 895
545 0.915825866322166 0.01680324751281252 -0.382735090981983 194 200 202 0.17777620739339242 7 1168 9 926
546 0.9474329604753908 0.017272740066359416 -0.38293729137653254 46 51 54 0.13703114676222003 7 1178 9 960
547 0.9525330233351815 -0.019435037482875585 -0.3814496766722175 198 205 209 0.094077490701265 7 1430 9 1211
548 0.888465926023514 -0.03632224264760118 -0.38221185053571205 40 42 48 0.14817980488284205 7 1551 9 1317
549 0.9376636814810466 -0.04889356010232699 -0.38178334231208805 48 47 51 0.022057982142790627 7 1620 9 1392
550 0.9981262191737705 -0.06448534500944648 -0.3816377583962709 187 198 196 0.04170369474680672 7 1711 9 1521
551 0.9981262191737705 -0.06448534500944648 -0.3816377583962709 187 198 196 0.04170369474680672 7 1712 9 1522
552 0.9855194304000418 -0.06396243653158884 -0.3813023889469164 188 199 199 0.031764441302140255 7 1714 9 1520
553 0.9603733682140554 -0.09037359549263231 -0.3795246601885276 194 202 203 0.09255586398484034 7 1901 9 1711
554 0.8673689141685224 -0.0017271764675587616 -0.3814311861510056 55 51 56 0.16915064952442013 8 1191 9 1032
555 0.8673689141685224 -0.0017271764675587616 -0.3814311861510056 55 51 56 0.16915064952442013 8 1192 9 1033
556 0.8853469363140125 -0.04573479121014642 -0.38259064304849816 33 36 39 0.13093369464848761 8 1518 9 1366
557 0.8853469363140125 -0.04573479121014642 -0.38259064304849816 33 36 39 0.13093369464848761 8 1519 9 1367
558 0.9158338763986642 -0.07077903746919152 -0.38097952978864935 181 187 189 0.13640711184045598 8 1721 9 1579
559 0.9099045211907036 -0.07636457912373737 -0.3809676213447089 182 188 188 0.07692706990327254 8 1757 9 1621
560 0.9802082993468252 0.11325033677064764 -0.3830262427918286 55 63 62 0.13262130677068984 13 578 15 526
561 0.9735293197478061 0.08343122946762423 -0.38530633653026497 53 61 60 0.1229426012586914 13 686 15 652
562 0.9735293197478061 0.08343122946762423 -0.38530633653026497 53 61 60 0.1229426012586914 13 687 15 653
563 0.9985270430842195 8.527750348669449e-05 -0.38093233550846495 51 62 60 0.0036072865992294936 13 1087 15 1063
564 0.9575268645352883 -0.03328449155208806 -0.3808451169336703 32 38 38 0.05070599421954916 13 1256 15 1214
565 0.9890751744477193 -0.05257969454951569 -0.37939614254004095 36 44 43 1.022305638273426 13 1320 15 1276 25 2222 16 1082
566 0.9893917002052458 -0.06415779257409662 -0.3801712544896295 32 32 34 0.062279475904486854 13 1366 15 1313 16 1121
567 0.9269373970608699 -0.061451901225284114 -0.3817603855340284 156 156 152 0.13458525080001976 13 1375 15 1332
568 0.8315077355608204 0.13226108711499893 -0.3881770482477965 191 187 188 0.0215206289331354 13 512 18 36
569 0.9179727928954172 0.1162125654936692 -0.38931829957439534 27 33 35 0.1353296817729413 13 556 18 96
570 0.8901287279491454 0.10981899884087873 -0.3875295495310947 29 32 33 1.5265899393897338 13 558 18 91 25 946
571 0.9073036262719191 0.11204009469554367 -0.3881135423776133 33 33 34 0.09325742793847756 13 561 18 97
572 0.8977930308227737 0.10109612854033613 -0.38603206602050316 32 32 34 0.1326370402977961 13 586 18 112 22 435
573 0.8977930308227737 0.10109612854033613 -0.38603206602050316 32 32 34 0.1326370402977961 13 587 18 113 22 436
574 0.9024496284582127 0.09615885473936571 -0.3857047743553803 167 170 169 0.03421767846424306 13 598 18 124
575 0.9024496284582127 0.09615885473936571 -0.3857047743553803 167 170 169 0.03421767846424306 13 599 18 125
576 0.8881784667087782 0.09217982290685954 -0.3867530655805399 25 27 24 0.011565398678805886 13 604 18 128
577 0.9100618080949543 0.08844105550080286 -0.3853227212718344 160 170 166 0.04086050821625973 13 631 18 157
578 0.8843038172725539 0.08286184958831327 -0.38638024460590836 21 27 29 0.04678575313574858 13 640 18 158
579 0.9422952208854728 0.08379143430046188 -0.3859047531902197 161 167 166 0.0605982995285028 13 672 18 207
580 0.9422952208854728 0.08379143430046188 -0.3859047531902197 161 167 166 0.0605982995285028 13 673 18 208
581 0.9209239270028049 0.07612360006005128 -0.3846217633825409 24 30 29 0.24347516625624885 13 692 18 222 22 617
582 0.9307385736568342 0.07547994719547407 -0.38473332113522857 35 34 33 0.17483647848966063 13 702 18 235 22 628
583 0.8606245839490717 0.0665738601428067 -0.38578444219886987 37 28 19 0.06344010012671271 13 708 18 215
584 0.8606245839490717 0.0665738601428067 -0.38578444219886987 37 28 19 0.06344010012671271 13 709 18 216
585 0.8677939661737987 0.06735672882431754 -0.3863255443715628 30 29 33 0.0574533853554907 13 711 18 217
586 0.8975107128948085 0.07057162263992812 -0.3869251845046578 13 19 16 0.04485762828853365 13 712 18 232
587 0.871890574886682 0.06739107413958823 -0.3857687510653848 157 165 166 0.04213302164982621 13 713 18 220
588 0.871890574886682 0.06739107413958823 -0.3857687510653848 157 165 166 0.04213302164982621 13 714 18 221
589 0.9339160446447404 0.07270137438198357 -0.38431362316671575 183 186 185 0.1873329220099325 13 722 18 250 22 641
590 0.8627830272442205 0.06431160633443202 -0.38537180706835145 162 170 171 0.04256576943713338 13 727 18 224
591 0.8595768638402846 0.0631732913889765 -0.3855438259386242 162 170 171 0.1366670526186325 13 731 18 229
592 0.8595768638402846 0.0631732913889765 -0.3855438259386242 162 170 171 0.1366670526186325 13 732 18 230
593 0.8564411471120009 0.060102070485939414 -0.3860466627751352 30 31 27 0.04350506465688872 13 745 18 245
594 0.926765037417996 0.06368177320258751 -0.384320625442832 178 184 182 0.20348605482213042 13 764 18 284 22 711
595 0.910324306407798 0.05122305302293558 -0.3852798850045176 181 184 183 0.2737809640944503 13 818 18 342 22 792
596 0.910324306407798 0.05122305302293558 -0.3852798850045176 181 184 183 0.2737809640944503 13 819 18 341 22 793
597 0.8958132429612092 0.044431843999105165 -0.38579770607158553 140 157 155 0.07479580732016186 13 841 18 383
598 0.8958132429612092 0.044431843999105165 -0.38579770607158553 140 157 155 0.07479580732016186 13 842 18 384
599 0.8913622984599737 0.040239370558135666 -0.38542442951027633 180 183 182 0.2904726989046089 13 869 18 397 22 855
600 0.895747884113342 0.03629297391719238 -0.38474173509041254 177 184 184 0.21309648867043884 13 886 18 417 22 879
601 0.8914136804506609 0.03196787989879357 -0.38492111440198845 139 155 154 0.05894777818659901 13 912 18 440
602 0.8324250043427315 0.027935906502924372 -0.38569858166256626 164 167 168 0.37857626495962865 13 917 18 416
603 0.888179643382754 0.02897034336398964 -0.3852635863372524 14 21 14 0.053026478687121126 13 930 18 450
604 0.9063599018189051 0.028811645571431982 -0.3840197487165088 31 32 31 0.16919777445844178 13 935 18 464 22 931
605 0.9100971753011506 0.02535456629103193 -0.3840312099178117 137 157 152 0.059158803435657624 13 955 18 487
606 0.9162680821071753 0.020066502565567863 -0.3849211067120467 138 156 152 0.052179498907603705 13 983 18 533
607 0.8569978613585574 0.015938747845603618 -0.38661633299499193 21 24 23 0.03993409193575613 13 998 18 512
608 0.9379077828789334 0.016456566673323663 -0.3837616306477378 37 43 45 0.26066008651403505 13 1005 18 566 22 999
609 0.9255458187949918 0.008097171351208531 -0.38244463279606267 176 184 183 0.18955511876144776 13 1042 18 602 22 1064
610 0.9255458187949918 0.008097171351208531 -0.38244463279606267 176 184 183 0.18955511876144776 13 1043 18 603 22 1065
611 0.8972236691637919 0.006474035496030333 -0.38409982464998527 10 18 15 0.012786757592954522 13 1048 18 597
612 0.8602571848168056 0.005370644317178952 -0.38398391802308757 142 157 156 0.11425853173495534 13 1049 18 586
613 0.8611256111834823 0.0016045162222768899 -0.38618927489417393 26 22 18 0.114585614694806 13 1066 18 608
614 0.8611256111834823 0.0016045162222768899 -0.38618927489417393 26 22 18 0.114585614694806 13 1067 18 609
615 0.8325888260216001 -0.009793751976309738 -0.38465937830809843 99 99 103 0.1977415392841113 13 1120 18 659
616 0.8787309910652725 -0.012383431039211292 -0.38658489036982896 12 18 16 0.09749475294042637 13 1141 18 708
617 0.8538829822414825 -0.0126415766220269 -0.3851642987777974 15 21 19 0.09957642835086597 13 1143 18 692
618 0.9681898147472517 -0.01591934324346418 -0.3830678190834895 28 40 39 0.06973136300483146 13 1154 18 755
619 0.9681898147472517 -0.01591934324346418 -0.3830678190834895 28 40 39 0.06973136300483146 13 1155 18 756
620 0.9059467971700251 -0.016566810477780303 -0.3864161340855135 13 19 17 0.02256677242317523 13 1162 18 738
621 0.8898727090798453 -0.016773199851781932 -0.3845954781652866 24 26 25 0.1959017497745807 13 1164 18 732 22 1249
622 0.8914392577706339 -0.02242833362970087 -0.38434633212806785 128 146 144 0.12905180570934263 13 1198 18 768
623 0.9003029426717482 -0.027206468901405444 -0.3837780862806789 127 144 141 0.06168807513666166 13 1226 18 789
624 0.9003029426717482 -0.027206468901405444 -0.3837780862806789 127 144 141 0.06168807513666166 13 1227 18 790
625 0.8989076334716252 -0.029576012173046565 -0.3841964196062609 23 22 24 0.06243846024809133 13 1247 18 804
626 0.8989076334716252 -0.029576012173046565 -0.3841964196062609 23 22 24 0.06243846024809133 13 1248 18 805
627 0.8887540929966693 -0.03368891694553999 -0.38486747239692054 16 22 23 0.12122626755977742 13 1268 18 831
628 0.9103297240549323 -0.03730767101262522 -0.38370135303497294 133 148 145 0.11813291656199473 13 1283 18 855
629 0.927854017014078 -0.050412304112514926 -0.38373762871882067 33 36 37 0.04097553779839254 13 1324 18 910
630 0.927854017014078 -0.050412304112514926 -0.38373762871882067 33 36 37 0.04097553779839254 13 1325 18 911
631 0.9356968214395488 -0.054504524004448815 -0.3827284165457189 166 178 174 0.23139660375485058 13 1330 18 923 22 1363
632 0.9356968214395488 -0.054504524004448815 -0.3827284165457189 166 178 174 0.23139660375485058 13 1331 18 924 22 1364
633 0.9273515113464265 -0.05742733697772239 -0.38354800802689076 30 29 30 0.0593433488419276 13 1347 18 941
634 0.9273515113464265 -0.05742733697772239 -0.38354800802689076 30 29 30 0.0593433488419276 13 1348 18 942
635 0.9273515113464265 -0.05742733697772239 -0.38354800802689076 30 29 30 0.0593433488419276 13 1349 18 943
636 0.9273515113464265 -0.05742733697772239 -0.38354800802689076 30 29 30 0.0593433488419276 13 1350 18 944
637 0.9273515113464265 -0.05742733697772239 -0.38354800802689076 30 29 30 0.0593433488419276 13 1351 18 945
638 0.9226847111824409 -0.0577294554485838 -0.3827037372409014 166 174 171 0.36123144483218994 13 1354 18 950 22 1379
639 0.871370304321345 -0.05710381231966215 -0.3832292413515534 35 35 37 0.1964020776262587 13 1367 18 933 22 1409
640 0.871370304321345 -0.05710381231966215 -0.3832292413515534 35 35 37 0.1964020776262587 13 1368 18 934 22 1410
641 0.875696793709841 -0.06527766248451282 -0.383057576406183 21 23 22 0.04966694196312237 13 1404 18 986
642 0.875696793709841 -0.06527766248451282 -0.383057576406183 21 23 22 0.04966694196312237 13 1405 18 987
643 0.854107291928239 -0.0753419497683551 -0.382871222863667 16 20 15 0.22032025682651202 13 1457 18 1027
644 0.902845578212902 -0.08115415996260956 -0.38338233426228097 22 25 22 0.011617867803441711 13 1461 18 1042
645 0.8994737602289109 -0.08095014227780852 -0.38245903016892074 158 169 167 0.10748954351238008 13 1462 18 1041 22 1472
646 0.8966186086665194 -0.08505531451659687 -0.38342073976513313 23 27 24 0.07445302574340137 13 1478 18 1053 22 1486
647 0.901479994862224 -0.08877820175414945 -0.3823383932388572 147 152 148 0.007067550065629578 13 1483 18 1061
648 0.8917226323592251 0.10628059485183772 -0.3843047627339554 37 33 27 0.03426295220326425 13 564 19 67
649 0.890531568132102 0.09379147137329231 -0.38236387524219345 165 169 170 0.08663319617264892 13 596 19 92
650 0.8829798498635392 0.08650383978196664 -0.3817330830292019 164 172 171 0.015335260737583678 13 622 19 114
651 0.9679327299756021 0.09162303220515954 -0.3818197396504341 37 37 37 0.2538299602118402 13 641 19 135 22 504
652 0.9454984202122952 0.08718258782758646 -0.3810239261704457 181 181 176 0.0848462936112342 13 648 19 142
653 0.9255444256703765 0.0752603802412318 -0.3824297864165368 181 180 180 0.4043470566621621 13 697 19 188 22 621
654 0.9217268852654674 0.06992678321217428 -0.38093337251971116 44 36 29 0.1078168315318976 13 725 19 207
655 0.921280651149915 0.06717818362773027 -0.38216773322162434 179 182 177 0.3004100971391209 13 736 19 215 22 679
656 0.9218537870328702 0.06341578481121664 -0.38112135901587385 44 37 36 0.06083224809274707 13 760 19 236
657 0.9218537870328702 0.06341578481121664 -0.38112135901587385 44 37 36 0.06083224809274707 13 761 19 237
658 0.9331080011088182 0.06343051807333479 -0.3816381782216016 24 27 26 0.32939877828940584 13 766 19 248 22 710
659 0.9940790575462759 0.06377323815819971 -0.37911819327540003 181 181 181 0.007522119908098455 13 781 19 276
660 0.997668739973566 0.05977333264040551 -0.3786466699294879 55 59 60 0.0021921717534779694 13 802 19 293
661 0.8313593094712964 0.042301583758933475 -0.38079296774650523 169 175 175 0.4129105756611455 13 823 19 292 25 1183
662 1.0013266265916352 0.050167556756010215 -0.3795056735338151 57 60 63 0.1950397337942571 13 852 19 329
663 0.9527503355152145 0.03630164577894725 -0.38065768687952634 178 182 177 0.2952595365065253 13 902 19 365 22 864
664 0.9527503355152145 0.03630164577894725 -0.38065768687952634 178 182 177 0.2952595365065253 13 903 19 366 22 865
665 0.9609969155326035 0.035500885668529165 -0.3808276009567679 43 49 49 0.24455009982823145 13 908 19 374 22 868
666 0.9568415471055193 0.032097085356666284 -0.38057013033312154 179 179 179 0.2468793649729932 13 928 19 397 22 896
667 0.9595704887410236 0.028492516836853755 -0.3792328552679816 33 41 39 0.1054568201017172 13 944 19 422
668 0.9097002361714408 0.019827858426144585 -0.3822834420107036 15 18 17 0.0008932670114615364 13 981 19 450
669 0.9399287008833414 0.01975720959203149 -0.38037467393917995 176 181 179 0.026795363456133352 13 985 19 458
670 0.9770940006084028 0.019958544312634826 -0.3796901629042305 181 182 178 0.009023552048224083 13 992 19 470
671 0.9770940006084028 0.019958544312634826 -0.3796901629042305 181 182 178 0.009023552048224083 13 993 19 471
672 0.9189712849367166 0.01621647702728266 -0.3822811847731425 30 31 34 0.15521615306184686 13 1002 19 473 22 1008
673 0.9216763768341644 0.012848132225542045 -0.38133668161105944 174 180 175 0.26061898807431505 13 1015 19 482 22 1026
674 0.9338187173981121 0.013094446960929427 -0.381472763299183 178 186 185 0.15769255773712595 13 1017 19 488 22 1019
675 0.9336659154137636 0.013064295980760074 -0.3810453647007104 178 186 185 0.7701527898704376 13 1018 19 489 22 1020 25 1696
676 0.983750844747542 0.012850711341377432 -0.3787524735240216 177 180 179 0.07703312367032474 13 1021 19 508
677 0.983750844747542 0.012850711341377432 -0.3787524735240216 177 180 179 0.07703312367032474 13 1022 19 509
678 0.9298291165478132 0.009442647766189867 -0.3813050851295536 178 181 180 0.020581964539009484 13 1037 19 513
679 0.9833510910807346 0.0052893870158916495 -0.37895419804385067 176 180 179 0.11087281938762515 13 1061 19 552
680 0.9870690730455292 0.004906039667348027 -0.3783870192917608 69 75 73 0.14592763954680513 13 1064 19 558
681 0.9297985517468745 0.0014959254103782409 -0.3811227643210119 44 44 48 0.17555000779910687 13 1073 19 560 22 1099
682 0.9847057352727376 0.0021438992715499543 -0.38010886776377667 65 68 70 0.03532388757521646 13 1074 19 571
683 0.9256936921179767 0.0008455815385047536 -0.38102608862971643 169 177 173 0.2123410439947508 13 1079 19 563 22 1107
684 0.9335374061755016 0.0008210394774051086 -0.3807153467940732 170 179 172 0.225878088792218 13 1080 19 565 22 1101
685 0.9201614401764959 -0.0009672997799756624 -0.38186201810823117 26 32 32 0.32763563343093144 13 1088 19 568 22 1131
686 0.9196889909947559 -0.001163065059527007 -0.380920000305702 26 32 32 0.012755135552165012 13 1089 19 570
687 0.9361066970483009 -0.0024829059192811582 -0.37963853268747627 35 41 41 0.043833028311137966 13 1097 19 578
688 0.9366596464700359 -0.0023231573566416808 -0.3806700850641409 24 30 28 0.38813975571775605 13 1098 19 579 22 1126 25 1827
689 0.9641890517709805 -0.022390486208304212 -0.37904589061075294 172 178 177 0.05645250851054942 13 1192 19 699
690 0.960090256109264 -0.024915956953184562 -0.37986039395988896 40 46 48 0.08928458883572474 13 1206 19 714
691 0.9606464585295794 -0.026731745703652256 -0.3786953908097328 48 51 52 0.015118593621533106 13 1217 19 727
692 0.9606464585295794 -0.026731745703652256 -0.3786953908097328 48 51 52 0.015118593621533106 13 1218 19 728
693 0.9525782837228867 -0.029910308345301825 -0.3794244166598437 170 177 175 0.04930764863279557 13 1240 19 753
694 0.9766768370436208 -0.03679084271997658 -0.37851120771177 47 58 56 0.10847557326300254 13 1269 19 808
695 0.9766768370436208 -0.03679084271997658 -0.37851120771177 47 58 56 0.10847557326300254 13 1270 19 809
696 0.9773081962887373 -0.04205393189473416 -0.37927029644263244 175 181 181 0.02935141765916309 13 1292 19 825
697 0.9773081962887373 -0.04205393189473416 -0.37927029644263244 175 181 181 0.02935141765916309 13 1293 19 824
698 0.9399500098825566 -0.04222862001644344 -0.3794859890184599 170 176 174 0.0020776107259515195 13 1300 19 820
699 0.9843499806870549 -0.04914162835048751 -0.3793711062109704 177 180 179 0.09004074197069044 13 1312 19 842
700 0.9316292056577821 -0.051522493728176744 -0.3810693119631075 168 176 173 0.13114804726021384 13 1326 19 846
701 0.9877527496852314 -0.05657475137399015 -0.3777924216815325 178 178 178 0.14786873055607902 13 1329 19 867
702 0.9813060914090327 -0.05682925281745483 -0.3791109334710449 48 56 57 0.05975165429572755 13 1339 19 871
703 0.98744522325562 -0.060229658607514495 -0.3779977609448337 61 63 69 0.0638482825444775 13 1345 19 884
704 0.9832128833159955 -0.06076861300475611 -0.37776242417184336 175 181 180 0.014932886315728882 13 1355 19 888
705 0.9832128833159955 -0.06076861300475611 -0.37776242417184336 175 181 180 0.014932886315728882 13 1356 19 889
706 0.9832128833159955 -0.06076861300475611 -0.37776242417184336 175 181 180 0.014932886315728882 13 1358 19 891
707 0.990630708091319 -0.061414128159543634 -0.3776898789277346 177 180 179 0.15455265890459485 13 1359 19 895 22 1352
708 0.990630708091319 -0.061414128159543634 -0.3776898789277346 177 180 179 0.15455265890459485 13 1360 19 896 22 1353
709 0.9669598525323517 -0.07642300428962658 -0.37790601907878413 39 47 46 0.015438716118801753 13 1424 19 946
710 0.952774154381546 -0.07994059893329367 -0.3788545317662801 169 175 173 0.027653729594284856 13 1444 19 955
711 0.952774154381546 -0.07994059893329367 -0.3788545317662801 169 175 173 0.027653729594284856 13 1445 19 956
712 0.9021726522103214 0.10624296201281927 -0.384942094364545 194 197 198 0.04103244086213875 13 572 22 404
713 0.9021726522103214 0.10624296201281927 -0.384942094364545 194 197 198 0.04103244086213875 13 573 22 405
714 0.9688407667194358 0.11082505993572382 -0.3833269730540431 38 40 40 0.15636815906076934 13 585 22 403
715 0.9552265019338294 0.10237900004602662 -0.3839362880323775 191 194 193 0.14143414983764033 13 601 22 445
716 0.9552265019338294 0.10237900004602662 -0.3839362880323775 191 194 193 0.14143414983764033 13 602 22 446
717 0.9583250222240366 0.09882043547233632 -0.3832803623209249 47 50 51 0.04118518578916969 13 612 22 463
718 0.8787299907515324 0.08778464287257914 -0.38537210340266664 30 31 27 0.013769603617877714 13 617 22 515
719 0.9634471575786462 0.09566118998037115 -0.3835230368808427 166 169 167 0.06827717583195415 13 627 22 476
720 0.9410074402836334 0.08811296539770656 -0.383398874040566 38 41 40 0.14724602327226963 13 645 22 530
721 0.8726527488094997 0.07596766025449068 -0.3858045328435733 25 28 27 0.04142179448608646 13 668 22 605
722 0.9368172352230979 0.07830734390931884 -0.3818512514982095 27 30 31 0.5532130087736414 13 682 22 592 25 1303
723 0.9380319645207246 0.0792249060915951 -0.3845128522485459 44 43 45 0.1098739420437863 13 683 22 593
724 0.934540952922322 0.07605318437502548 -0.3841383043232444 187 195 196 0.006518054588663982 13 699 22 619
725 0.934540952922322 0.07605318437502548 -0.3841383043232444 187 195 196 0.006518054588663982 13 700 22 620
726 0.9579983301318465 0.06889463334719916 -0.38134495642057126 22 30 27 0.13585817914774573 13 743 22 668
727 0.9154745442593699 0.05657721564763218 -0.38368572077248586 187 193 195 0.067207977109693 13 787 22 757
728 0.9154745442593699 0.05657721564763218 -0.38368572077248586 187 193 195 0.067207977109693 13 788 22 758
729 0.9067059914293769 0.04764093307559382 -0.3848568800498399 30 31 30 0.01774164507978799 13 829 22 812
730 0.9067059914293769 0.04764093307559382 -0.3848568800498399 30 31 30 0.01774164507978799 13 830 22 813
731 0.8892528650095598 0.04568848123230453 -0.3845204006673222 27 30 31 0.006855699287965019 13 833 22 829
732 0.9512423810486608 0.04770084884122107 -0.3836732174934582 25 31 32 0.10653664261293753 13 846 22 806
733 0.9500917376084275 0.047218195164916384 -0.38142728686230076 45 52 56 0.4229052863753697 13 847 22 807 25 1515
734 0.8917237067642 0.043024270804156876 -0.383864078517897 38 30 23 0.0015255869276671506 13 854 22 845
735 0.9024475943301459 0.04188719513455401 -0.38442124044979276 23 29 27 0.04904510717088756 13 862 22 850
736 0.9541750039472102 0.043387669210608125 -0.3809907380778951 179 179 179 0.36836268639323955 13 871 22 831 25 1550
737 0.9060091142735459 0.02869527575495444 -0.3830992979711268 29 32 31 0.06277722466082028 13 936 22 932
738 0.9097777444143893 0.025192276879577015 -0.38320907493037853 181 187 187 0.09040376710818304 13 956 22 953
739 0.9408434057119442 0.020048585585889546 -0.3820902253389239 142 157 154 0.023994542159809965 13 984 22 976
740 0.8754525178741853 0.016273636264088613 -0.3839606145762705 29 29 29 0.013120533563871987 13 996 22 1032
741 0.8711473254719069 0.007866801190744186 -0.3846105387681263 42 42 45 0.015191271997346217 13 1038 22 1093
742 0.8711473254719069 0.007866801190744186 -0.3846105387681263 42 42 45 0.015191271997346217 13 1039 22 1094
743 0.9591618327856466 0.006804174712003363 -0.38253739024730027 18 29 27 0.023935311437194615 13 1050 22 1053
