# 3D point list with one line of data per point:
#   POINT3D_ID, X, Y, Z, R, G, B, ERROR, TRACK[] as (IMAGE_ID, POINT2D_IDX)
# Number of points: 433
57 0.9962005931565928 -0.03458315267791377 -0.36905194664184926 43 49 49 0.3768676776324476 3 1594 7 1548
58 0.8319625980615 0.10017077264921385 -0.38583170874590667 133 133 135 0.3102609026397789 3 1000 26 405
59 0.8326880838597707 0.06334278756552487 -0.3843861735420412 181 183 182 0.11506507127383345 3 1206 26 560 29 647
60 0.9561183011741173 0.04378339983229734 -0.3819840024987322 179 185 185 0.6008045323919814 3 1299 26 873
61 0.9596648525197038 0.03757410412246347 -0.38253799953272416 53 61 62 0.6125027489149522 3 1320 26 912
62 0.8319595029355974 0.037876472397830735 -0.3845206123121654 117 117 117 0.18242768148083705 3 1322 26 719
63 0.8301030519958604 -0.03765222398922811 -0.382213328061507 169 176 179 0.053768224070872214 3 1649 26 1161
64 1.0032926669666622 -0.07545119964222553 -0.3783825054810416 44 46 51 0.2873107024402695 3 1720 26 1410
65 0.937923857746794 -0.09828964331214605 -0.37778434717477133 28 34 32 0.5092398707286504 3 1792 27 1287
66 0.9835898329405135 0.08980677973103625 -0.3884335068562581 72 75 76 0.34287320763127094 3 1078 28 539
67 0.970709206088857 -0.04273752510126879 -0.3766793259527175 33 39 41 0.5118497461603241 3 1625 28 1359
68 0.970709206088857 -0.04273752510126879 -0.3766793259527175 33 39 41 0.5118497461603241 3 1626 28 1360
69 0.8832088299040922 0.08164035112146553 -0.38021511994610185 31 34 35 0.2811381589580345 3 1087 29 545
70 0.9084666794370411 0.08178250409579406 -0.38014846210230846 30 36 36 0.2577086117173405 3 1093 29 551
71 0.8282728245058697 0.06894564139802598 -0.3820554404388511 187 190 191 0.1532676973663975 3 1161 29 612
72 0.9140444750743222 0.05021326289794399 -0.37722332936310843 27 30 29 0.20882627855322897 3 1269 29 710 30 1051
73 0.9140444750743222 0.05021326289794399 -0.37722332936310843 27 30 29 0.20882627855322897 3 1270 29 711 30 1052
74 0.9050368352710604 0.035835827835534025 -0.37939373913892765 23 29 27 0.16786361153901913 3 1331 29 756
75 0.9093173200526885 0.019391126763051478 -0.3808353780108973 25 28 26 0.014829408171598947 3 1402 29 821
76 0.8842859090339451 -0.04354162272067788 -0.38080950717699275 23 26 25 0.21098858563760775 3 1652 29 1066
77 0.8842859090339451 -0.04354162272067788 -0.38080950717699275 23 26 25 0.21098858563760775 3 1653 29 1067
78 1.0736337702803929 0.11135590673835119 -0.3748234261255616 98 97 100 0.7461639840964874 3 1004 30 653
79 0.9757469276421712 0.08745387430505042 -0.37518124074073333 33 41 38 0.38249217940231 3 1076 30 784
80 0.8299767235861888 0.08114025455216206 -0.38362799921252544 139 140 144 0.05556406882807673 3 1082 30 833
81 0.8420703168973388 0.007760523450193276 -0.3784748224252214 178 181 182 0.15426978556686324 3 1464 30 1379
82 0.9255478895674838 -0.0017686560388632034 -0.3783958288431815 29 28 35 0.14449078152771458 3 1494 30 1404
83 0.9719626988436445 -0.005547860778425767 -0.3792538696586253 30 36 34 0.1407069079681101 3 1501 30 1413
84 0.9661526220605129 -0.01615075292424187 -0.37693510791963103 28 34 36 0.29316598949677103 3 1540 30 1482 31 1651
85 0.9723575821883732 -0.06869210607876593 -0.3788280168633333 34 37 38 0.24253194332016081 3 1713 30 1733 28 1475
86 0.9723575821883732 -0.06869210607876593 -0.3788280168633333 34 37 38 0.24253194332016081 3 1714 30 1734 28 1476
87 0.9765995193077789 -0.005938051638398813 -0.37482022617422517 189 195 195 0.04664983400242256 3 1504 31 1565
88 0.8530938440106426 -0.01352357058030601 -0.3798677008045262 37 38 39 0.19959649831734272 3 1552 31 1866
89 0.9881052279775283 -0.04627699963283455 -0.37542733583753507 36 42 44 0.32465527253503407 3 1634 31 1829
90 0.995001947140098 -0.1509868202039587 -0.3760592284307826 23 26 25 1.3689596800468349 3 1805 31 2161
91 1.0802541915719777 0.08291981364769738 -0.38504121893786086 160 169 168 0.06316023211454246 4 1516 6 1009
92 1.0756593835523063 0.08245524781931571 -0.38603571593408537 187 192 186 0.01334350791049376 4 1518 6 1011
93 1.1061965579589128 0.03217560271332435 -0.3839610546078012 110 110 110 0.05166347500809981 4 1840 6 1301
94 1.0044022616516215 0.02409748742276389 -0.3773104522211266 78 81 84 0.004334894412784647 4 1898 6 1334
95 1.0044022616516215 0.02409748742276389 -0.3773104522211266 78 81 84 0.004334894412784647 4 1899 6 1335
96 1.083677365505664 0.016745436271240595 -0.3797715387957436 156 164 163 0.14189122110329708 4 1939 6 1388 8 1162
97 0.8778654184374315 0.01929084515448446 -0.3805839555096705 180 183 184 0.2725597110279114 4 1971 6 1341 30 1266 31 1556
98 0.8779598114441544 0.01931450702111123 -0.3808288009978165 171 179 178 0.2527377738998619 4 1972 6 1342 30 1267
99 0.8969246745326108 0.006806886411473761 -0.38075928413887306 26 32 30 0.18910256808272166 4 2057 6 1442 8 1156
100 0.9468903875216343 -0.04302297548087013 -0.37726730875126835 32 37 42 0.016759851251346856 4 2372 6 1803
101 0.9468903875216343 -0.04302297548087013 -0.37726730875126835 32 37 42 0.016759851251346856 4 2373 6 1804
102 0.9149917614936257 -0.0684099438066224 -0.377954036833856 168 172 170 0.13118574138342728 4 2515 6 1994
103 0.9149917614936257 -0.0684099438066224 -0.377954036833856 168 172 170 0.13118574138342728 4 2516 6 1995
104 1.0059774015309715 -0.15376027392890643 -0.3770492109854838 35 38 37 0.2962188317548034 4 2637 6 2179
105 0.9848678776428786 -0.14883085450610734 -0.3767860665920091 35 34 34 0.2084991492912882 4 2639 6 2172
106 0.9982767173306506 -0.1546329420726867 -0.37307964930007764 32 33 35 0.2549395866853249 4 2664 6 2193
107 1.0908243649874352 0.09258381024634846 -0.3704609948832195 101 106 102 0.9424113114277098 4 1423 7 760
108 1.068957573678994 0.08724029634497349 -0.3709908289678753 133 141 141 0.8960110640672028 4 1457 7 785
109 1.068957573678994 0.08724029634497349 -0.3709908289678753 133 141 141 0.8960110640672028 4 1458 7 786
110 1.0825917958690339 0.013533598799880548 -0.3763354849922455 97 101 96 0.6347418409594742 4 1967 7 1273 31 1317
111 0.9058696250366203 -0.0363768894035546 -0.3723261425976119 179 182 182 1.449575903613518 4 2367 7 1573
112 0.9876261387863925 -0.15135382345165402 -0.38165932932160623 35 34 34 1.722482320865334 4 2638 7 2026
113 1.0887228664757802 0.09123695577814928 -0.3823301835422791 152 160 159 0.1516687752385705 4 1441 8 659
114 1.0956291019349205 0.0830686124426556 -0.38120590719287795 136 144 141 0.08643848931229109 4 1517 8 741
115 1.0940539350395548 0.07623676821505133 -0.3787916184225365 138 144 144 0.04211235050877645 4 1560 8 796
116 1.071485779293275 0.07424704397066177 -0.3813227929008288 191 195 190 0.054595298746262726 4 1581 8 793
117 1.0874107962611266 0.04451010194722068 -0.3790956981858984 100 106 105 0.06486735085884798 4 1767 8 1002
118 1.094839530130911 0.039883459241510315 -0.38076091614811763 135 141 140 0.03907610083696967 4 1792 8 1027
119 1.0895289753621173 0.0243276648435581 -0.37984015276086175 96 99 94 0.06897923425114899 4 1882 8 1106
120 1.082401564332676 0.020011020460211394 -0.3816755223623625 106 110 108 0.057981231691304334 4 1918 8 1130
121 0.8969212125112579 0.00676736579077452 -0.38076499169480205 20 26 24 0.1493572274431789 4 2056 8 1155
122 0.9918035750923383 -0.15100016300876865 -0.3772329428009045 33 33 33 0.07021002694262875 4 2641 8 1988
123 1.1073647394008055 0.06776687859578172 -0.41416309229207016 160 166 164 0.9881750479018995 4 1653 9 731
124 0.8291355272951375 0.04816817012057096 -0.38426197519919886 179 185 185 0.005857229607109826 4 1730 26 651
125 0.8317333534015446 0.037715452827994426 -0.38368915183917435 117 117 117 0.08920211668994474 4 1813 26 718
126 0.8339641212673289 0.010310885832558752 -0.38498784683867265 172 180 181 0.14688906497168985 4 2048 26 884
127 0.8327205337585638 0.1326289569514364 -0.38562924113846986 190 189 189 0.11346357012752262 4 1064 27 177
128 0.831432395953373 0.04485022845498468 -0.38275551386578693 127 123 123 0.30006882779212085 4 1761 27 488
129 0.8890694237290068 0.0311968007702381 -0.3830472983629867 79 75 68 0.10834808996132159 4 1856 27 676
130 0.8891697450505958 0.03128410751627582 -0.3833759950246218 79 75 68 0.24561247141389086 4 1857 27 677 28 931
131 0.8318044854648833 -0.01614553627478765 -0.3836975441424434 171 174 176 0.42306552903125233 4 2267 27 883
132 0.8771721345624904 -0.09955870309840155 -0.3810079527172338 21 24 23 0.53200813568743 4 2618 27 1280
133 0.8316617023259835 0.06742357370979238 -0.38483099479148203 145 143 148 0.2577569167189547 4 1550 29 625 30 950 26 539
134 0.8335613466842263 -0.02641214909066428 -0.3789045002083109 178 178 180 0.04750345929673166 4 2354 29 1007
135 1.097119057560009 0.13139697727824104 -0.38205317452252624 158 159 155 0.14374634202650138 4 1217 30 581
136 0.8308673145270158 0.08165799547743664 -0.38363996299509356 194 193 196 0.1786114445064787 4 1393 30 825
137 1.0815338418317615 0.06552312462237958 -0.38285130741284135 113 113 116 0.17326436800196465 4 1646 30 955
138 0.8833210972935405 0.05609125710577249 -0.3797322424599005 34 40 42 0.19737640816607147 4 1670 30 1025 31 1296 29 680
139 0.8314112360386691 0.020918380717500393 -0.3827436579075677 129 129 133 0.0744083948971777 4 1963 30 1274
140 0.8312457805530605 0.00392241996759047 -0.3823268775588371 144 140 145 0.10554985602716567 4 2109 30 1407
141 1.0754482541821642 -0.03669036929171018 -0.3761580959583436 74 77 79 0.05395630109574794 4 2270 30 1541
142 0.9528144214719918 -0.03282664111255806 -0.37708383890392705 43 41 48 0.10971256673611987 4 2318 30 1579 31 1805
143 0.8988118213129213 -0.08115751085597377 -0.3788047091686253 179 182 181 0.18973475918343854 4 2577 30 1801 31 2130
144 0.8988580535588214 -0.08118479489361466 -0.37881370377630774 178 178 178 0.05556369629952881 4 2578 31 2131
145 0.9887875166603105 -0.16637801692523654 -0.3865154798033876 20 17 14 0.2536223923890868 4 2691 31 2207
146 1.0823634818770875 0.052698202509449406 -0.3777139857459047 103 103 102 0.36340261158789194 5 1665 6 1176
147 1.0871284604747076 0.04650725125278161 -0.3772108199358122 133 142 142 0.3196378236999954 5 1710 6 1210
148 1.088328139257563 0.03512654984822557 -0.3785723058086895 104 105 108 0.421939565818358 5 1773 6 1275
149 1.0795720915385403 0.01823236815206664 -0.3758992406683541 148 159 159 0.3359930769974576 5 1878 6 1377 8 1149
150 1.0846830200726791 0.08028894705738748 -0.37128072338279033 112 115 114 0.277638104123502 5 1480 7 866
151 1.0796749739817608 0.027300797436286155 -0.3759034427410553 147 153 153 1.6098121685039046 5 1821 7 1178 30 1162 31 1218
152 0.9755937069926249 -0.07337812181525843 -0.37248838347431235 33 41 43 0.7283340565994397 5 2405 7 1800
153 1.0935752441445223 0.11223804037765031 -0.37684125635675353 132 140 139 0.5853611359881776 5 1294 8 533
154 1.0690738561195534 0.09415984339522433 -0.3781643747106666 191 195 190 0.314758275022903 5 1383 8 613
155 1.088054448928703 0.07550459904562823 -0.37483316687172774 112 117 118 0.46715358435626925 5 1516 8 789
156 1.0963058590241797 0.05986536304087073 -0.37501945577559415 127 131 126 0.3318699160150669 5 1620 8 914
157 0.8880424800739304 0.04533528225076403 -0.3792741876357725 29 32 35 0.3178092613962377 5 1708 8 837 31 1373
158 0.853403808081722 0.08956042749655652 -0.38188619761680065 28 34 32 0.7038141092507367 5 1333 29 516
159 0.8321787085950968 0.0550869647860873 -0.38429347026662786 122 121 121 0.1915384972487496 5 1625 29 693 30 1033 26 613
160 1.0781871609285913 0.13558296568910644 -0.38017323031653766 145 144 144 0.6653697349788047 5 1170 30 559
161 0.9783493916346341 0.11067465647492107 -0.37459755933002764 35 43 44 0.5816198272637931 5 1244 30 640
162 0.8311810487137565 0.038858240844639146 -0.38325413611296333 182 184 187 0.2442866882585259 5 1753 30 1138
163 0.829036062483384 0.024074517473766082 -0.3838370201961061 178 184 186 0.281428406783964 5 1879 30 1251
164 0.9145281720678665 0.050152466904147354 -0.3783463190152012 29 35 37 0.3872903384086646 5 1677 31 1291
165 0.9047296402301426 0.036192651667746246 -0.37887276724037583 28 34 32 0.4011039793343347 5 1771 31 1410 30 1139
166 0.8318783759533271 -0.014828782446344434 -0.3809554639755282 190 190 192 0.6328377918737704 5 2174 31 1924
167 0.8290284634883012 -0.02291455109388491 -0.3815268295286669 193 193 197 0.6997615994249696 5 2232 31 1992
168 0.9083169319764027 -0.011565418115655353 -0.3627592054270833 34 35 37 1.418744263457155 6 1584 7 1398
169 1.0638591856776891 0.10002965124375833 -0.37264543464288874 196 199 196 0.11513512360988261 6 835 8 564
170 0.945239157041308 0.08163723803051394 -0.3771831953540558 44 51 54 0.06976156117523136 6 886 8 566
171 1.0893104578234156 0.08137302621666125 -0.37972540033041235 150 153 154 0.20588193125746473 6 1021 8 752 30 840
172 1.0879230208202517 0.04090909081331594 -0.3770109536326677 141 152 151 0.13046399736286346 6 1237 8 1014
173 1.0786039793673738 0.008861850882450301 -0.37766836672458737 111 114 113 0.03774802450438545 6 1435 8 1215
174 1.0809108303869706 -0.0041879924524684115 -0.3796195629748747 114 114 110 0.14894315532524688 6 1520 8 1279
175 1.082975144194889 -0.02084149769420165 -0.37597004500682774 100 103 102 0.044058675516276576 6 1625 8 1373
176 1.082975144194889 -0.02084149769420165 -0.37597004500682774 100 103 102 0.044058675516276576 6 1626 8 1374
177 1.0054593000921377 0.026592487189294734 -0.38371720647085117 70 81 81 1.033625575289786 6 1319 10 628 13 975 14 699
178 0.993921929500331 -0.1520220692909989 -0.3848073675877039 22 25 26 1.9713703443613229 6 2164 10 1266
179 0.8882161184488548 0.031432059224354165 -0.3810434597268912 58 42 39 0.5201414469182264 6 1247 30 1176 31 1466
180 0.9812511626644742 -0.06475953734284723 -0.37640623513821264 41 45 51 0.10825219010920754 6 1935 30 1718 31 1979
181 0.9038285564311349 -0.09558380872165777 -0.38019423590594403 29 31 33 0.23040100749107376 6 2115 30 1824 27 1278 28 1556
182 0.8880066276581784 0.03139814698763197 -0.38068368101997135 83 65 63 0.3291897313618808 6 1248 31 1467
183 0.9823926488878231 -0.04584428833428042 -0.37969906816582816 42 45 51 0.6068330998236716 7 1606 31 1841
184 0.9569867561227389 0.023978215029380807 -0.3998540073001785 40 48 50 0.75345070530308 8 1073 10 644
185 0.9813771600428564 -0.0036111785742025298 -0.3956331605703514 53 64 64 1.1803158092410817 8 1268 10 778
186 0.9696860577046793 -0.0240604544930395 -0.39557160313082185 51 59 60 1.2504282598231686 8 1391 10 903
187 1.0050218526909138 -0.05689795305285697 -0.39031224195653613 189 195 195 1.5514050969671453 8 1592 10 1061
188 0.8557625943428108 0.09473685337411004 -0.3930848579296922 32 35 34 0.3454255790168469 8 418 12 127
189 0.9712039833944267 0.10567372892919737 -0.3888432594254811 32 36 37 0.015852700637381444 8 479 12 153
190 0.9712039833944267 0.10567372892919737 -0.3888432594254811 32 36 37 0.015852700637381444 8 480 12 154
191 0.8813486697329783 0.06044000900655837 -0.39319480128190704 184 187 188 0.3957824201983983 8 698 12 326
192 0.953042155127391 -0.004303429159696515 -0.39132787395923174 34 42 41 0.15219095661896712 8 1263 12 663
193 0.8312260110614886 0.115880979592765 -0.38513105724072316 191 187 187 0.3523637763784981 10 113 13 536
194 0.8286669031143981 0.09695380160479548 -0.38325358131059123 188 189 185 0.3303414361962061 10 177 13 563
195 0.9595667964062925 -0.023668309769031504 -0.38270831269111877 152 164 160 0.1511322816229999 10 887 13 1197
196 0.8892809493076326 -0.028927592053948 -0.3788087845417695 133 148 145 0.37199268602256136 10 909 13 1242
197 0.8911748300048661 -0.09322864158298627 -0.38216696712767473 159 162 163 0.3256626994881798 10 1242 13 1492 15 1413
198 0.83235651689238 0.070977855440424 -0.38478671689755495 138 133 131 0.06060845702163479 12 201 13 670 25 980
199 0.8298624581115386 0.037359494779890166 -0.38692310202446484 166 173 174 0.1330491687729585 12 400 13 863
200 1.0081510537017266 -0.16125079750156576 -0.38448373909513134 28 30 29 1.135280495514495 12 1060 13 1645
201 0.9531119760311761 0.09395580765514829 -0.3834026167436005 40 48 47 1.338439768781574 12 178 14 324
202 0.9566917417294499 0.04431060824343627 -0.38504986988466255 184 188 189 1.3139564622719904 12 429 14 609
203 0.9566917417294499 0.04431060824343627 -0.38504986988466255 184 188 189 1.3139564622719904 12 432 14 612
204 0.829170139064446 0.04849518332681662 -0.38597865918241897 179 182 185 0.1863567676933928 12 341 15 828
205 0.9698151860494189 0.09294992607883075 -0.38459177904507474 30 34 29 0.15219234373924007 13 642 14 339 18 195
206 0.9269800059956029 0.07650925852983424 -0.3856856730137367 179 186 182 0.06646911395433416 13 696 14 433
207 0.8316351072710303 0.06359925982074356 -0.38506926042424816 121 120 116 0.14873618666044106 13 710 14 496 25 1032
208 0.832773773460108 0.04843748041309293 -0.3855034297370412 173 175 174 0.024391827431349482 13 796 14 588
209 1.0016075646358293 0.06131739192085881 -0.38340631067679554 70 78 81 0.10241320869434221 13 803 14 533
210 0.8319271639840001 0.028039585266257248 -0.385505846478984 175 178 179 0.05906633698341516 13 917 14 700
211 0.8318206329091988 -0.01579911987846832 -0.384848086635031 172 178 181 0.34937348612663216 13 1160 14 941 19 624 25 1570
212 0.8294483395293369 -0.02986874712432571 -0.3851863375483919 165 168 167 0.28316098791661315 13 1255 14 1003
213 0.9617306381064854 -0.0889671270276801 -0.38201840273171056 187 190 191 0.1498637470383577 13 1467 14 1164 22 1454
214 0.8313783630580006 0.0584884154333742 -0.38439468527065923 184 184 186 0.12137475185167891 13 739 15 766
215 0.8290999568843476 0.08849598908423148 -0.38480899752008607 186 189 189 0.21436930882841196 13 594 16 304
216 0.8304063198619495 0.08418918638475881 -0.38409105378759223 186 187 190 0.23444997355978986 13 603 16 336 25 864 15 590
217 0.8303436680594176 0.038603470907691756 -0.38494526823684544 124 121 123 0.1233637604036861 13 856 16 621
218 0.9667183153929448 0.04670433318556715 -0.3840416132075462 30 41 41 0.15366433782478556 13 861 16 615
219 0.8327914443632906 0.015021008975950165 -0.38461496979861926 119 115 118 0.1219877513456964 13 995 16 766 15 1007 25 1363
220 0.9981498899836184 0.018662268387445526 -0.38327544715928324 52 62 65 0.3279477547095044 13 1003 16 758
221 0.8304708304036155 0.00861311229145168 -0.38477223287422074 125 125 127 0.08511426638753582 13 1025 16 803 15 1056
222 0.9424143704224783 -0.011240245489583295 -0.3848485580127284 27 33 33 0.12248341104772853 13 1128 16 900
223 0.8313510142638671 -0.01815479345248715 -0.3854976770948793 106 106 108 0.5236122462600248 13 1177 16 962
224 0.9277025106330034 -0.062291320176965995 -0.3838515396017516 149 155 149 0.04429225665279866 13 1374 16 1132
225 0.9277025106330034 -0.062291320176965995 -0.3838515396017516 149 155 149 0.04429225665279866 13 1375 16 1133
226 0.8785761335259992 -0.012537081140453666 -0.3871670757454318 12 18 16 0.09767290135895959 13 1141 18 708
227 0.909146774082707 0.05596056137027693 -0.38222018472003133 16 22 20 0.012689390624910389 13 785 19 273
228 0.8293321788836141 -0.023089532625802527 -0.38512336860085333 159 167 168 0.18627685181122586 13 1210 19 677
229 0.8330073269903702 -0.024802424517029444 -0.3841117289765179 110 116 118 0.17850075626250964 13 1222 19 683
230 0.8294198235636074 -0.02537433078349213 -0.382660877660585 155 166 166 0.20314270728181733 13 1225 19 684
231 0.9777172115451731 -0.03733748544191017 -0.37985322430012486 47 58 56 0.007559617011608967 13 1270 19 811
232 0.831203543330002 0.10032259106367107 -0.38482608209656777 177 177 179 0.14041276242087966 13 557 25 758
233 0.8302173113961911 0.053610359320593194 -0.3845239511050023 120 122 121 0.16074510786877885 13 771 25 1098 28 757
234 0.8834541551480444 0.024830898915165052 -0.3824611448555128 167 175 172 0.13582208933307435 13 951 25 1462
235 0.9414742268990889 0.025392417310630886 -0.3831243363265907 47 55 54 0.3218863036811946 13 967 25 1625
236 0.8309667150445853 0.0052858636633810584 -0.38309422669175525 163 170 173 0.1861658153282284 13 1045 25 1416
237 0.9832677158287851 -0.150142304717538 -0.38305500069809223 18 18 18 1.1011228749347655 13 1576 25 2307
238 0.8315017227155695 0.06338734079456894 -0.38546831250597324 171 170 174 0.04092153402673873 14 500 16 476
239 0.831307514177563 0.04786261396623345 -0.38627560970807967 112 110 112 0.11632489193019566 14 591 16 569
240 0.9959371708402134 0.044769878296830934 -0.38343093665210387 64 77 76 0.004187702202807899 14 607 16 634
241 0.8313656574629036 0.03320247476479692 -0.38510767750629943 189 189 189 0.14155517777896512 14 667 16 653 17 619 18 389
242 0.8318829086760507 0.025321083471379142 -0.38561116118210903 141 138 141 0.00833640690298972 14 723 16 704
243 0.8319037961957728 0.021077078175146303 -0.38610151762914463 107 106 110 0.02565622700955634 14 742 16 739
244 0.8319037961957728 0.021077078175146303 -0.38610151762914463 107 106 110 0.02565622700955634 14 743 16 740
245 0.8314692663200117 0.020346032073269613 -0.38637245123076014 178 179 183 0.10663603286389825 14 748 16 742
246 0.8323841249973403 0.008772139248942523 -0.38554788195788786 110 107 110 0.05940926713427638 14 806 16 801 24 791
247 0.8308917001569174 0.003745307157746183 -0.385737743781974 115 114 114 0.12905483684001065 14 837 16 831 24 839
248 0.8792951429564497 -0.011820152344853558 -0.38675220869239246 21 24 21 0.14476414580561728 14 905 16 914
249 0.8792951429564497 -0.011820152344853558 -0.38675220869239246 21 24 21 0.14476414580561728 14 906 16 915
250 0.8543485901544442 -0.013447925977651863 -0.38876886766546875 21 25 22 0.118100271824086 14 912 16 926
251 0.9299521849132368 -0.02480118192858314 -0.38592596591719663 16 20 15 0.30870521188129096 14 952 16 966
252 0.8321019308202805 -0.021438978354983255 -0.3864749667966467 161 164 165 0.19387399065308308 14 967 16 973
253 0.8329599977725565 -0.023295285704210033 -0.3859338597777752 107 106 108 0.09736259468953133 14 976 16 981
254 0.8329599977725565 -0.023295285704210033 -0.3859338597777752 107 106 108 0.09736259468953133 14 977 16 982
255 0.8302971446287373 -0.02963452184789539 -0.3859445504263092 132 132 133 0.08536239693286225 14 1000 16 1020 17 1012
256 0.8302971446287373 -0.02963452184789539 -0.3859445504263092 132 132 133 0.08536239693286225 14 1001 16 1021 17 1013
257 0.9155814223925091 -0.037266937861896166 -0.3824679347527583 20 23 22 0.2105358518164923 14 1006 16 1031
258 0.94904037325748 -0.04327720294620523 -0.384803371800688 25 31 33 0.2992444072670193 14 1024 16 1053
259 0.8783277290123095 -0.037318588743393354 -0.3834519878209527 23 23 23 0.10894810035681102 14 1025 16 1046
260 0.9105521849418388 -0.06929908398627035 -0.38498211948659716 18 22 17 0.21064460192310513 14 1125 16 1157
261 0.8793922432491798 -0.07473532061983838 -0.38534846063976874 21 18 17 0.36276192768479715 14 1146 16 1176 25 2150
262 0.8308919958722595 0.11143081320164185 -0.38606291511238633 184 181 182 0.47785055184737907 14 225 17 259
263 0.8308919958722595 0.11143081320164185 -0.38606291511238633 184 181 182 0.47785055184737907 14 226 17 260
264 0.831237711626123 0.01855434402289913 -0.38517523751592203 184 186 186 0.22302874206708587 14 756 17 711
265 0.8305437705670187 0.010104067178927941 -0.38542870136895485 142 141 143 0.03209116323488106 14 797 17 767
266 0.8785618952037811 -0.005941483774532884 -0.38459817737899765 160 166 164 0.2570675593764906 14 881 17 864
267 0.8329075476669795 -0.013945921932087074 -0.3854954425061735 128 128 130 0.44658062331678355 14 924 17 907 25 1553
268 0.8845024106418524 0.08349761176995484 -0.3883241254308423 34 34 36 0.2535138998552738 14 379 22 562
269 0.830892676014935 0.0970753531528034 -0.38507473908807427 128 125 120 0.32750293423315563 15 532 16 267
270 0.8323261133223762 0.09048113675089363 -0.3837885259976344 189 189 191 0.2931709029244588 15 558 16 291
271 0.8520150601185654 0.08747714143019202 -0.3808226745490129 25 29 28 0.2643099828817416 15 578 16 325
272 0.8520150601185654 0.08747714143019202 -0.3808226745490129 25 29 28 0.2643099828817416 15 579 16 326
273 0.8319017846205359 0.08435261832561351 -0.38470024983127094 181 177 178 0.15254293941916106 15 591 16 338
274 0.8292364444367479 0.08109132636706293 -0.38578286772029236 185 188 189 0.25025737123662434 15 618 16 360
275 0.8322776671163504 0.06687860497316601 -0.3834018705003504 186 185 187 0.15685758576587533 15 709 16 442
276 0.9419168382965497 0.05154078628750056 -0.384988855957863 32 38 36 0.22176794398920432 15 821 16 581
277 1.0021940347087412 0.035333757620840865 -0.3819362401382525 54 62 59 0.16757482284754974 15 896 16 675 18 494
278 0.8317497535040927 0.02790479705987302 -0.3850742849908405 179 179 181 0.02760214126060287 15 938 16 688 24 633
279 0.8327947884026671 0.022159943287089753 -0.385093863735962 173 175 176 0.0682272875143929 15 971 16 737
280 0.8326952847510939 0.009564206461247175 -0.38503415175817424 194 193 195 0.2126203675742227 15 1043 16 793 18 544
281 0.8312532288723666 0.0054905807135404786 -0.3845819580220502 174 176 178 0.17207194586747462 15 1076 16 820 19 493 24 819
282 0.8349038808877143 -0.02370922087855766 -0.3864950956338627 166 166 166 0.2239210576996466 15 1222 16 984
283 0.831373852279861 -0.03830957148348962 -0.3860167263968514 88 87 89 0.2976148368525309 15 1290 16 1071 17 1085
284 0.8852058402353662 -0.07498014598766264 -0.3857390202536916 160 160 162 0.08121594072360087 15 1383 16 1174
285 0.8846850924413979 -0.07432443919053583 -0.3837936341394946 136 142 140 0.42111423987045693 15 1384 16 1175 25 2160
286 0.9622402618249222 -0.09284392530926476 -0.38237445002476544 36 39 41 0.3683237089353393 15 1400 16 1198 17 1232 19 984
287 0.8297918107033141 0.059737299244962856 -0.3845314046279585 141 141 144 0.11067789851273169 15 756 17 473
288 0.8336035737809973 0.010548531615668953 -0.384262046735539 172 175 176 0.007691191290521951 15 1035 17 761
289 0.830897244282753 -0.009752081358217557 -0.3851782144100055 108 108 107 0.10144688728133432 15 1148 17 882 25 1520
290 0.8299272205108031 -0.012283342850266495 -0.3858783960865051 165 167 169 0.1993213146713226 15 1158 17 890 18 677
291 0.8325051209550133 -0.025291912183531863 -0.38577595399523157 170 176 178 0.1067906978429659 15 1232 17 978 16 994
292 0.8313965924703873 -0.025260097580959602 -0.3855360834432514 169 175 175 0.12418078270602893 15 1233 17 976 18 763
293 0.8599084265920016 0.0122412934688096 -0.38548943018473475 167 173 173 0.14942553778662368 15 1021 18 549
294 0.8330735371710062 0.013039535007533968 -0.3853452687242135 167 164 165 0.10149887730073104 15 1023 18 508
295 0.8316337593204195 0.013032565136167516 -0.3863793423332016 138 137 143 0.07626402101833334 15 1025 18 511
296 0.831388620327914 -0.025250956413351726 -0.38551779263676017 160 160 159 0.13609901300660876 15 1234 18 764
297 0.8950693494306603 0.03619036442573963 -0.3835078258795762 167 178 178 0.3120630066052231 15 890 22 878 19 350
298 0.9162238090042747 -0.006106277077351721 -0.3846341945100057 159 168 165 0.058122833771423243 15 1103 22 1171
299 0.917802494739365 -0.012719906782098238 -0.38602854802183034 20 24 23 0.0009858809114478416 15 1134 22 1209
300 0.917802494739365 -0.012719906782098238 -0.38602854802183034 20 24 23 0.0009858809114478416 15 1135 22 1210
301 0.9546272882345082 -0.033138504992121696 -0.38316520207789645 35 38 46 0.1540989239178403 15 1214 22 1277
302 0.9108661161117881 -0.06967221576417906 -0.3859896924456378 21 21 21 0.11553561833871312 15 1359 22 1428
303 0.8755962070372747 -0.06586077565213748 -0.38523680672736316 20 23 24 0.11361627578579046 15 1364 22 1438 24 1310
304 0.8755962070372747 -0.06586077565213748 -0.38523680672736316 20 23 24 0.11361627578579046 15 1365 22 1439 24 1311
305 0.8305003213579195 0.13891422966958378 -0.3861846644529897 193 189 190 0.013009525528614084 16 126 17 204
306 0.8314627511878155 0.11642726084087053 -0.38575932681009006 191 189 191 0.024027388864470936 16 212 17 247
307 1.0785153367667737 0.09119073377047504 -0.3823033397744819 88 91 92 0.010865327120472001 16 437 17 481
308 0.831697793328008 0.04080068785487487 -0.3856105442482541 176 176 178 0.3041941652179361 16 611 17 583 18 325
309 1.0836871806188682 0.0507111493298119 -0.39318949160104827 103 103 104 0.1402503612799003 16 630 17 652
310 1.0757724473423298 0.041855882525463545 -0.38358892232282105 120 126 124 0.0901006980784347 16 657 17 683
311 0.9099687168099788 0.020082045945238533 -0.38336704780659486 21 24 23 0.06529679713165329 16 747 17 740
312 0.9539932917462909 -0.030111127804167293 -0.3817631440731175 176 184 183 0.30367455206164395 16 989 17 1016
313 0.91596865014168 -0.04296154536502639 -0.38317470921107355 157 160 159 0.28590332361644977 16 1064 17 1097
314 0.9414724183745667 -0.0737189246723568 -0.3816629651359762 26 26 27 0.1351815583803844 16 1160 17 1191
315 0.8955429326615132 -0.08236739614685354 -0.383455984270342 23 23 19 0.3113374911240796 16 1194 17 1224
316 0.8314346110711467 0.03671281954655842 -0.3855727325166667 117 113 114 0.22039701750598484 16 637 18 362
317 0.8319285530835134 0.024874874646635865 -0.3854775679618859 116 112 115 0.09663356034464175 16 706 18 435
318 0.8319237566644636 0.02490266322733173 -0.385534444527497 116 112 115 0.12479381519737807 16 707 18 436 24 653
319 0.8330070491055062 -0.013201258387647614 -0.38546322958553114 162 165 164 0.1365796305972311 16 930 18 687
320 0.8326894931212894 0.1369559515218791 -0.3853390304941566 187 186 186 0.24342568744183202 16 129 19 27 17 210
321 0.8306537614568824 0.08008949677245307 -0.38501314142776294 183 189 191 0.0449202610030588 16 362 19 119
322 0.83291526945465 0.05164721671536426 -0.3840920350523953 182 182 182 0.15109821488645628 16 548 19 252 25 1136 24 451
323 0.8304575664071268 0.13545929943393661 -0.38760724272862 119 119 115 0.1746569804619276 16 138 20 504
324 0.83157998767859 0.11091952080587662 -0.38377728772783837 190 185 188 0.36236851002125625 16 220 20 539
325 0.8288403855191298 0.07682249511023954 -0.38763959195572156 202 202 204 0.1102244581880082 16 384 20 737 18 138
326 0.9911739396533293 0.07649039700004541 -0.37940160783053917 65 73 74 0.3896964781146678 16 473 20 1154
327 0.8309360415628136 0.06083842007823042 -0.38486274839399714 183 182 183 0.48019341520838854 16 485 20 864
328 0.831137983548093 0.04655269198316926 -0.38444827843741675 148 147 149 0.17107196454790513 16 574 20 941
329 0.8312044112962836 0.02524579222494256 -0.38347612761136046 186 186 188 0.21460059898103243 16 702 20 1122 24 650
330 0.8286699368933406 0.11060888435934338 -0.3849289699329495 190 189 189 0.6906233729640712 16 222 24 141 27 240
331 0.8314615592167464 0.08763536950518319 -0.38421967660628814 141 137 138 0.31522940962096047 16 312 24 194 26 458
332 0.8308649350680146 0.08133566231549223 -0.3836480258240596 177 177 173 0.19358062299415854 16 355 24 225 25 892
333 0.8311197664876151 0.03448220331373236 -0.3840657717442227 186 186 190 0.15068588197742303 16 647 24 593 25 1237
334 0.831350540410704 0.025433054386899454 -0.38471382994679565 176 176 178 0.048378598736802274 16 703 24 651
335 0.8318453098717514 0.02483327897244835 -0.3849674218442944 116 112 115 0.03988920422880492 16 708 24 654
336 0.8308404624616016 0.013468287264714619 -0.38514020974833274 112 111 114 0.1477835343207573 16 770 24 752
337 0.8308404624616016 0.013468287264714619 -0.38514020974833274 112 111 114 0.1477835343207573 16 771 24 753
338 0.833935155714196 0.010714779210200477 -0.38516888194661125 173 176 177 0.03164074620099263 16 785 24 774
339 0.8312435400297358 0.010411893132906934 -0.38432472837029436 174 176 182 0.18519888373025442 16 787 24 776 27 711
340 0.8321397845272969 0.003699824106564256 -0.3856247471333744 123 120 119 0.056015977580979676 16 832 24 840
341 0.8321862587715384 -0.009882897114011488 -0.38586210716556035 115 115 117 0.05217872461321126 16 911 24 952
342 0.830794002135521 -0.012705540398984215 -0.38517499341817935 107 107 107 0.12354307684877294 16 927 24 965 25 1539
343 0.8332655788063609 -0.03444115977972883 -0.38634715168331507 121 117 120 0.04820624812744718 16 1044 24 1137
344 0.8326294457998975 0.022897015590298688 -0.38479317657405293 169 170 170 0.00977784082578105 16 729 25 1318
345 0.8327929134276737 -0.007762562113803975 -0.38487896752353623 104 98 101 0.06318588424205687 16 896 25 1511
346 0.8306918023624013 -0.0375743916664421 -0.3848094006765004 161 171 173 0.6549384476678485 16 1067 25 1745 28 1385
347 0.9662015914454857 -0.0929309774573316 -0.38123251807168407 168 175 172 0.32394163338371174 16 1196 25 2292
348 0.8311601130250252 0.12017023962362672 -0.39247306163165235 199 199 201 0.014668220575902384 17 245 18 55
349 0.8795519897501255 0.08998572864760103 -0.3887250146261898 27 27 27 0.06905557782493686 17 350 18 134
350 0.8795519897501255 0.08998572864760103 -0.3887250146261898 27 27 27 0.06905557782493686 17 351 18 135
351 1.092893035851016 0.0437311648944526 -0.3964051316038168 119 123 118 0.7791707288197223 17 699 18 529
352 1.0816560635023054 0.039242822117364136 -0.38900385530817266 120 126 124 0.7541774683060289 17 708 18 539
353 0.832365880381725 0.005272577232781864 -0.3857616484262246 132 129 126 0.06869653980293446 17 787 18 570
354 0.9933062534436581 -0.0002944069967801812 -0.3869095855372392 55 59 59 0.2650381066051918 17 859 18 686
355 1.0852801447907738 -0.0048709095421115125 -0.39450265237768534 132 136 135 0.509382779983929 17 892 18 742
356 1.0059622995770112 -0.03639726957540395 -0.3875357911957868 60 68 69 0.06530248858963068 17 1054 18 866
357 0.985786338794272 -0.06538448474248443 -0.3858437624768312 41 49 49 0.16297455865768914 17 1161 18 983
358 1.01282006305465 -0.15421748204732458 -0.38537325060299144 19 20 20 0.061341013586925945 17 1268 18 1083
359 1.0157866760734915 -0.15881514034332342 -0.39298076397919224 32 38 36 0.015055880283747103 17 1277 18 1094
360 0.9894405265843345 -0.16438866665051438 -0.3932391087562825 31 35 30 0.040044486683483385 17 1326 18 1120
361 0.8282772742046675 0.07634586088568142 -0.3857338010917241 186 185 185 0.17003399794040952 17 369 19 131 25 930
362 0.8309585434621611 0.0665251299146333 -0.3845814281751216 189 189 189 0.1392065023392402 17 429 19 181 20 835 25 1005
363 0.9732557547657443 0.05238296783887335 -0.38338630790597794 181 181 181 0.014572225799740912 17 602 19 318
364 0.8750498193872881 0.016090283021972674 -0.38407397969335855 22 23 19 0.03331119610604361 17 747 19 457
365 0.8750498193872881 0.016090283021972674 -0.38407397969335855 22 23 19 0.03331119610604361 17 748 19 458
366 0.8786915085160579 -0.011857586505580768 -0.384708802990689 17 20 19 0.1655364369536104 17 893 19 615
367 0.9156914070350527 -0.01117501222978169 -0.38356668620459455 24 30 30 0.051825411239128004 17 898 19 621
368 0.9156914070350527 -0.01117501222978169 -0.38356668620459455 24 30 30 0.051825411239128004 17 899 19 622
369 0.9069150057964924 -0.03403880817827843 -0.3837530209976186 24 30 28 0.02848934657342474 17 1047 19 776
370 0.9099635319928089 -0.03752603351167203 -0.3830359895592705 167 177 170 0.02542629935447416 17 1076 19 799
371 0.9821430973679058 -0.15629198041001294 -0.38219306446221873 18 18 18 0.11717922383222025 17 1307 19 1019
372 0.831572029014972 0.08045135808272677 -0.3845984410196323 129 128 130 0.0012607131916243124 17 342 20 711
373 0.9766700239144399 0.025235914279964165 -0.3784682608683862 74 82 80 0.5991336245435234 17 735 20 1487
374 0.8759571860140227 0.11299078107248402 -0.38662619712614227 25 28 28 0.05992217096066195 17 272 25 869
375 0.8312233359913004 0.06843541629034888 -0.38586684837550583 171 170 171 0.007376894888687904 17 424 25 992
376 0.8304302820310316 0.062129556530641235 -0.3851182264241443 135 135 134 0.034030706331317453 17 459 25 1039
377 0.8311377879196579 0.04083855389528663 -0.3830327068859179 148 149 150 0.07637111059702613 17 577 25 1201
378 0.8322476719981192 -0.038881183287614834 -0.3846139211861261 173 176 175 0.03939494066120071 17 1087 25 1766
379 0.8319086395075995 0.10197826494164676 -0.3862736762170881 200 203 206 0.05813830626781295 19 62 20 552
380 0.8327431352910661 0.08108711914187261 -0.38453377607044414 200 200 202 0.15809197209131653 19 113 20 709
381 0.9532476598532753 -0.030401163741035197 -0.3805943283500282 200 200 202 0.17975572579582064 19 753 20 1818
382 0.8530057427373411 -0.07469696911301633 -0.38352029320711334 24 24 25 0.256917706743659 19 947 22 1486
383 0.8784208765016494 0.08828104189806718 -0.3849247100095847 19 25 23 0.11701793480823156 19 114 25 1051
384 0.8321027075680932 0.0738324709666183 -0.38487534467718965 137 134 130 0.023900855568860797 19 138 25 957
385 0.8306275059341295 0.0709117136932834 -0.38505660872208114 176 175 173 0.04322107105106151 19 157 25 972
386 0.9371341693120739 0.05943123969573156 -0.3814133354163259 43 49 49 0.2292995799799165 19 267 25 1411
387 0.8304178162740566 0.04574327869051553 -0.38379831732056136 157 160 161 0.1190840677503409 19 282 25 1168
388 0.8289918541390892 0.021179018696764456 -0.3836000112590141 170 174 173 0.00676110568751309 19 406 25 1313
389 0.8311872710596253 0.009266676428362854 -0.3837605212330356 161 169 169 0.06963977336035557 19 476 25 1395
390 0.830538322423143 0.008566478408408957 -0.38421857909514756 109 114 116 0.024673020232409328 19 479 25 1397
391 0.8305547316922152 0.0010766818587778736 -0.38415411390668186 117 123 125 0.06072866382946498 19 527 25 1438
392 0.8327415521440904 -0.016452604933454188 -0.3841076580537754 160 166 167 0.05176314706944118 19 627 25 1577
393 0.8306402807890323 -0.018114411452598483 -0.38342539246921525 110 113 112 0.05817061646885601 19 643 25 1580
394 0.9963254491989249 -0.012665429921506263 -0.37936094985416774 68 77 77 0.10574624006226982 19 646 25 2025
395 0.9538143219261702 -0.032886258272988834 -0.38185263570800043 45 44 46 0.1265090995175679 19 775 25 2064
396 0.9400629259704931 0.025055887616230784 -0.3809952357848544 47 55 54 0.14019864489570869 20 1399 22 938 25 1626
397 0.8308810319031273 0.13071149127378381 -0.3868534019077801 205 205 209 0.5406492622037777 20 510 28 275
398 0.8308810319031273 0.13071149127378381 -0.3868534019077801 205 205 209 0.5406492622037777 20 511 28 276
399 0.8295916938574959 0.12277312399209947 -0.38746383168920334 196 202 204 0.419197917532896 20 524 28 297
400 0.9628784066118243 0.03183613437158036 -0.37697615202247897 180 188 185 0.9487762755776988 22 885 24 684
401 0.9866380481838748 0.027834238388377185 -0.3757544724059038 62 73 69 0.8657194612145871 22 906 24 712
402 0.8836323517797925 0.01921068833871161 -0.3815023223951887 24 27 26 0.27117739220096637 22 1002 24 729
403 0.883897480762101 -0.006094904364260977 -0.3820170081519686 23 29 27 0.36909403780919414 22 1194 24 936
404 0.878521768461173 -0.011728911049581512 -0.3835128472789853 23 27 22 0.17323361969280682 22 1225 24 968
405 0.9851860711524836 -0.06406026282486747 -0.3798924283742993 40 42 52 0.5864466873555341 22 1365 24 1279
406 0.9145194461770545 0.08764663119344232 -0.38115174127286555 26 32 30 0.01123864679159645 22 522 25 1194
407 0.9458102456094946 0.05623442711732614 -0.3810194824828017 42 51 50 0.012889249521112275 22 753 25 1458
408 0.9559013688164388 0.029343615359173385 -0.3792779058179404 51 56 58 0.04285047165141939 22 910 25 1646
409 0.9093847140744378 -0.011572046871960008 -0.3822826143318477 162 170 167 0.058066728122700605 22 1207 25 1817
410 0.9104998479156671 -0.06045154498550442 -0.36500689801832964 23 29 27 1.562696070285221 23 2152 25 2179
411 0.8308588447138685 0.11103268793642797 -0.3844285519515196 148 145 142 0.2050715935450912 24 139 25 672
412 0.8318669720563697 0.06400793366229722 -0.38609450446768534 121 120 116 0.1116246627063588 24 357 25 1030
413 0.8318669720563697 0.06400793366229722 -0.38609450446768534 121 120 116 0.1116246627063588 24 358 25 1031
414 0.8326565918395865 0.03207612122393546 -0.3845716290027293 127 134 129 0.09203008275643924 24 601 25 1253
415 0.8301511128631249 -0.002809426877400362 -0.38342608606630163 181 181 185 0.04236110284595429 24 891 25 1471
416 0.8330320878234286 -0.013304585422264504 -0.38473161513960435 175 174 178 0.12677331403401143 24 975 25 1550
417 0.8307255147583634 -0.015466461959595381 -0.38473293587882423 133 132 135 0.08687859489214773 24 993 25 1564
418 0.8307255147583634 -0.015466461959595381 -0.38473293587882423 133 132 135 0.08687859489214773 24 994 25 1565
419 0.9309683763191227 -0.05463232111550171 -0.3847455598432845 165 170 168 0.12269461521603257 24 1236 25 2138
420 0.8832619709230297 -0.07362667021237779 -0.3786917939869243 168 168 164 1.377904937245806 24 1337 26 1366
421 0.8308531755929285 0.13060066856706212 -0.38577485809407075 188 185 188 0.008618609148364093 24 119 27 180
422 0.8316519212977601 0.10725616285110413 -0.386902095497634 191 190 192 0.21327586639197 24 153 27 256
423 0.8826100302898618 0.05532710923038846 -0.3791712855164028 23 29 27 0.6373781103133632 24 468 27 518
424 0.7616280532236831 0.07087879837047203 -0.39522520457842536 59 58 58 0.5025864076178781 25 650 26 430 28 615
425 0.8314530259378177 0.06778381492844883 -0.38504284053099636 144 143 143 0.22959865916591554 25 998 26 538 29 624 28 644
426 0.7704106457718315 0.10381013978132615 -0.3929125382887103 21 20 14 0.6171520196761141 25 378 27 192
427 0.765342149072199 0.07194806922009225 -0.39473606036243736 25 25 21 0.5084141193043471 25 668 27 285
428 0.7665550631368745 0.06884941947307968 -0.3959832624374497 55 58 53 0.49095072165550185 25 707 27 294
429 0.7707158380334556 0.07588772763614782 -0.3949297202460804 41 44 43 0.6877803683897973 25 665 28 573
430 0.7628549615014734 0.0578715174907484 -0.39424930856165263 62 62 62 0.7451842766880044 25 774 28 720
431 0.7628549615014734 0.0578715174907484 -0.39424930856165263 62 62 62 0.7451842766880044 25 775 28 721
432 0.7678410589425536 0.05835401629086212 -0.392010737007484 64 64 64 0.6003985512443271 25 797 28 716
433 0.7658011054153802 0.04632464806507437 -0.3938578268942565 25 25 25 0.6393333659532676 25 870 28 808
434 0.7687304521377162 0.047231970675623895 -0.39224532096426923 48 43 39 0.5911892792786652 25 877 28 801
435 0.7635239524650324 0.04296553696577851 -0.3928466745767415 68 67 67 0.7359380993121141 25 880 28 830
436 0.7635239524650324 0.04296553696577851 -0.3928466745767415 68 67 67 0.7359380993121141 25 881 28 831
437 0.7651019619954913 0.04294702934084315 -0.3937731023820445 30 27 24 0.7284607448028839 25 895 28 832
438 0.7635802979015013 0.041399641662172915 -0.39447302656133765 41 38 33 0.5543358360200065 25 903 28 845
439 0.8300379323467608 0.05977496549225845 -0.38433991817180624 143 146 149 0.42577974541502456 25 1054 28 707 30 1005
440 0.7665519275809196 0.02002371273898881 -0.39203623904491264 26 26 23 0.5065808832400706 25 1082 28 1045
441 0.829242993560488 0.053131729080340834 -0.384424466344043 176 176 177 0.012376558015605825 25 1094 28 758
442 0.8319825223363919 0.04521703353370432 -0.38532322962283705 133 130 129 0.1069062584304801 25 1179 28 813
443 0.8309366937241786 0.03744117551935041 -0.3844408835819392 170 175 175 0.20652279553377292 25 1219 28 880 30 1153
444 0.8786098759561488 0.05671373375761257 -0.3848925996735985 173 176 175 0.3598726359152436 25 1256 28 737
445 0.9156564464099288 0.05149877544324763 -0.383675002167804 31 37 37 0.6539756594660474 25 1398 28 772
446 0.9647329165883844 0.066419448859467 -0.3839057862912426 45 53 52 0.8339605429088544 25 1443 28 688
447 0.8840285304081393 0.01995597749441999 -0.3838538872697607 23 28 25 0.673127825257527 25 1493 28 1032 29 823
448 0.8331208767663847 -0.0147143756314265 -0.3801798769966406 164 170 170 0.23873518101099964 25 1569 28 1266
449 0.9827472380321441 0.043349553291277404 -0.38183322869318137 56 67 66 1.2619199463093032 25 1630 28 833
450 0.8783544964962304 -0.006433316033076916 -0.38310003060346404 161 169 166 0.6784129436406693 25 1649 28 1221
451 0.8296575167257448 -0.029670816986418894 -0.3818550358262059 129 131 130 0.2930333710405524 25 1670 28 1337
452 0.772726123360748 0.10252233634867675 -0.3903676817124365 61 62 58 0.007225395151771654 26 327 28 345
453 0.7604273784520421 0.08245283870747414 -0.39225951083940097 44 44 43 0.17185054378502554 26 380 28 508
454 0.7604273784520421 0.08245283870747414 -0.39225951083940097 44 44 43 0.17185054378502554 26 381 28 509
455 0.7613128420931912 0.08139116839417998 -0.3936111663648176 45 46 42 0.15246781264842704 26 386 28 524
456 0.7700189111694696 0.07606276453028869 -0.3904829467799395 46 47 43 0.06851767568256953 26 415 28 567
457 0.8310133967168608 0.09062999852909649 -0.3854540377982919 125 125 128 0.01614460961113922 26 446 28 452
458 0.8330712811389176 0.073053223589253 -0.38488597604910296 183 183 183 0.07534273676616553 26 520 28 606 29 592
459 0.8780879758157342 0.08811224752696381 -0.38391955242799114 31 34 33 0.1057210889314738 26 526 28 487
460 0.9553202221468032 0.09747065227539566 -0.38416459292543653 69 70 73 0.24588144820491312 26 603 28 455
461 0.8716218601665903 0.06741525588134584 -0.38440881537984495 176 184 185 0.0069356845750802735 26 620 28 665
462 0.9994744228804463 0.09481575876567284 -0.38173725383958274 86 92 92 0.3585801083497365 26 680 28 482
463 0.8321700301906436 0.024757839893147955 -0.38548309913800893 113 113 114 0.01141683396804125 26 809 28 998
464 0.8315188880905002 0.005302988656297997 -0.38497280283418434 173 179 181 0.0020634028717849326 26 907 28 1156
465 0.9938159713765413 0.04192966452631123 -0.38130132369289865 67 75 76 0.26297046947910446 26 930 28 843
466 1.0009797181793072 0.02835912397483748 -0.3796580867742549 80 88 89 0.6035270070479027 26 1016 28 947
467 0.9487384182373241 -0.005826543310322518 -0.38257310032745584 27 33 32 0.21781727841606519 26 1124 28 1205 29 910
468 0.9789539372885161 -0.011588069204200253 -0.37922943321048674 51 56 58 0.16880298985645958 26 1174 28 1223
469 0.9098172398586851 -0.068875219435281 -0.3819958840620157 24 27 26 0.2301794657388579 26 1357 28 1493
470 0.9172877992708582 -0.10048065656806164 -0.3810355198128078 28 34 34 0.11643353950856884 26 1439 28 1557
471 0.9911746737529925 -0.15690260949037715 -0.3717521800611257 27 28 24 1.666639898611199 26 1505 28 1587
472 0.8312219924588738 0.04655377799676501 -0.38464724286539553 137 140 139 0.01715933597539733 26 661 29 723
473 0.8532183459912914 0.025384826353880462 -0.3843871151837032 23 29 27 0.05894822708234736 26 833 29 802
474 0.9531018897003858 -0.016533185397835652 -0.38108742359311804 85 93 97 0.09235577723528822 26 1173 29 946
475 0.9139424101101755 0.11200430890901432 -0.37816100883331805 40 43 44 0.36723006738800756 27 313 28 334
476 0.7735131678229825 0.027978148535354377 -0.39018563133319856 57 58 54 0.38474156300830525 27 485 28 976
477 0.9223392637399521 0.07456261364114956 -0.38595779393680435 38 44 44 0.2713137869265435 27 487 28 623
478 0.9238552730538996 0.06686977629031769 -0.3797470947223908 187 191 190 0.3035654583600104 27 529 28 677
479 0.8288943726279842 0.036948778694368536 -0.3836015115720933 180 183 183 0.1280648258104297 27 538 28 888
480 0.9091319448341154 0.056480794101327815 -0.38171011384379033 33 39 39 0.28064063038182835 27 564 28 740
481 0.9091319448341154 0.056480794101327815 -0.38171011384379033 33 39 39 0.28064063038182835 27 565 28 739
482 0.8329027825850217 0.020697344635240252 -0.3843008207138969 177 174 172 0.050286614000179884 27 650 28 1033
483 0.8525870678783048 0.02507250819562805 -0.3827569901253537 27 33 31 0.19415042816896555 27 660 28 995
484 0.8313303160191703 0.0028224801464932885 -0.3841774693784183 174 174 177 0.051736548697032494 27 748 28 1173
485 0.8313303160191703 0.0028224801464932885 -0.3841774693784183 174 174 177 0.051736548697032494 27 749 28 1174
486 0.9948483060039593 0.04191828704697548 -0.3761748930240605 67 77 77 0.267238794463971 27 760 28 835
487 0.987283169773864 0.03635515677224403 -0.3790156469237741 63 71 72 0.11685502544656505 27 795 28 894
488 0.8537157522619993 -0.012612545695863462 -0.3856525145265897 23 26 25 0.18034085361272087 27 892 28 1256
489 0.941758269799754 -0.011665307369947866 -0.38198254011202637 36 42 44 0.28331527662171396 27 981 28 1231
