# 3D point list with one line of data per point:
#   POINT3D_ID, X, Y, Z, R, G, B, ERROR, TRACK[] as (IMAGE_ID, POINT2D_IDX)
# Number of points: 435
64 0.9597604572651903 -0.056562708440382144 -0.3778907149309453 27 33 31 0.09951856344668884 4 2445 7 1668
65 0.9944780641926535 -0.1589156926613715 -0.37536507400189006 35 35 35 0.12508519006848226 4 2675 7 2061
66 0.8965612882296361 0.0063019402771732945 -0.3784965750157212 20 26 24 0.2635286278404323 4 2056 8 1155
67 0.9887004798768307 -0.14892392425548248 -0.3712534624569151 33 33 33 0.9697760773547371 4 2641 8 1988
68 0.8252015543142988 0.09616069495937563 -0.3512857079583236 199 200 204 0.4086322975033457 4 1230 10 113
69 0.8295819291955591 -0.012790285523562345 -0.3819785233559063 177 180 181 0.6213225429326148 4 2240 10 783 30 1517
70 0.8316675868834557 0.0371921787943734 -0.3817382974838272 117 117 117 0.14543154228096936 4 1813 26 718
71 0.8885737937108529 0.030791223133141407 -0.3806316558407773 83 65 63 1.0349746152007013 4 1857 26 847 31 1467 6 1248 7 1057
72 0.8337623266879939 0.009851004529028989 -0.38250354305144246 172 180 181 0.06644748995901087 4 2048 26 884
73 0.9464044642708733 0.019012662321883794 -0.37694148002322103 44 52 53 0.17909287055627232 4 1948 27 839
74 0.8323000934233822 -0.029496183319722508 -0.38109671392671535 179 179 181 0.19741983780622802 4 2362 27 951 29 1021
75 1.097747937482007 0.131095609919756 -0.38110274882817874 158 159 155 0.3814324528091135 4 1217 30 581
76 0.831716645514974 0.0669039290091194 -0.3834064238339807 136 133 135 0.2075806533485117 4 1550 30 950 26 539 29 625
77 0.831379664201252 0.00332126856315753 -0.38213740992642875 144 140 145 0.019507090863536695 4 2109 30 1407
78 1.0824463797965758 -0.023434088003296657 -0.37993247324222706 75 72 77 0.09585549297022936 4 2191 30 1467
79 1.0763899693346624 -0.037434847784905724 -0.3761678134477428 74 77 79 0.2203778731739636 4 2270 30 1541
80 0.9535814884276703 -0.033651429314278204 -0.3775010448735551 43 41 48 0.1857532248922931 4 2318 30 1579 31 1805
81 0.898918646676417 -0.08183680179834305 -0.3781469210365189 164 167 165 0.11837697381264653 4 2577 30 1801
82 0.874505258927954 0.014914774945021072 -0.3808156776245126 32 33 34 0.19613767477128816 4 1993 31 1584
83 0.874505258927954 0.014914774945021072 -0.3808156776245126 32 33 34 0.19613767477128816 4 1994 31 1585
84 0.8321947332225766 -0.015281451307626029 -0.38108550095293 190 190 192 0.5682680710928766 4 2258 31 1924
85 0.8989782909029165 -0.08189412189322509 -0.3782618521261987 178 178 178 0.09185695292023845 4 2578 31 2131
86 0.9883627286256608 -0.16682736322851788 -0.3854462366051927 20 17 14 0.020229112721984712 4 2691 31 2207
87 0.9121423917628596 -0.04424721030432521 -0.3849532495113208 27 27 27 0.7075610133246268 5 2306 6 1816
88 1.092218042596235 0.08069491235893533 -0.38056060225148264 112 115 114 1.8065063507489378 5 1480 7 866
89 0.9983520407507418 -0.1625271451217431 -0.38737590980782177 23 24 24 1.733130683904623 5 2558 7 2060
90 1.0733207978792625 0.09419097020409625 -0.3851112940726228 191 195 190 1.6432400707389356 5 1383 8 613
91 1.091283077141615 0.07515082837264947 -0.38040336869531927 112 117 118 1.5807941678785948 5 1516 8 789
92 1.0987576932277268 0.05933049580740208 -0.3798501958555127 127 131 126 1.1570678121150977 5 1620 8 914
93 0.8886327576423957 0.04474329898765562 -0.37957374713628345 36 36 38 0.36392154553788747 5 1708 8 837 31 1373
94 0.8321473867782996 -0.023518243555837634 -0.38171935060313866 153 152 154 0.8213360358154602 5 2231 29 989
95 0.8115288169556606 0.16665721145112866 -0.38008320729777584 34 35 29 1.3270560951779307 5 475 30 249
96 0.8297443785086516 0.07917543719182496 -0.37681288475847796 141 143 149 0.7313693307622094 5 1386 30 834
97 0.8310787303076798 0.03791260490694487 -0.3776088592877688 194 193 199 0.2034598085772296 5 1753 30 1138
98 0.8290016176514011 0.02341933377449217 -0.3784250829173013 185 188 191 0.06187962195175689 5 1879 30 1251
99 0.9152987450409357 0.049671094450785915 -0.3792446872667603 29 35 37 0.6745992632417449 5 1677 31 1291
100 0.9856403128859806 -0.15600857817113498 -0.38884524869301734 30 31 31 1.1832241310753848 5 2537 31 2178
101 0.859467006497103 0.0046827482712484434 -0.37934324126382096 192 195 198 0.18121842999177068 6 1453 7 1256
102 0.884101706863335 -0.012630174300328367 -0.379771798984306 187 190 191 0.25832688908684065 6 1594 30 1495 31 1782
103 0.9815557650392622 -0.06553696351794386 -0.37574954744163974 32 35 36 0.4756306740845775 6 1935 30 1718 27 1235 31 1979
104 0.9678829478209304 0.03262171922315597 -0.3822751844417035 202 202 204 0.21820230516936148 7 1093 11 1301
105 0.9539304976340538 0.030306582170493142 -0.3825972341752952 49 55 57 0.1459357338933134 7 1108 11 1328
106 1.0842836412683237 0.03999421360213345 -0.3811798846794967 151 154 153 0.48749291134259454 7 1106 31 1132 30 1091
107 0.9534438749029255 -0.0237422760258891 -0.3779307346995835 166 173 170 0.4048811843733108 7 1479 31 1734 29 969
108 0.9806272039346923 -0.04688016466618024 -0.3741594751821978 42 45 51 0.23162236420037616 7 1606 31 1841
109 0.8877175947099648 0.020231561809629414 -0.38845212915231053 35 37 43 1.6028461455918612 8 1045 11 1425
110 0.9690468158031735 -0.09555341237717584 -0.37675794305679533 61 64 67 0.45743862016752596 8 1876 11 2891
111 0.855061742903966 0.09057505179264497 -0.38741221620897026 32 35 34 1.1599204907658822 8 418 12 127
112 0.9656171487479234 0.09971124068649824 -0.3808725005942347 32 36 37 0.32539493690364335 8 479 12 153
113 0.8807482940200503 0.05825855711941988 -0.39023453143638803 184 187 188 1.014254308839569 8 698 12 326
114 0.9525767724994303 -0.004878899906439131 -0.3908536497898245 34 42 41 0.6602086737103257 8 1263 12 663
115 0.993128422798912 -0.02447027976439398 -0.38140415115426507 40 48 49 0.4913084348244262 10 900 13 1205
116 0.8307016243506591 0.03820501514081362 -0.39112290326518645 166 173 174 0.8551622318727166 12 400 13 863
117 0.9569014184765764 0.04376277089156152 -0.38572265585048754 184 188 189 0.7653792118796473 12 429 14 609
118 0.9569014184765764 0.04376277089156152 -0.38572265585048754 184 188 189 0.7653792118796473 12 432 14 612
119 0.9993489073681278 0.08910182278315126 -0.3782636335205529 75 86 84 0.2842011144516937 13 665 14 362
120 0.8316524637486197 0.0628768309504504 -0.38347974211657726 115 115 120 0.2682584524277012 13 710 14 496 25 1032
121 0.8327876239086027 0.04775436282380151 -0.3834004300259879 173 175 174 0.017638827638702073 13 796 14 588
122 0.9983730051813456 0.0601789829344853 -0.3795510892018308 70 78 81 0.18021043981619667 13 803 14 533
123 0.8319433641839166 0.02757387119495233 -0.383241465626612 175 178 179 0.16352938018802804 13 917 14 700
124 0.9847924149178653 -0.046768368764180945 -0.37985564943768046 45 50 49 0.21488165563372344 13 1308 14 1033
125 0.9588551373212482 -0.08722650088065431 -0.377453958311321 178 181 180 0.18878671605008754 13 1467 14 1164 22 1454
126 0.8315419593864023 0.05805450488053345 -0.38349537708109077 184 184 186 0.17222173913917665 13 739 15 766
127 0.8329037744220403 0.014816510003912863 -0.38330732421515085 118 113 115 0.19049774885578646 13 995 15 1007 16 766 25 1363
128 0.8292740424229573 0.11893258347835217 -0.3862540751761378 189 188 188 0.3235203705444248 13 535 16 203
129 0.8292846813062311 0.08809233871688504 -0.38452347332944997 186 189 189 0.20753372261304276 13 594 16 304
130 0.8305722031511704 0.08374953003786145 -0.38364742444914435 189 190 190 0.33402042076915384 13 603 16 336 25 864 15 590
131 0.8310836320955352 0.06039726705918804 -0.3836455011674991 183 182 183 0.22238804544549085 13 728 16 485
132 0.8310836320955352 0.06039726705918804 -0.3836455011674991 183 182 183 0.22238804544549085 13 729 16 486
133 0.8304481233579953 0.03818953176921637 -0.3834842324735037 124 121 123 0.035620284525723744 13 856 16 621
134 0.9644059036743303 0.045859734127468056 -0.38048237327463424 30 41 41 0.1939986209874207 13 861 16 615
135 0.9823816096522073 0.014116614034389201 -0.3811925302593287 48 61 60 0.3674721252144032 13 1019 16 774
136 0.9250418641041996 -0.06095531284030998 -0.3779493675168754 149 155 149 0.3830150964625771 13 1375 16 1133
137 0.8329199203522933 0.030922631373064006 -0.3850325698217955 127 127 127 0.05850305828672616 13 898 18 403
138 0.878283748669264 -0.012373879674073518 -0.38580389404116505 12 18 16 0.0724669596671242 13 1141 18 708
139 0.9999585597776549 -0.04602187561603348 -0.38084409947309666 51 50 57 0.4363830726009213 13 1305 18 904
140 0.9753519619157073 -0.1541888010818285 -0.3739452028856016 22 28 26 0.38402248439410364 13 1679 18 1114
141 0.9789307717708026 -0.15761858792254482 -0.377602803939911 24 28 23 0.6763098744915587 13 1694 18 1120
142 0.8314308814416707 0.11596960279944807 -0.3858600560774518 191 187 187 0.08111606983076487 13 536 19 48
143 0.8307647145370687 0.07946671074934179 -0.38392569152685035 175 175 171 0.05067353287108639 13 624 19 119 16 362
144 0.9097261085320503 0.01996296586402239 -0.38261215178570723 15 18 17 0.22923162248907122 13 981 19 452
145 0.9728796893106818 -0.007382244334735363 -0.37924265465211215 55 58 57 0.8051334277540135 13 1115 19 613
146 0.9728796893106818 -0.007382244334735363 -0.37924265465211215 55 58 57 0.8051334277540135 13 1116 19 614
147 0.833272598602535 -0.02458319836702215 -0.38348765695727155 110 116 118 0.16065669414868294 13 1222 19 683
148 0.8297025304489835 -0.025156067522575192 -0.3820332139013352 155 166 166 0.16605170579973158 13 1225 19 684
149 0.8772940572536638 0.08624814006974892 -0.3813216035080999 30 31 27 0.30791286940692664 13 617 22 514
150 0.9134167352686531 -0.03664118464982566 -0.3772577224401749 27 31 26 0.3398961782403556 13 1282 22 1308
151 0.8307888656883683 0.11184009974169994 -0.3853057036964916 179 176 172 0.23537263907715317 13 541 25 660
152 0.8329482084000154 0.07141570797306851 -0.3866523654750343 135 130 130 0.48030955717764945 13 670 25 980 16 421 18 164
153 0.8303138746767316 0.053114221684041604 -0.38329612931388013 117 119 120 0.20820525635930023 13 771 25 1098 28 757
154 0.8828015465908231 0.024438767455712815 -0.38007805993744403 167 175 172 0.08871592988130306 13 951 25 1462
155 0.9392934187218781 0.02478824778351862 -0.37922294502860404 47 55 54 0.26262160197513307 13 967 25 1625
156 0.8311807083952425 0.005215875834482997 -0.3821754646129113 163 170 173 0.346036910645285 13 1045 25 1416
157 0.9748333967988634 -0.14390828153306656 -0.3709510604283404 20 23 22 0.5204391224268464 13 1576 25 2307
158 0.8327349647631409 0.07200858735065904 -0.3827880535008665 177 173 174 0.15327333167443943 14 428 16 408
159 0.8312450245812004 0.0471260701092666 -0.3833355677216844 112 110 112 0.11783532927786053 14 591 16 569
160 0.8314542935223349 0.0327329233556429 -0.38357150475933827 182 181 183 0.17867361970818857 14 667 16 653 17 619 18 389
161 0.8314323024704251 0.01997770145708444 -0.38374885122350055 178 179 183 0.13176670803200624 14 748 16 742
162 0.8323221042362471 0.008544263443096117 -0.38297872345501566 91 90 88 0.13710476188736143 14 806 16 801 24 791
163 0.8308278277732515 0.003588851943771351 -0.38295313657405994 115 114 114 0.20851940341184405 14 837 16 831 24 839
164 0.9079767979327706 -0.005006461037420998 -0.38136133617442725 20 26 22 0.2117792781472144 14 866 16 879
165 0.8787577576091707 -0.011851815829391156 -0.38434051246243756 21 24 21 0.3096274518671885 14 905 16 914
166 0.8787577576091707 -0.011851815829391156 -0.38434051246243756 21 24 21 0.3096274518671885 14 906 16 915
167 0.8541002193101198 -0.01347155762181684 -0.3864378747090902 21 25 22 0.22789289345916083 14 912 16 926
168 0.8329529565562115 -0.02323707848671236 -0.3838181015075707 107 106 108 0.02950855023319603 14 976 16 981
169 0.8329529565562115 -0.02323707848671236 -0.3838181015075707 107 106 108 0.02950855023319603 14 977 16 982
170 0.8303711929738951 -0.029617332764518216 -0.38355696220927615 140 141 145 1.354475386063348 14 1001 16 1021 17 1013 25 1670 28 1337
171 0.947844245085456 -0.04302926852402283 -0.38257926644424767 25 31 33 0.6144184842064814 14 1024 16 1053
172 0.9373969681877125 -0.059903300827597955 -0.38409852369348 19 25 22 0.3840687004064989 14 1082 16 1119
173 0.9099111392352058 -0.06891988799308897 -0.3831242764078309 18 22 17 0.49261307890527994 14 1125 16 1157
174 0.8306447321454943 0.009792025704065673 -0.38377832861051775 142 141 143 0.13989896398150797 14 797 17 767
175 0.8330057326828764 -0.01407817078930113 -0.3835113009868089 111 110 110 0.1120024273154843 14 924 17 907
176 0.8308618402215638 -0.014133388861576984 -0.38425942313105255 121 122 126 0.12746280673728952 14 925 17 908
177 0.8831050749869885 0.08184918799686716 -0.38370403975067635 34 34 36 0.579333296798281 14 379 22 562
178 0.831051956734637 0.09643898623684768 -0.38422087237718894 128 125 120 0.2014306940042001 15 532 16 267
179 0.8324763721694346 0.08987648053574522 -0.3829164259630941 189 189 191 0.17070400923587298 15 558 16 291
180 0.8303778053260723 0.08774117000780784 -0.38320191949150306 181 184 185 0.004111705265738939 15 572 16 306
181 0.8520460072855929 0.08685735742432277 -0.37986029012578126 25 29 28 0.15462383274592661 15 578 16 325
182 0.8320537876821154 0.08378246248547971 -0.38382964752862836 181 177 178 0.035329425718571124 15 591 16 338
183 0.8294019625287328 0.08054108186330608 -0.38491812533305764 185 188 189 0.13498611246396938 15 618 16 360
184 0.8324254560845624 0.06640046667863081 -0.38251138596928697 186 185 187 0.05034222314253301 15 709 16 442
185 0.8305312166583761 0.053415424186890055 -0.38455075655521814 121 124 125 0.16736612079458335 15 792 16 529
186 0.9413034235902265 0.051060088075469336 -0.3837523792307614 32 38 36 0.22950261102548877 15 821 16 581
187 0.8318742768258846 0.027621759813367817 -0.38421172119963237 174 174 178 0.1356483314608741 15 938 16 688 18 416 24 633
188 0.8307247089670585 0.02447980702042815 -0.38355088270809495 115 116 117 0.10439610334468018 15 957 16 709
189 0.8329391724215474 0.021907145414630375 -0.38422109885264 173 175 176 0.0029076550106980925 15 971 16 737
190 0.8322562176087683 0.005850294658952403 -0.3844247375580914 128 127 131 0.05280875365011842 15 1072 16 812
191 0.8313566371773555 0.005364161774941485 -0.3831869772593968 164 166 169 0.24969828552835244 15 1076 16 820 19 493 24 819
192 0.8309014938111718 -0.012665074123591122 -0.38377561145126055 108 104 108 0.41357291628486964 15 1168 16 927 24 965 25 1539
193 0.8350466108197532 -0.02377950605120896 -0.3857186279570978 166 166 166 0.2557870246140927 15 1222 16 984
194 0.8843014063331346 -0.043016072667546444 -0.3823060322155064 17 20 19 0.06539178632421423 15 1284 16 1078
195 0.8314822460165805 -0.03819335373946778 -0.3846347565915815 109 109 105 0.32332995964351763 15 1290 16 1071 17 1085
196 1.0750625355807846 0.07128521283430068 -0.38526692478384933 123 123 123 0.04517080546105928 15 751 17 564
197 0.830184506030479 0.059479486860229115 -0.3849336919229114 152 152 153 0.483857635689773 15 756 17 473 18 218
198 0.8337708107843239 0.010354212349820209 -0.38330755279388684 172 175 176 0.06978876386360293 15 1035 17 761
199 0.8310576743274871 -0.009823762921042005 -0.383935797999639 123 126 127 0.1732473755104553 15 1148 17 882 25 1520
200 0.8326185140509477 -0.025267660846918026 -0.3844846936695511 170 176 178 0.20023670004511138 15 1232 17 978 16 994
201 0.8314947087668273 -0.025158553282606518 -0.3838542473347106 160 160 159 0.2544771907405795 15 1233 17 976 18 763
202 0.8597457946444522 0.012070900587064424 -0.3839630554004761 167 173 173 0.06760873019003437 15 1021 18 549
203 0.8331671797450119 0.012859449591098936 -0.3839877088246367 167 164 165 0.030862291186715417 15 1023 18 508
204 0.8314747381069659 -0.02511048401579961 -0.3837528527006466 160 160 159 0.08938950127696789 15 1234 18 764
205 0.8945468080786647 0.035769022696065154 -0.38187096270772763 167 178 178 0.7240202354477383 15 890 22 878 19 350
206 0.9158035286328808 -0.006264880203782924 -0.38377201241436293 159 168 165 0.5501897556105358 15 1103 22 1171
207 0.9537957533167177 -0.03307390120162125 -0.3819067111697618 35 38 46 0.565492246053805 15 1214 22 1277
208 0.9720468922525599 -0.042408653481741866 -0.38087323908750076 29 35 36 0.5571046630837817 15 1250 22 1300
209 0.9103560408820889 -0.06940830517538157 -0.38476797366709725 21 21 21 0.3732807207150175 15 1359 22 1428
210 0.9181120524723536 -0.07626664382578086 -0.38749582709329317 20 23 26 0.7032872878766038 15 1373 22 1441
211 0.8762170225831489 0.1121333552465225 -0.3863523515270044 26 29 28 0.5809379935763106 16 233 17 272
212 0.9921761689402137 0.048662224241441294 -0.3798717321933239 59 70 69 0.47279240627362057 16 604 17 618
213 0.9099670122589805 0.019882900990843083 -0.38318282808429294 21 24 23 0.04067290777020699 16 747 17 740
214 0.9536564681239458 -0.030157345255002556 -0.3811096490570284 176 184 183 0.13290159477372268 16 989 17 1016
215 0.8313993729998425 -0.02898551931890573 -0.38488245678787414 166 166 167 0.20942569498798758 16 1016 17 1009
216 0.9720132055558417 -0.04245666788881704 -0.38067747418058756 33 36 39 0.29417392311718854 16 1041 17 1089
217 0.9410053569099642 -0.07350391999121364 -0.38054859317187795 26 26 27 0.007592029660730744 16 1160 17 1191
218 0.895170116462232 -0.08197563333106593 -0.38186294072610294 23 23 19 0.19842618734855857 16 1194 17 1224
219 0.8289304480664592 0.07624099591420458 -0.38668646637996607 191 190 190 0.10645730419532655 16 384 18 138 20 737
220 0.831532351807597 0.03634338945855041 -0.38432616776671386 117 114 111 0.16326946227124173 16 637 18 362 17 605
221 0.8320037733780788 0.024564750780913584 -0.38409417870301427 116 112 115 0.07483839289589081 16 706 18 435
222 0.8319884187815018 0.024575922984526457 -0.38413076046274675 116 112 115 0.1184390507500529 16 707 18 436 24 653
223 0.8330623777855374 -0.01323559272321731 -0.3833043502113639 162 165 164 0.537310041355475 16 930 18 687 24 975 25 1550
224 0.8314956492763331 0.0626640768351337 -0.38344887466931393 171 170 174 0.1392199934352484 16 475 19 192
225 0.8293657775635683 0.051526804494039326 -0.38291283311228996 181 184 182 0.5643940306161538 16 543 19 249 24 443
226 0.8293935702256062 0.12121758832144515 -0.38480732168958104 196 202 204 1.3934626718694316 16 192 20 524 28 297
227 0.8309669546013878 0.06335251322618084 -0.38254820146770563 186 185 185 0.13200321769871773 16 461 20 849
228 0.8429580460145232 0.057767323721031674 -0.3740395177835563 186 187 187 0.06294103211081647 16 493 20 900
229 0.831216724024757 0.04615180946714134 -0.3836415673796661 148 147 149 0.42999335208122036 16 574 20 941
230 0.9757517445155732 0.0509316396446596 -0.3790164406901337 54 62 61 0.8590573563930809 16 588 20 1267
231 0.8312293926429759 0.03413023411203215 -0.38299930028653195 171 174 173 0.2368001857229207 16 647 24 593 25 1237
232 0.8319603302175361 0.024564452498237344 -0.3840343198773978 116 112 115 0.07330973752161372 16 708 24 654
233 0.8308222309024152 0.013192092949598267 -0.38279136430854127 127 126 130 0.22340000838597326 16 770 24 752
234 0.8308222309024152 0.013192092949598267 -0.38279136430854127 127 126 130 0.22340000838597326 16 771 24 753
235 0.8338755871267286 0.010475234815226676 -0.3828517672700711 183 183 187 0.10331856781088392 16 785 24 774
236 0.8312679009396303 0.010156931614268939 -0.3823174457266048 174 176 182 0.636254501489215 16 787 24 776 27 711
237 0.8320236406109724 0.0035248257518913236 -0.3825426404845739 128 124 127 0.09116718858669037 16 832 24 840
238 0.8319319788151073 -0.009828529718142166 -0.38148425450245316 115 115 117 0.26222566645622486 16 911 24 952
239 0.8619981638029527 -0.024399587760940592 -0.3804391199468951 18 21 20 0.2455892576156843 16 980 24 1067
240 0.8327064367565393 0.022610854080164514 -0.38346306334855956 169 170 170 0.0361545811922845 16 729 25 1318
241 0.8319468873636903 0.0021477029981344514 -0.3828249437726948 108 110 118 0.2111422630013483 16 842 25 1434
242 0.8319468873636903 0.0021477029981344514 -0.3828249437726948 108 110 118 0.2111422630013483 16 843 25 1435
243 0.8306373933741241 -0.03738316505409599 -0.3821654854753856 169 176 177 1.0948396805596046 16 1067 25 1745 19 788 28 1385
244 0.8319548502704978 0.10073613348668374 -0.38984229793920144 202 198 201 0.25556108451240667 17 279 18 87
245 0.8782921693654172 0.08721754390017489 -0.38399166365965937 27 27 27 0.2701422856074699 17 350 18 134
246 0.8840689744507806 0.08326869312000731 -0.38639741809806544 29 32 33 0.0049631073840854896 17 385 18 159
247 0.831224342250387 0.03742359724934679 -0.3849337080201836 195 195 197 0.05187349782048417 17 597 18 350
248 1.082201611365006 0.04041140278647522 -0.386698126916713 119 123 118 0.816571228231049 17 699 18 529
249 1.0720920953350859 0.03633687176728732 -0.3802462510274177 120 126 124 0.8441467752574571 17 708 18 539
250 0.9401328648446597 0.02493819402636351 -0.3809087748597653 26 33 28 0.5284745790453861 17 714 18 506
251 1.0724470172463758 0.02418762396272173 -0.3836709175568663 114 117 116 0.7524981555464754 17 771 18 598
252 0.8323956088553846 0.004907206798245509 -0.38345003374359443 132 129 126 0.18783097469713078 17 787 18 570
253 0.98853533552235 -0.001335814473204642 -0.3805240833939801 55 59 59 0.5711349826424821 17 859 18 686
254 0.9775364313739102 -0.006079242943795496 -0.3798195889222036 169 175 173 0.6401039838571417 17 884 18 705
255 1.0755329495163108 -0.00621454689904537 -0.38538790593095773 132 136 135 0.7422191863480426 17 892 18 742
256 0.989402774491252 -0.02028225656879387 -0.37829041572828037 52 63 61 0.6427257816572001 17 953 18 777
257 1.0713516982535574 -0.026093473580515034 -0.3825137092432498 127 130 131 0.64425500472481 17 992 18 829
258 1.0004333950626618 -0.03648582738795006 -0.3804947322950857 60 68 69 0.4553300310791504 17 1054 18 866
259 0.8307428359472401 -0.034985690730511346 -0.38276393955598204 174 180 179 0.2633590378855332 17 1057 18 818
260 0.8307111366177783 -0.03501997207575295 -0.38241386011392525 156 162 164 0.23404482254477174 17 1059 18 819 25 1729
261 0.9808803523266395 -0.06462196499352194 -0.37885222868383894 41 49 49 0.6147400144984695 17 1161 18 983
262 1.0041586915120864 -0.1573615103536871 -0.38040850743134735 28 34 32 0.31612475814680246 17 1301 18 1109
263 0.9947138387710012 -0.16077078223703334 -0.3840981125427435 13 20 14 0.5123497913452272 17 1321 18 1119
264 0.9771846225984591 -0.15667825404021632 -0.3806421265339537 29 30 30 0.43459848418513686 17 1322 18 1117
265 0.9011440812851944 0.10481693904474522 -0.3819454078386619 188 188 188 0.04123224692750943 17 299 19 75
266 0.8324854620268942 0.08880513295878578 -0.3816952030078309 198 197 199 0.1250623243633502 17 306 19 85
267 0.8310815350873934 0.06598981465081226 -0.38366266564989493 197 196 203 0.4480411657318395 17 429 19 181 20 835 25 1005
268 0.908385834863905 0.05521227775057318 -0.3801989697245121 24 28 23 0.14793226741556112 17 541 19 274
269 0.8772394852515797 0.049045919051777395 -0.38066414312865365 25 25 27 0.3017486952090524 17 553 19 286
270 0.8772394852515797 0.049045919051777395 -0.38066414312865365 25 25 27 0.3017486952090524 17 554 19 287
271 0.9696459334493116 0.05015050013093696 -0.37787810065620936 181 181 181 0.289745616859132 17 602 19 318
272 0.9088580589066941 -0.037472869561544116 -0.3798792601840993 167 177 170 0.15624846550759472 17 1076 19 799
273 0.8318587997004901 0.08006574328377945 -0.3847354064515031 135 130 131 0.2817924887126913 17 342 20 711
274 0.8318161395928201 0.1315380863234145 -0.3893786856890313 176 173 176 0.7167716216585022 17 227 25 514
275 0.8295823756280746 0.0728517917427912 -0.38579659547027406 178 180 177 0.5100991433472217 17 391 25 953
276 0.8317081935118642 0.06869498617862217 -0.3871875151246365 171 170 171 0.2611689001388214 17 424 25 992
277 0.8308891896633194 0.06231935451025781 -0.38623567145180704 135 135 134 0.20989634830698467 17 459 25 1039
278 0.8848076622683587 -0.06780851595909657 -0.3808766833441047 21 24 23 0.1314841584433277 17 1181 25 2125
279 0.8323269587709663 0.04211778682085171 -0.38406919359037545 145 144 149 0.3592701085587176 18 310 20 972
280 0.8306619130831242 0.13873717157599932 -0.3864638438737023 203 203 207 0.16051948555821802 19 24 20 502
281 0.831177341597185 0.13017470692169028 -0.3869292174101364 205 205 209 1.5716481838487892 19 36 20 511 28 276
282 0.8319918726816377 0.10120466670711589 -0.3852041779925197 200 203 206 0.015277131006410531 19 62 20 552
283 0.8327975807991874 0.08040796473801533 -0.38336406262425216 200 200 202 0.0039850369068509025 19 113 20 709
284 0.9885568853742248 -0.002717237959919527 -0.3784214054676283 68 74 74 0.14055321714411137 19 601 22 1088
285 0.8527241152085334 -0.07417997742939973 -0.3812743748781848 24 24 25 0.4310402646686721 19 947 22 1486
286 0.8322086455589199 0.0734087410189163 -0.3841275443253484 137 134 130 0.23977812045408747 19 138 25 957
287 0.8307451255629668 0.07050061124074437 -0.38430069216123824 176 175 173 0.16853110187575288 19 157 25 972
288 0.9366732636992692 0.05918057330047947 -0.38037280219495456 43 49 49 0.20488880076363997 19 267 25 1411
289 0.8305580165180695 0.045439120156386764 -0.3828945442162879 157 160 161 0.2651911356440735 19 282 25 1168
290 0.8291502704334274 0.020962783832931226 -0.38246929521320205 170 174 173 0.11647609824374619 19 406 25 1313
291 0.83068499449512 0.008392994313893596 -0.38290560621933023 109 114 116 0.11952597443827483 19 479 25 1397
292 0.8306998560924497 0.0009361966049905201 -0.3827430347731288 117 123 125 0.027684617514709253 19 527 25 1438
293 0.9457004869580037 -0.006178051985199631 -0.37964115821128935 42 49 49 0.008378969820564432 19 609 25 1872
294 0.995055172155519 -0.012554038209987425 -0.3772645783917081 68 77 77 0.44432110041128076 19 646 25 2025
295 0.9527234598559061 -0.03268940260275578 -0.37941643236863276 45 44 46 0.46275558444166504 19 775 25 2064
296 0.9390217234818735 0.05031623631004429 -0.38003370807857645 36 39 38 0.015688979263953334 20 1201 22 783
297 0.9379997475452252 0.02453683607656407 -0.3774015794950199 36 40 36 0.309484048864349 20 1399 22 938 25 1626
298 0.8821523305703545 -0.006244662503717772 -0.37721916898468866 24 30 28 0.5825931955607737 20 1529 22 1195 24 935
299 0.8308104549245718 0.12929118109134694 -0.3845630892709438 205 205 209 1.788866532946453 20 510 28 275
300 1.064525734705042 0.08644118503133418 -0.37585220855146445 125 131 131 1.8222637936054666 21 943 24 415
301 1.065087580077706 0.0701527550950991 -0.379499676391176 111 111 115 1.9439762872057926 21 1050 24 517
302 1.0695739699608777 0.043162412619364425 -0.37535882422322764 117 122 122 1.893593928705566 21 1250 24 664
303 0.9660371489925467 0.03245533254253483 -0.38417734385070634 180 188 185 0.8261999768264839 22 885 24 684
304 0.99023493698083 0.02841906593867745 -0.38335142200147176 62 73 69 1.5408429577626213 22 906 24 712
305 0.8776976048423456 0.024845065208385014 -0.3826245327922974 25 31 29 0.07495386905001553 22 968 24 687
306 0.9448081064598458 -0.005968810716729085 -0.3791315676173408 36 44 43 0.7036559761432216 22 1142 24 946
307 0.8828587225582467 -0.00617264220852902 -0.3793980393385178 23 29 27 0.09715153942827906 22 1194 24 936
308 0.9820225452003466 -0.0631359693376859 -0.3772982142310598 40 42 52 1.6311530305289037 22 1365 24 1279
309 0.8737897612411516 -0.06423333118931054 -0.37887997956092784 25 25 21 0.3768344692192105 22 1438 24 1310
310 0.9134232229805443 0.08664541188784862 -0.3790536091546562 26 32 30 0.003123157705258829 22 522 25 1194
311 0.9439435882628261 0.05535909958881714 -0.37796389135813985 42 51 50 0.035096070623858285 22 753 25 1458
312 0.9535151991200975 0.02873878457431184 -0.37550874702703285 51 56 58 0.04942242937020407 22 910 25 1646
313 0.9686360193814594 -0.10343922861622754 -0.3780637839787285 176 180 180 0.9673959298282271 22 1488 25 2301
314 0.831743356142195 0.0834775215500792 -0.3862160002874603 181 181 180 1.0375785686865717 24 218 25 878
315 0.8318420367563482 0.0631170591070263 -0.38449656215212213 121 120 116 0.6234693043319641 24 357 25 1030
316 0.8318420367563482 0.0631170591070263 -0.38449656215212213 121 120 116 0.6234693043319641 24 358 25 1031
317 0.8293726802941205 0.05207713573244203 -0.3849900289012662 177 179 178 0.6808078241867571 24 442 25 1105
318 0.8588591755863973 0.01176409889552335 -0.38038893401775703 162 170 169 0.1369292287699097 24 779 25 1465
319 0.8302612477101158 -0.002824500578351903 -0.38202929620295784 181 181 185 0.3716668315679709 24 891 25 1471
320 0.8527348791332068 -0.012588873486443889 -0.3816042880045804 28 28 30 0.12672189014588242 24 974 25 1608
321 0.8307804897840384 -0.015378439350989023 -0.38295573197370675 133 132 135 0.5220161273587571 24 993 25 1564
322 0.8307804897840384 -0.015378439350989023 -0.38295573197370675 133 132 135 0.5220161273587571 24 994 25 1565
323 0.9412547383188433 -0.04241847158502488 -0.3702434458013004 29 35 33 0.4454921192120024 24 1189 25 2116
324 0.9412547383188433 -0.04241847158502488 -0.3702434458013004 29 35 33 0.4454921192120024 24 1190 25 2117
325 0.8298801979842562 0.07267464601812632 -0.3852903227793603 191 191 193 1.6515347265816986 24 277 27 350
326 0.8783593950217601 0.051207218278946844 -0.36668257549409566 23 29 27 1.8298654117162136 24 468 27 518
327 0.7605536923357774 0.1045307635943047 -0.3980927722535813 21 19 18 0.2381253600956095 25 309 26 311
328 0.7688270893129238 0.10089384088960943 -0.4027122377585263 39 40 36 0.09974723500343648 25 450 26 351
329 0.7602565027509244 0.09158170795246914 -0.3989813315352014 46 47 43 0.030369962054969436 25 463 26 363
330 0.7618824450671103 0.07086732626820376 -0.39601304774502516 52 59 53 0.9601993275139336 25 650 26 430 28 615
331 0.7657276346021394 0.11414334075338334 -0.4010644074510661 18 17 17 0.09524337439318611 25 260 27 164
332 0.7667717163601162 0.07517491328993368 -0.3976862084935547 55 55 55 0.504022435081789 25 645 27 282
333 0.7654503972048677 0.073319232198721 -0.39923920138792407 25 25 21 0.2996173870188897 25 668 27 285
334 0.766692256758232 0.07011436483974076 -0.40035313048824483 55 58 53 0.3021470559166066 25 707 27 294
335 0.7709865313505079 0.0690621203318943 -0.40001562093176085 49 51 48 0.12389021614812436 25 739 27 300
336 0.7631421301701522 0.0576107735743893 -0.3944319422492079 62 62 62 1.1543142098034778 25 774 28 720
337 0.7631421301701522 0.0576107735743893 -0.3944319422492079 62 62 62 1.1543142098034778 25 775 28 721
338 0.7679924844083998 0.05821816559443693 -0.39248807781149064 61 61 59 0.9697593256391795 25 797 28 716 26 497
339 0.7661052076297549 0.04594926840140967 -0.39352944901813536 25 25 25 1.0724461089192459 25 870 28 808
340 0.769017590692203 0.046850851887635686 -0.39186944138808893 48 43 39 0.9939546143507886 25 877 28 801
341 0.7638782890511993 0.04252235681708765 -0.3921674562238224 68 67 67 1.2285162087877648 25 880 28 830
342 0.7638782890511993 0.04252235681708765 -0.3921674562238224 68 67 67 1.2285162087877648 25 881 28 831
343 0.7654459676285341 0.04251760204968974 -0.39315611692921726 30 27 24 1.1975819194511028 25 895 28 832
344 0.7638813352235807 0.04101481806631522 -0.39409835388536063 41 38 33 1.0283781827857439 25 903 28 845
345 0.7636223984603269 0.03579421246175515 -0.3934598045833511 33 30 27 0.970648254128821 25 945 28 909
346 0.767175693761258 0.037364209094213854 -0.39244502919051394 24 23 23 0.8397034369684767 25 948 28 886
347 0.7688113389403263 0.02895054876318349 -0.39143921553738353 29 24 22 0.8307410986072209 25 1012 28 967
348 0.8300893642660969 0.059223037586986264 -0.3830178071318363 143 142 142 0.4127942774287097 25 1054 28 707 30 1005
349 0.8292483563934601 0.05254941393777481 -0.38283893670909847 176 176 177 0.20942402483104627 25 1094 28 758
350 0.8328694783330506 0.05030355143000284 -0.3835339568371831 172 174 172 0.4556125661966336 25 1142 28 768
351 0.831913495339344 0.04461084163136272 -0.38339710411119426 133 130 129 0.2734944907665481 25 1179 28 813
352 0.8316411984235357 0.0401448143824383 -0.3827847397469174 165 165 165 0.45954727053320177 25 1203 28 846
353 0.830908567854543 0.03686373010812789 -0.38250286001830464 183 183 187 0.23521087988906572 25 1219 28 880 30 1153
354 0.8784175813586076 0.056214589092924504 -0.3834226929664893 173 176 175 0.9175451344967446 25 1256 28 737
355 0.9149874871840189 0.05098936092679725 -0.3818462076390985 31 37 37 1.4156171723341735 25 1398 28 772
356 0.8840037414220548 0.01952779703373586 -0.38246924217847994 23 28 25 1.225801672181816 25 1493 28 1032 29 823
357 0.7713132918651935 0.12317543970449651 -0.38456232605184576 51 51 47 0.5179951834931391 26 233 28 277
358 0.7633453877731884 0.12129910112103173 -0.39560797958224553 31 35 30 0.820178049959416 26 251 28 288
359 0.7670768982995008 0.11786451948078258 -0.39428157297375255 57 58 54 0.6435205763453004 26 265 28 308
360 0.772922699631333 0.10212285882921585 -0.38925833457182024 61 62 58 0.315465301904678 26 327 28 345
361 0.7600824452521113 0.0907130522857684 -0.3871806749580936 35 39 32 0.19865432421051413 26 355 28 419
362 0.7606385292515004 0.08175152832369958 -0.3901445782789305 44 44 43 0.4726439079144889 26 380 28 508
363 0.7606385292515004 0.08175152832369958 -0.3901445782789305 44 44 43 0.4726439079144889 26 381 28 509
364 0.7654841414313487 0.08169776712938205 -0.3860570142414442 53 54 50 0.07841763669688986 26 382 28 493
365 0.7615180388019843 0.0807136115333841 -0.3915535370634584 45 46 42 0.44339651873537195 26 386 28 524
366 0.7644890709529496 0.08152853405492501 -0.3923422920881703 26 22 23 0.31849864304671455 26 389 28 520
367 0.8285525911236648 0.0978757829969121 -0.38292243581761554 187 188 187 0.4588097624458099 26 404 28 387 29 479 30 694
368 0.829643621444734 0.0975323734033947 -0.38494463898498305 185 188 189 0.49588554183893924 26 414 28 393 29 482
369 0.7702041432802093 0.07533524952613593 -0.38824296051631574 46 47 43 0.1821991872346374 26 415 28 567
370 0.7747353443062956 0.07587321840084506 -0.39030007008525225 53 52 52 0.09737900673761826 26 424 28 568
371 0.7665341413951923 0.07259721786620504 -0.39018542201713186 55 59 54 0.15139783278212768 26 426 28 588
372 0.8313031632099 0.09032059531059514 -0.3847631300220372 125 125 128 0.047599264676791146 26 446 28 452
373 0.7740467762632792 0.06616721260324941 -0.38829403350967934 20 20 16 0.009205080289929682 26 461 28 645
374 0.7671667743662254 0.060766147177233866 -0.39139876781669697 58 57 55 0.1998327132763238 26 478 28 695
375 0.7677955545855888 0.05738435878899995 -0.3884101162035357 61 61 59 0.045186915166178884 26 498 28 717
376 0.7684094151079509 0.05296402889949272 -0.39081024710854384 64 65 61 0.14123185676025793 26 513 28 755
377 0.8331182895154504 0.0724590695141707 -0.3832120557993689 183 183 183 0.10875713134948184 26 520 28 606 29 592
378 0.8718357283319821 0.06700559030351687 -0.3834992483173969 176 184 185 0.10894817009881262 26 620 28 665
379 0.9652296106124102 0.06602390868849652 -0.38315138835793927 51 59 57 0.5337165856480909 26 790 28 688
380 0.8320241954249247 0.02417925708873054 -0.3829428047150698 113 113 114 0.036634680819737885 26 809 28 998
381 0.8313233681767022 0.004827816857361438 -0.38220720787546786 176 182 183 0.02891736957262626 26 907 28 1156
382 0.9964927709382382 0.038855416023766465 -0.37813765879673594 77 85 84 1.114372222490929 26 955 28 862
383 0.941953479637901 0.025104946314064232 -0.38191724398411864 45 55 55 0.2038923255925102 26 959 28 980
384 0.9854394016719864 0.004907433433027939 -0.3787729676326309 187 190 191 0.6506250426639486 26 1101 28 1114
385 0.8309070652935829 -0.03285741023175697 -0.38371811259058636 169 173 175 0.08980391946027041 26 1136 28 1353
386 0.9787542712727942 -0.011925550814302254 -0.37818724497533857 51 56 58 0.35529742726745117 26 1174 28 1223
387 0.8785423296845712 -0.037888832655020695 -0.38224142911777326 23 29 27 0.10161474439027217 26 1203 28 1361
388 0.9622416224600943 -0.025987501985013328 -0.38054101931797996 43 45 51 0.6924571339661364 26 1224 28 1281
389 0.917482854689965 -0.10076438267745089 -0.38051147719030753 28 34 34 0.3091814082349619 26 1439 28 1557
390 0.9413080063952936 -0.10061625340900501 -0.3800899700509975 29 35 35 0.39741112578042836 26 1444 28 1555 30 1820 31 2139
391 0.829689624056842 0.11205352918095866 -0.3834901928831608 156 155 158 0.3484914804330534 26 370 29 441
392 0.7661863694102938 0.062292833540416336 -0.39019993715826734 50 51 47 0.11875405999115275 27 304 28 686
393 0.9137001390875117 0.11129889941205315 -0.37603654836885897 40 43 44 0.4123411340612604 27 313 28 334
394 0.9234515845162724 0.06620487503512167 -0.37743585519883305 187 191 190 0.5435656985882947 27 529 28 677
395 0.8288715119639362 0.03632578659757081 -0.3813851240579733 180 183 183 0.00859854189224415 27 538 28 888
396 0.9088238948116737 0.05585997810292095 -0.3794789354550338 33 39 39 0.5333080492059243 27 565 28 739
397 0.8316553713246264 0.019894094433260148 -0.38204383473094206 152 150 149 0.16815901668248193 27 647 28 1035
398 0.8329229587923619 0.02014733848406894 -0.38230109296794607 177 174 172 0.21464283620441735 27 650 28 1033
399 0.8952593550383778 0.035639032915773555 -0.3804902979331773 190 197 198 0.36682856536836955 27 664 28 899 30 1145 31 1427
400 0.9893244363373113 0.04027403245918125 -0.3770143903365955 78 89 89 0.5114170010100223 27 759 28 849
401 0.9942232776241822 0.04140493624842837 -0.3740350945309944 67 77 77 0.7767024495776577 27 760 28 835
402 0.9848767643685313 0.037341416962287315 -0.3765709790391235 75 83 82 0.4466800837398222 27 776 28 873
403 0.9868166712385885 0.03588756440307821 -0.3770409415356633 63 71 72 0.6355201849906218 27 795 28 894
404 0.9727438850548198 -0.006776424252613707 -0.3779766764912429 54 62 63 0.5885296979771669 27 987 28 1203
405 0.8313529107640351 0.10577543776576015 -0.38324261703675094 190 192 194 0.48494848910880967 27 257 29 458 30 651
406 0.828898029514722 0.08130629915873014 -0.38210750918954567 188 188 188 0.1722445699527109 27 314 29 540
407 0.8541490857543141 -0.038403028160707016 -0.3842376189489567 21 27 25 0.2341523005011151 27 1022 29 1052
408 1.0008126195623188 0.04925172635351282 -0.3750607494973164 66 70 71 0.43610916892368096 27 728 30 1045
409 0.9335923109573154 0.012251616861483164 -0.37782140138715986 178 184 183 0.15947749401377448 27 861 30 1292
410 0.984738828796421 0.001481986374286662 -0.37574525382796975 73 78 83 0.013515119974189405 27 959 30 1347
411 0.8281690694240497 0.09451511556214581 -0.38095134650618845 189 192 193 0.15549674443988956 28 407 29 490
412 0.8330556151057417 0.07240618919926299 -0.38290132639916485 186 188 187 0.11007941247031973 28 605 29 591
413 0.8844072018911541 0.019410204153821182 -0.3829038970737899 23 28 25 0.2558354157329697 28 1031 29 822
414 0.8318094200219169 0.0970830931325625 -0.3822684477675648 190 189 190 0.006146803429991311 28 392 30 697
415 0.8293718119880111 0.09485354217885283 -0.38278851481737214 184 186 187 0.03131812395533907 28 409 30 720
416 0.8780941588753806 0.08765631305458661 -0.38239863415584363 31 34 33 0.17442208469917383 28 488 30 771
417 0.9730783701820073 0.05120054053546655 -0.3803195309350211 192 200 199 0.3080725989087361 28 779 30 1037 31 1196
418 0.9098806707408925 -0.01225800439328587 -0.38075493047083475 183 189 189 0.2598158829104306 28 1240 30 1479 31 1732
419 0.8345697371224826 -0.035028174212972635 -0.38248356560212426 161 167 165 1.1265299170659844 28 1364 30 1657
420 0.9479568808047313 -0.04371298790680285 -0.379922374623834 30 33 36 0.547975099413883 28 1369 30 1643
421 0.9367761186961132 -0.060270450006777936 -0.3798575370779822 27 32 34 0.7691999437089437 28 1450 30 1716
422 0.8844981703701632 -0.07513472467920489 -0.3805196850839086 181 181 181 0.48942359231062893 28 1514 30 1787 31 2122
423 0.9889598645639561 -0.15609361799278756 -0.38254434975359275 14 18 15 1.6065893016917239 28 1571 30 1850
424 0.8559127884631867 0.05935311352437785 -0.38172792524147353 31 34 33 0.41709344452141783 28 710 31 1314
425 0.8312040063274145 0.004899172052785832 -0.38155872719351586 176 182 183 0.21109234686739523 28 1155 31 1755
426 0.9099295328253797 -0.038102284999589994 -0.38043541934361375 166 172 170 0.15536900513237317 28 1351 31 1935
427 0.814328544572227 0.17862944168973918 -0.39077246305605623 28 25 20 0.3653029149746359 29 117 30 189
428 0.845286064792251 0.17830887617063862 -0.388661948126916 27 27 21 0.06376449611784621 29 139 30 218
429 0.8404051038651631 0.1759154144217083 -0.3886167411784479 28 28 24 0.45884137345643394 29 161 30 234
430 0.8426802933355998 0.1725939690145319 -0.3869758953144573 19 19 13 0.15801740919547566 29 186 30 261
431 0.8840596474701012 -0.0067263710740627074 -0.37884415886437994 26 32 30 0.2644443833466136 29 920 30 1452 31 1740
432 0.9535650013832864 -0.017003565081880466 -0.3805244932607001 80 88 90 0.014428243065691822 29 947 30 1486
433 0.9400543494019028 -0.03730646220529544 -0.3763243569268803 27 30 29 0.18590890584582986 29 1023 30 1611
434 0.9145291965404271 -0.037324683557069 -0.37506809913246036 28 31 30 0.26140651909482404 29 1032 30 1628
435 0.8782735440372983 -0.03805923662218707 -0.3794184021544291 25 28 26 0.23000909944546108 29 1046 30 1649 31 2000
436 0.9282557453000735 -0.055295596844675624 -0.3777183938019873 166 169 169 0.16353311724897332 29 1095 30 1700
437 0.9643818310372415 -0.08101614021862259 -0.37508626772381654 164 168 163 0.041253269747934286 29 1170 30 1776
438 0.915784269137679 -0.09762468106732212 -0.3724083436219676 22 28 28 0.06611308808341754 29 1213 30 1825
439 0.941301117244936 -0.04344728684931568 -0.378404414213665 185 188 189 0.2739087958390011 29 1051 31 1907
440 1.1042250746064852 0.10354957405666095 -0.384218777670675 99 93 96 0.5964237394110455 30 707 31 698
441 1.0870006087516242 0.10281333329476408 -0.3843303553165706 91 90 92 0.5276381744019982 30 714 31 715
442 1.0990096776342344 0.09820659826291714 -0.38307759908035305 108 107 107 0.586274399255905 30 729 31 737
443 1.0959004401014134 0.09523613678591918 -0.3837079442388148 107 106 106 0.5604593368282473 30 752 31 759
444 1.0857907747061788 0.09409664504249979 -0.3807683377305244 158 161 162 0.3108177975457487 30 756 31 766
445 1.0892418810532098 0.09081897858945025 -0.3820887703008947 169 174 174 0.5513697891942093 30 773 31 790
446 1.1006254788691128 0.09030577593563238 -0.3812630950492146 163 166 165 0.6158511078016958 30 786 31 779
447 1.0938032517701048 0.08905175926386709 -0.3826557591619489 169 169 169 0.6160483351605758 30 795 31 801
448 1.098375710708462 0.08887514173902379 -0.3821191185065978 91 91 93 0.5411246367830298 30 796 31 796
449 1.0847817879808344 0.0885329606308796 -0.38393518865362647 160 165 166 0.6252477098235126 30 800 31 815
450 1.0937243368945455 0.08599657699605791 -0.38247075353260107 166 169 169 0.5210678321583162 30 809 31 819
451 1.08043113863449 0.0830395659185515 -0.378135387666637 149 155 155 0.23078242241333066 30 823 31 835
452 0.8844622172947849 0.08190480896414334 -0.38342300421948033 29 32 35 0.3093399791238731 30 828 31 1092
453 1.1000527602188552 0.08156429784604978 -0.3823877287149342 107 106 107 0.5629260946976039 30 841 31 842
454 1.1000527602188552 0.08156429784604978 -0.3823877287149342 107 106 107 0.5629260946976039 30 842 31 843
455 1.1002296845192527 0.08133976344190721 -0.3854019130531837 172 177 177 0.6457442958681179 30 846 31 856
456 1.0821767072475852 0.08060552785827821 -0.3834068275979202 98 99 95 0.5459582531508276 30 847 31 875
457 1.0934333730822938 0.07660364689707978 -0.37939694696126525 107 107 111 0.3477851698754648 30 863 31 879
458 1.0970142111848995 0.0767273517839816 -0.38092391899865485 165 170 170 0.5866679782607868 30 865 31 880
459 1.0835359378583873 0.0756799953339756 -0.3822484044418618 157 165 164 0.41700620162689456 30 877 31 898
460 1.0901717160274216 0.07329394966361219 -0.3832860771981992 109 109 112 0.5435662186812704 30 890 31 907
461 1.0960415585684575 0.07103641503270523 -0.38203414835974897 112 112 116 0.6002955646955245 30 912 31 911
462 1.09023226823479 0.07098195866212731 -0.3815924602072378 170 175 177 0.42728098620082333 30 913 31 921
463 1.0937516156029223 0.07123353973620246 -0.3836584341686787 166 169 170 0.5864539410035989 30 914 31 922
464 1.1042284368342885 0.06901339779090662 -0.3830164491129764 164 166 164 0.705475258752042 30 930 31 923
465 1.0978480220055866 0.06842906364858956 -0.3840198935246978 128 129 131 0.6493195342052106 30 935 31 932
466 1.0964930743108459 0.06426852347572354 -0.37911530242704516 158 163 162 0.4183188109631547 30 961 31 944
467 1.1012798958961696 0.06459826796859894 -0.38239381647122506 111 114 114 0.5528470474581763 30 962 31 948
468 1.0857685105489276 0.06354859649342126 -0.3837640384384852 149 153 152 0.5919626694652192 30 971 31 982
469 1.0976204596892722 0.0632626600425625 -0.3830962414047545 109 109 112 0.5508150183105246 30 972 31 964
470 1.0976204596892722 0.0632626600425625 -0.3830962414047545 109 109 112 0.5508150183105246 30 973 31 965
471 1.0934766349797242 0.06271752803470766 -0.3826134503395277 153 159 159 0.6784499179655399 30 978 31 971
472 1.1021163078869134 0.05964435268221254 -0.38234722319881287 109 108 110 0.523443723233587 30 993 31 985
473 1.1021163078869134 0.05964435268221254 -0.38234722319881287 109 108 110 0.523443723233587 30 994 31 986
474 1.096481780918982 0.057784119414478925 -0.3805321074999092 135 138 139 0.4898550634837132 30 998 31 1002
475 1.0907457595993022 0.05610047546307165 -0.38209187392060184 111 112 112 0.37217502849349116 30 1007 31 1023
476 1.103262121429966 0.0551976894715413 -0.3809321456427129 163 166 160 0.5214541510860572 30 1010 31 1013
477 1.0964802970136587 0.05395783752160558 -0.3828988102659687 163 167 167 0.6124513581038306 30 1018 31 1029
478 0.8837598923711967 0.05559644303271596 -0.3790036028547224 25 31 31 0.44316748102200204 30 1024 31 1297
479 1.1000695360067276 0.05200826339074139 -0.38159464320609643 165 165 167 0.5096964264805521 30 1028 31 1032
480 1.0975150548210424 0.04999659475008132 -0.38116148323844157 96 95 100 0.5039201882198517 30 1034 31 1048
481 1.0921579161799133 0.050005883630558606 -0.3817222180142823 157 163 161 0.3435385602282013 30 1035 31 1056
482 1.086801345266297 0.048913250267771186 -0.38165749190326936 98 97 99 0.4067296212635851 30 1040 31 1066
483 1.0958330786844068 0.04843513501005466 -0.3806812644749555 159 159 162 0.621782335896474 30 1041 31 1058
484 0.94101245493948 0.05038586808951421 -0.3802778952527682 29 32 31 0.07369918175466778 30 1046 31 1241
485 0.94101245493948 0.05038586808951421 -0.3802778952527682 29 32 31 0.07369918175466778 30 1047 31 1242
486 1.0852417475336278 0.04717897833769172 -0.3824508090135242 147 153 153 0.5073311002862787 30 1055 31 1090
487 1.0020609826466336 0.048155617724938975 -0.37889991516536087 38 49 49 0.1522721240309904 30 1056 31 1173
488 1.0787887027982046 0.045947013785620786 -0.3837003126815829 148 156 155 0.31972378586942535 30 1060 31 1112
489 1.0864242011265712 0.0446952514807537 -0.3810342287795117 87 87 91 0.4250369731632416 30 1061 31 1105
490 1.092122307679409 0.04440347292063371 -0.38344445713290964 100 104 107 0.6151281251400517 30 1066 31 1108
491 1.0869219021313108 0.043183694329569644 -0.37906834646330134 156 162 162 0.32911727390095435 30 1072 31 1110
492 1.0932403532963375 0.041571983355214004 -0.38260215366686223 152 160 159 0.45326091437889177 30 1083 31 1122
493 1.0970013597442734 0.039750022405648545 -0.38188860355653775 156 162 162 0.6078351865234517 30 1094 31 1126
494 1.090348311256226 0.038872475807925785 -0.38318935676937205 163 170 168 0.57524996016819 30 1103 31 1136
495 1.0962332654545537 0.03362261163429182 -0.38038683613410346 163 166 169 0.5369460729304177 30 1119 31 1160
496 1.098407179714406 0.03346806270101201 -0.38097576396584854 101 102 106 0.48268953873802894 30 1121 31 1158
497 1.098407179714406 0.03346806270101201 -0.38097576396584854 101 102 106 0.48268953873802894 30 1122 31 1159
498 1.0859517892440693 0.030480086989845664 -0.37904356475565587 99 99 101 0.36878984426277517 30 1137 31 1193
