# 3D point list with one line of data per point:
#   POINT3D_ID, X, Y, Z, R, G, B, ERROR, TRACK[] as (IMAGE_ID, POINT2D_IDX)
# Number of points: 434
169 1.000045027315432 0.08900667146411655 -0.3792506660069048 75 86 84 0.24935909949752494 13 665 14 362
170 0.8320259474120651 0.0628836376904169 -0.3841792830744694 121 120 116 0.16489308473076225 13 710 14 496 25 1032
171 0.8330870798694826 0.047797726867315 -0.38415240547605567 173 175 174 0.0396348965413245 13 796 14 588
172 0.9989434633430226 0.06002093347047489 -0.38052097128082685 70 78 81 0.10780749729025348 13 803 14 533
173 0.8321883024303485 0.027601301736405258 -0.3838550441664663 175 178 179 0.16242840153812058 13 917 14 700
174 0.9852259393568547 -0.04704921674348155 -0.38121623683955036 45 50 49 0.3813459007797339 13 1308 14 1033
175 0.9592723881872433 -0.0876281494810406 -0.379051185317035 187 190 191 0.48842904951766997 13 1467 14 1164 22 1454
176 0.8317900959911017 0.05787153593331061 -0.3835394181019983 184 184 186 0.14288589670262603 13 739 15 766
177 0.8330384342575878 0.014790033426032452 -0.38321234428408696 119 115 118 0.1749238204561216 13 995 15 1007 16 766 25 1363
178 0.8296743370536439 0.11888971578436335 -0.38683619887675863 189 188 188 0.11775458866489365 13 535 16 203
179 0.8296239176053644 0.08803465478113351 -0.38504121479637765 186 189 189 0.06404853849586158 13 594 16 304
180 0.8309162173745095 0.08354983451767864 -0.38391184703836856 181 177 175 0.12901713216851413 13 603 16 336 25 864 15 590
181 0.8313744415376019 0.0603786199331442 -0.38421223268651067 183 182 183 0.1285158928607696 13 728 16 485
182 0.8313744415376019 0.0603786199331442 -0.38421223268651067 183 182 183 0.1285158928607696 13 729 16 486
183 0.8307037933736429 0.03820822044362415 -0.3840947185418445 124 121 123 0.020340208543116165 13 856 16 621
184 0.9644459727737335 0.04564253029650005 -0.38108479431294645 40 48 47 0.3495574476533644 13 861 16 615
185 0.9828439961483059 0.013999358952875757 -0.3825996197999906 48 61 60 0.280148731874914 13 1019 16 774
186 0.9259122820315048 -0.061322155958808654 -0.3807754078070282 149 155 149 0.07802804653260897 13 1375 16 1133
187 0.8330000702701704 0.030622685732896743 -0.3841079897535442 127 127 127 0.029797321611340674 13 898 18 403
188 0.8783594461825128 -0.012396478539825319 -0.3860715474111738 12 18 16 0.15143434413596127 13 1141 18 708
189 1.0000366530130622 -0.046266676243885016 -0.38143189651968185 51 50 57 0.16476908970929388 13 1305 18 904
190 0.9761591206352593 -0.15497975222762114 -0.3759950557991202 22 28 26 0.23005508814995568 13 1679 18 1114
191 0.9797364731723768 -0.1584240452927957 -0.379657316050769 24 28 23 0.10022985703738366 13 1694 18 1120
192 0.8319185028155144 0.11627432217931771 -0.38709665467990395 191 187 187 0.19014078490344943 13 536 19 48
193 0.8310945826833918 0.07943219761199048 -0.38450065277925927 175 175 171 0.08634606966029806 13 624 19 119 16 362
194 0.9091555703298029 0.019580381469046598 -0.38162841596587427 15 18 17 0.05229315140769787 13 981 19 452
195 0.9711791604414696 -0.00776433538313759 -0.3773901384181849 55 58 57 0.35089526500674384 13 1115 19 613
196 0.9711791604414696 -0.00776433538313759 -0.3773901384181849 55 58 57 0.35089526500674384 13 1116 19 614
197 0.8332430688671408 -0.024485269438647445 -0.3823987965152267 110 116 118 0.29719499419210643 13 1222 19 683
198 0.8297032582550914 -0.025048276735492068 -0.38096673884352983 155 166 166 0.32283496593093786 13 1225 19 684
199 0.8780791858077732 0.08680335968876685 -0.3834169258231471 30 31 27 0.26051188077730886 13 617 22 514
200 0.9129952734103572 -0.036678790027530016 -0.37655609107141935 15 21 19 0.11508058105847598 13 1282 22 1308
201 0.8311145177572018 0.11099447483828992 -0.384601447200601 179 176 172 0.19480360148467593 13 541 25 660
202 0.8330878522836224 0.07085270973507449 -0.38564381675032183 135 130 130 0.2917934789753325 13 670 25 980 16 421 18 164
203 0.8307393381640618 0.053226933329051374 -0.38425367194034715 120 122 121 0.3600798651832752 13 771 25 1098 28 757
204 0.8829571598912266 0.024364693017021377 -0.3805946919957972 167 175 172 0.12508674680889217 13 951 25 1462
205 0.9394408570655137 0.024614547626104034 -0.379780310271293 47 55 54 0.28558367938532464 13 967 25 1625
206 0.8312995190084201 0.00523234103088981 -0.3820985733262189 163 170 173 0.20149063763728006 13 1045 25 1416
207 0.9750261664948133 -0.14426887294349378 -0.3723512439503707 20 23 22 0.2566096098646841 13 1576 25 2307
208 0.8331139792151412 0.07219284448881251 -0.3841687364714267 177 173 174 0.07811836939147435 14 428 16 408
209 0.8315351674110883 0.04718055752868918 -0.3842186371657881 112 110 112 0.06698649104606527 14 591 16 569
210 0.831608466526752 0.032720299202668134 -0.3833846125809337 174 180 180 0.11705539793745853 14 667 16 653 17 619 18 389
211 0.8316392857257322 0.020014894433315136 -0.38419250040969893 178 179 183 0.09974121621480173 14 748 16 742
212 0.9077473328081899 -0.004974964859785652 -0.3812824194744099 20 26 22 0.05519775720467596 14 866 16 879
213 0.8786707206130544 -0.011753195795004346 -0.38431948684335304 21 24 21 0.14504077668199764 14 905 16 914
214 0.8786707206130544 -0.011753195795004346 -0.38431948684335304 21 24 21 0.14504077668199764 14 906 16 915
215 0.854127654870851 -0.013339823011700908 -0.3864797925118974 21 25 22 0.14109953042748283 14 912 16 926
216 0.8330390503683471 -0.023032165500913606 -0.3837430025300645 107 106 108 0.03499018834012508 14 976 16 981
217 0.8330390503683471 -0.023032165500913606 -0.3837430025300645 107 106 108 0.03499018834012508 14 977 16 982
218 0.8304380038810527 -0.02931420782710422 -0.3836135021728213 143 142 143 0.38820848607583325 14 1001 16 1021 17 1013 25 1670 28 1337
219 0.9470060513078484 -0.04271499859553082 -0.38196256215551666 25 31 33 0.27571947299080096 14 1024 16 1053
220 0.936565601723059 -0.05942401747070812 -0.38341831181835956 19 25 22 0.10165244167609784 14 1082 16 1119
221 0.9093062666685378 -0.06836559233842786 -0.3825143719430026 18 22 17 0.3038607239183794 14 1125 16 1157
222 0.830749761209833 0.009891582006674147 -0.38350437819679706 142 141 143 0.03739735099143651 14 797 17 767
223 0.8330646687876756 -0.013888133622672442 -0.38330346205542326 111 110 110 0.005030169729553463 14 924 17 907
224 0.8309275549466899 -0.013938502832926483 -0.38405142379289803 121 122 126 0.24923488006335554 14 925 17 908
225 0.88321173214811 0.08163158982964078 -0.3833161000176468 34 34 36 0.46423466614883196 14 379 22 562
226 0.9101016022963664 0.019378076313803734 -0.3855161479186578 33 33 33 0.3449001499670418 14 741 23 1749
227 0.9096253651111953 -0.03763956904605174 -0.3835683673560746 184 187 186 0.2204102459772517 14 1009 23 2081
228 0.9152732903161946 -0.04290489763239893 -0.3823169870852849 182 182 182 0.2607301293798338 14 1039 23 2091
229 0.9152732903161946 -0.04290489763239893 -0.3823169870852849 182 182 182 0.2607301293798338 14 1040 23 2090
230 0.9841287129584098 -0.061297165440323605 -0.3807110272698395 199 199 201 0.6127786847435333 14 1073 23 2100
231 0.831351397195799 0.09621156744608979 -0.3842942756602201 128 125 120 0.09560021286649956 15 532 16 267
232 0.8327487194548072 0.08960431805269109 -0.382830118916103 189 189 191 0.06563700007378441 15 558 16 291
233 0.8306540717050304 0.08748354985001208 -0.38312747490964316 181 184 185 0.10073863227202043 15 572 16 306
234 0.8521934379343928 0.08645047242215605 -0.3794801447211744 25 29 28 0.012424538715873611 15 578 16 325
235 0.8323086915117385 0.08351570523448826 -0.38368759898430854 181 177 178 0.05566727131130532 15 591 16 338
236 0.8296570833527273 0.08029095536292317 -0.38476228215677183 185 188 189 0.05841757782807333 15 618 16 360
237 0.8326252085463117 0.06612358917945887 -0.38209181104521156 186 185 187 0.02085025140249013 15 709 16 442
238 0.8307073815596723 0.053202390040041285 -0.38408048794489263 121 124 125 0.20664613712889113 15 792 16 529
239 0.9403656420109049 0.05055941945921403 -0.3826274314954405 32 38 36 0.22860127875347325 15 821 16 581
240 0.830830532114643 0.024405419467744115 -0.38284573012330625 115 116 117 0.10667639369580743 15 957 16 709
241 0.8330244380217777 0.02184957479311488 -0.383530538316826 173 175 176 0.005101977422872094 15 971 16 737
242 0.8323155507810942 0.005904648506355431 -0.3837231113429089 128 127 131 0.08946737443313718 15 1072 16 812
243 0.8350461076741031 -0.023527435076548857 -0.38520067121597695 166 166 166 0.16047729539595007 15 1222 16 984
244 0.8839262104285465 -0.04269341990421366 -0.38194310976458656 17 20 19 0.24643848889335934 15 1284 16 1078
245 0.8315043942486833 -0.03791555450608797 -0.38451617646250835 88 87 89 0.28005890810741113 15 1290 16 1071 17 1085
246 1.0740997193090585 0.07055936027597226 -0.38565832430932323 123 123 123 0.19633982081395357 15 751 17 564
247 0.8303422787250543 0.059219959776010175 -0.3842522803309965 141 141 144 0.4513267013713769 15 756 17 473 18 218
248 0.833811449171069 0.010370863090719573 -0.3826128803208358 172 175 176 0.014276349300468541 15 1035 17 761
249 0.8310832194945217 -0.009677416048816808 -0.38348899912818635 108 108 107 0.13508664147805727 15 1148 17 882 25 1520
250 0.8326409447103378 -0.025037869373954417 -0.38416502633771266 170 176 178 0.1711216976964033 15 1232 17 978 16 994
251 0.8315677250591026 -0.025018835816627852 -0.384083713882124 160 160 159 0.050140220979504525 15 1233 17 976 18 763
252 0.8597808750998818 0.012000545985442718 -0.38384086353771885 167 173 173 0.1667206796075378 15 1021 18 549
253 0.8332792527671123 0.01283309798136283 -0.38378250570248984 167 164 165 0.04899183115476219 15 1023 18 508
254 0.831569798836787 -0.02502748053953381 -0.38410251098741777 160 160 159 0.03095162015287825 15 1234 18 764
255 0.8944125376957786 0.03552759243243277 -0.3815914111454216 172 178 178 0.3914514264853974 15 890 22 878 19 350
256 0.9165207397725033 -0.006605429808864586 -0.38615123145009966 159 168 165 0.01067689683217122 15 1103 22 1171
257 0.9552898669680115 -0.03384393970688797 -0.38573598432775164 35 38 46 0.09909161662834882 15 1214 22 1277
258 0.9738443929020393 -0.043353702402729385 -0.38507347088619587 29 35 36 0.14099696706228987 15 1250 22 1300
259 0.9125002522014436 -0.0714490755601797 -0.3915297779169383 21 21 21 0.19324961813320207 15 1359 22 1428
260 0.9203999125157997 -0.07848274070924702 -0.39448864613065415 20 23 26 0.12869231555867636 15 1373 22 1441
261 0.996612701795388 0.03465495296049398 -0.3816435266926883 55 63 62 0.47109959688820574 15 893 23 1570
262 0.9540232614599694 -0.03344668265048326 -0.38353253644915525 44 44 57 0.06779749991491986 15 1215 23 2036
263 0.9069955329492994 -0.034759005716370056 -0.3852978548952878 32 31 31 0.2210523518925499 15 1243 23 2074
264 0.9832632335905588 -0.06582769671167335 -0.3841897164237755 41 44 47 0.05156009017510921 15 1321 23 2113
265 0.9798340855982811 -0.07473006976660755 -0.3838871377886163 37 40 43 0.14413523890503918 15 1348 23 2137
266 0.8763178342661324 0.11173407768285336 -0.3863220635643888 26 29 28 0.5480490821909392 16 233 17 272
267 0.9920592050764203 0.048434744475244366 -0.380645864016513 59 70 69 0.35800818047432853 16 604 17 618
268 0.9097644648444962 0.01978620881695601 -0.3832169037246705 21 24 23 0.05579937316909491 16 747 17 740
269 0.953634542080085 -0.03015488750674786 -0.38207312701989277 176 184 183 0.3616970969851574 16 989 17 1016
270 0.8314472339976418 -0.028742551358933152 -0.3847966395637038 166 166 167 0.07212855796778152 16 1016 17 1009
271 0.9721316312095634 -0.04249834782530863 -0.38198108180778334 33 36 39 0.013795433479451485 16 1041 17 1089
272 0.9412789774137366 -0.07357512319022635 -0.3821832591127427 26 26 27 0.2650505836954293 16 1160 17 1191
273 0.8953631465406812 -0.08198266393200537 -0.38339463318501416 23 23 19 0.3273539364894867 16 1194 17 1224
274 0.8291482761851223 0.07605818720575266 -0.3862593457627025 191 190 190 0.21866337439501174 16 384 18 138 20 737
275 0.831660839854307 0.0362465636800606 -0.38389534129375563 117 114 111 0.18030644488782713 16 637 18 362 17 605
276 0.8321419470569197 0.024532313185709993 -0.38387497292602457 116 112 115 0.06203806239695902 16 706 18 435
277 0.831158450857087 0.10091264527794004 -0.38533162962573814 199 194 194 0.5134655648991645 16 238 19 61 21 492 25 748 17 275
278 0.8317681810604083 0.06260347427587573 -0.3838544447307536 171 170 174 0.06704134017979775 16 475 19 192
279 0.8296999163924362 0.12097534584500844 -0.3846327988879456 196 202 204 0.628746324586815 16 192 20 524 28 297
280 0.8313373556325724 0.06345193316852019 -0.38342802370280343 186 185 185 0.17844350584240512 16 461 20 849
281 0.8433759009945209 0.05787490855851846 -0.3750687852106805 186 187 187 0.35750214925253254 16 493 20 900
282 0.8315115440401352 0.04616093118442735 -0.3839549699191295 148 147 149 0.10767865264857594 16 574 20 941
283 0.9761947290034323 0.05091964607305361 -0.3801635928134227 54 62 61 0.15244905043563567 16 588 20 1267
284 0.8328822855589172 0.022585115602046825 -0.3834880013587542 169 170 170 0.058589215216970594 16 729 25 1318
285 0.8320754398674329 0.002229589722518752 -0.3828216907140336 108 110 118 0.1910148577210374 16 842 25 1434
286 0.8320754398674329 0.002229589722518752 -0.3828216907140336 108 110 118 0.1910148577210374 16 843 25 1435
287 0.8308187024511934 -0.03696158756367347 -0.382936608902783 162 165 168 0.5560667521774867 16 1067 25 1745 19 788 28 1385
288 0.832030804747092 0.09956042801162612 -0.38784125449639845 202 198 201 0.24203000484373438 17 279 18 87
289 0.878075253761913 0.08631825818228467 -0.3826243182203124 27 27 27 0.01414999194866804 17 350 18 134
290 0.883837003102036 0.0824543528202713 -0.38516572989620007 29 32 33 0.27440936307494174 17 385 18 159
291 0.8313928301785602 0.037499170428164405 -0.38499766842299843 195 195 197 0.08927801711284296 17 597 18 350
292 1.0816562541615666 0.039876216855545654 -0.38711165944407044 119 123 118 0.011761528673426351 17 699 18 529
293 1.071749273142991 0.03588856377432456 -0.3808013284536379 120 126 124 0.031088407726777262 17 708 18 539
294 0.9402653656538579 0.02487242904310877 -0.381450152601391 26 33 28 0.014698697216879086 17 714 18 506
295 1.0723650996704217 0.023832089411960397 -0.38445948806371644 114 117 116 0.029011817353582745 17 771 18 598
296 0.8325944633859491 0.00520685403033572 -0.3844083957965377 132 129 126 0.11430680593210664 17 787 18 570
297 0.9889744482597403 -0.0013824797898443198 -0.3817213300622177 55 59 59 0.06296952157299017 17 859 18 686
298 0.978027830704819 -0.006092476646539116 -0.38109901951787606 169 175 173 0.02902292050117239 17 884 18 705
299 1.075978840179907 -0.006455046786779941 -0.38673389787805695 132 136 135 0.01524612613813938 17 892 18 742
300 0.9900927025648858 -0.020315000251955536 -0.3798677265100353 52 63 61 0.0046934465821538126 17 953 18 777
301 1.0721763306023266 -0.026312335578879336 -0.38423198432881367 127 130 131 0.10569498799401159 17 992 18 829
302 1.0013141969303647 -0.03657958053931365 -0.3823587440146456 60 68 69 0.1899873001717323 17 1054 18 866
303 0.8309533351250392 -0.03472223646784126 -0.3846689231688323 174 180 179 0.16142580049828303 17 1057 18 818
304 0.8309009768186657 -0.034774419029467735 -0.3836380605695098 174 180 179 0.3213764033165402 17 1059 18 819 25 1729
305 0.9819864239425332 -0.06482537614684547 -0.38116282675686947 41 49 49 0.009703963447214508 17 1161 18 983
306 1.0059682014217624 -0.15859223027067426 -0.38370477664214714 28 34 32 0.2848425296657601 17 1301 18 1109
307 0.9964079307972195 -0.16201828156400566 -0.38739558040418137 13 20 14 0.06471257508932074 17 1321 18 1119
308 0.978795743752531 -0.15789528571443887 -0.38397103539945754 29 30 30 0.13153087780475547 17 1322 18 1117
309 0.9013194857253054 0.10470021290267756 -0.38256294293862586 188 188 188 0.08402349975455942 17 299 19 75
310 0.8329773782477137 0.08970906485747973 -0.38387543649155925 198 197 199 0.04495147354511921 17 306 19 85
311 0.8314378445739862 0.06602296057358707 -0.3842010948846843 197 196 203 0.184933628839022 17 429 19 181 20 835 25 1005
312 0.9082731332773697 0.05501557685766495 -0.3803308059190681 24 28 23 0.004953294509988984 17 541 19 274
313 0.8774213949178178 0.04915850017495145 -0.38137446014046567 25 25 27 0.38550303981016865 17 553 19 286
314 0.8774213949178178 0.04915850017495145 -0.38137446014046567 25 25 27 0.38550303981016865 17 554 19 287
315 0.9684721474582929 0.049398587542909544 -0.3768389689833485 181 181 181 0.16001182932825805 17 602 19 318
316 0.9080526883297323 -0.03734082845670019 -0.3786283640791625 167 177 170 0.017408177557628104 17 1076 19 799
317 0.8321615047669206 0.08010466828824414 -0.38499920348672195 135 130 131 0.12579760830309314 17 342 20 711
318 0.8318671339255378 0.12943469345733635 -0.3867774231523153 176 173 176 0.12981889893065507 17 227 25 514
319 0.8296289188825334 0.07193945425994212 -0.38403494106316544 178 180 177 0.057696229609696316 17 391 25 953
320 0.8317312759719687 0.0678508512038402 -0.3854725974505957 171 170 171 0.15264074430226132 17 424 25 992
321 0.8309224803744659 0.061593840469078016 -0.38465345769128184 135 135 134 0.18963279417425957 17 459 25 1039
322 0.885012694762343 -0.06770597301715775 -0.3822509239541968 21 24 23 0.01714407946874005 17 1181 25 2125
323 0.8325653309145433 0.042132274733899175 -0.383935468365314 145 144 149 0.113026863525431 18 310 20 972
324 0.8318427996064831 0.03465766528615141 -0.38307849068867955 133 127 129 0.11739748841724847 18 373 21 967
325 0.8311863134483589 0.1393634150483801 -0.38814627460169593 203 203 207 0.14380279009761637 19 24 20 502
326 0.8316716760523295 0.13055928774284026 -0.38828510326527604 205 205 209 0.7051211356898383 19 36 20 511 28 276
327 0.8324476245455705 0.10152203564313525 -0.3864327946476009 200 203 206 0.06072640429634389 19 62 20 552
328 0.8332126320318527 0.08060361035607576 -0.3843330229405388 200 200 202 0.13418503207767718 19 113 20 709
329 0.8301181198403383 0.07186473599431495 -0.38337653004691835 187 187 189 0.4669942180326237 19 142 21 652 24 279
330 0.9957205328792689 0.02721371067235823 -0.3763438947860954 70 73 74 0.8587569067447877 19 440 21 1275
331 0.987228181422317 -0.002973163572514982 -0.3773975783021974 68 74 74 0.19346686089388201 19 601 22 1088
332 0.8324448919167696 0.0728576454347329 -0.3836885150024236 137 134 130 0.15179131778223173 19 138 25 957
333 0.8309900532535449 0.06998320827982943 -0.3838820780644327 176 175 173 0.08680137737667958 19 157 25 972
334 0.9357024092459738 0.05828669545221691 -0.3790935136478553 43 49 49 0.37441259371147084 19 267 25 1411
335 0.8307733437821353 0.04518047655714959 -0.3826678952117244 157 160 161 0.25166938223810426 19 282 25 1168
336 0.8293450034945831 0.020925174076953473 -0.3824076549230632 170 174 173 0.16643916816210289 19 406 25 1313
337 0.8308541997615322 0.008451958722935967 -0.3829062151516651 109 114 116 0.20002999116692943 19 479 25 1397
338 0.830858886479194 0.0010514547489068066 -0.3827875165781771 117 123 125 0.12851278174451153 19 527 25 1438
339 0.9445158939330798 -0.006413281949243682 -0.3784170946649897 42 49 49 0.011339253608923348 19 609 25 1872
340 0.992826109820782 -0.012914596200118957 -0.37528825604978605 68 77 77 0.5195431488956628 19 646 25 2025
341 0.951364011148859 -0.03267195139073089 -0.3781188940003687 45 44 46 0.3695047050879411 19 775 25 2064
342 0.9399854574542815 0.050406839063632206 -0.38173605812038236 36 39 38 0.5431979889854363 20 1201 22 783
343 0.93881812506904 0.024512153570877576 -0.378879083890692 47 55 54 0.31419604631965464 20 1399 22 938 25 1626
344 0.8825532124613403 -0.00630675899020229 -0.3776013683411457 23 29 27 0.32057446599862016 20 1529 22 1195 24 935
345 0.8769990570860087 -0.012153629290778385 -0.380086842265861 24 27 28 0.01822083797649978 20 1554 23 2015
346 0.9439951528845854 -0.005001300142548095 -0.37484497497577396 34 42 39 0.2993668384163539 20 1633 23 1882 24 939
347 0.8892897681430599 -0.02207466282297912 -0.37834110691483336 184 184 184 0.008660221168810335 20 1661 23 2045
348 0.9651340777487564 -0.0054527070946749365 -0.3717284847690197 56 59 62 0.054789229750883676 20 1683 23 1855
349 0.9694894395672676 -0.03521981228804161 -0.36753447048427607 48 48 50 0.009159743498671453 20 1897 23 2030
350 0.8308993449569688 0.1285407850324262 -0.3831137097520674 205 205 209 0.1517256958173067 20 510 28 275
351 0.8312746652643086 0.12140354799534536 -0.38425728887553356 202 201 205 0.09110533633296822 21 366 24 127
352 0.8310324353670956 0.07144927935997414 -0.3826292912093598 203 203 205 0.048625240610947404 21 657 24 286
353 1.068295433182633 0.08724050041460273 -0.3787405243589025 125 131 131 0.21888649634558435 21 943 24 415
354 1.069273874427288 0.07090504202668495 -0.3827410497327594 111 111 115 0.13636269865696596 21 1050 24 517
355 1.0748329699737555 0.07154004950015941 -0.38002777096873436 121 127 125 0.0028862182927876503 21 1052 24 515
356 1.0734483840837101 0.0673194363110192 -0.38141354127910154 90 96 98 0.021431740309912902 21 1065 24 537
357 0.9858915125183496 0.03920207035468137 -0.37769913971812624 78 87 88 0.05084547686043838 21 1143 24 641
358 1.0757120357555139 0.05379615419173976 -0.37974718998765034 120 123 122 0.08642827669321798 21 1148 24 612
359 1.0744369780476324 0.04376450094781608 -0.37907659985525916 117 122 122 0.19689083063318114 21 1250 24 664
360 0.9871879805525554 0.027509345859453572 -0.37905520455814523 71 82 81 0.11228797157362888 21 1261 24 713
361 1.0721385274033985 0.0377603074259305 -0.3798668436095952 130 132 134 0.014289715190105924 21 1280 24 697
362 1.0728985505372404 0.03017132224064222 -0.37914795536322454 107 107 107 0.052768497083226444 21 1337 24 747
363 1.071125524935537 0.028564244371584255 -0.37909851162533237 128 129 131 0.1204638130760638 21 1347 24 756
364 1.0664491709679274 0.022791947135258298 -0.38012887227814657 124 120 121 0.05328503187520456 21 1379 24 786
365 1.0767762173596962 0.02396684628152678 -0.38124182021338576 104 104 106 0.18290579781860536 21 1380 24 782
366 1.070063260613898 0.019171127514272364 -0.3798890466236209 129 129 131 0.140239144948047 21 1402 24 814
367 1.0793937295384488 0.01815799273461373 -0.38239887538245126 115 118 119 0.19954700096455136 21 1407 24 822
368 1.0761892144831358 0.015509500070762362 -0.3774470954342999 93 92 94 0.11572470272831632 21 1437 24 841
369 1.080027203308595 0.012113891582627281 -0.3808069532160219 98 98 98 0.2371806944066791 21 1457 24 865
370 1.0724924492495425 0.005463922066334583 -0.38284489512806436 121 124 126 0.2662292465018177 21 1493 24 902
371 1.0774508459452286 0.002895412116424836 -0.3804399069604111 112 112 114 0.10840354672440133 21 1520 24 915
372 1.0769123318123057 0.00035663905753078185 -0.3796180760691322 109 109 110 0.24133010030548757 21 1548 24 928
373 0.9852313541612152 -0.0601427048495967 -0.3760731948512146 60 48 61 0.05159919645610485 21 1783 24 1264
374 0.9644487266678499 0.03178672019066043 -0.3814060727725856 185 196 192 0.28937570730957535 22 885 24 684
375 0.9887077916633378 0.027790602481158375 -0.38100406487918603 62 73 69 0.6978417702350336 22 906 24 712
376 0.8772848403237005 0.024486049570031237 -0.38008748655208396 25 31 29 0.08773193862434775 22 968 24 687
377 0.9435163770826451 -0.006165446718606762 -0.37641733319106163 36 44 43 0.04388322827892501 22 1142 24 946
378 0.8824403521859696 -0.006291730505835003 -0.3770241790802114 23 29 27 0.22276508981283996 22 1194 24 936
379 0.9822248984132813 -0.06337683513534344 -0.3772106066636614 40 42 52 0.03135216856718423 22 1365 24 1279
380 0.8739570702639406 -0.06445939917872487 -0.3786679689037207 25 25 21 0.2691481488247456 22 1438 24 1310
381 0.9141929523795708 0.08678253817406205 -0.380405300319187 26 32 30 0.1684869517112565 22 522 25 1194
382 0.9442487637872753 0.05513624940645293 -0.37858149458722534 42 51 50 0.006187899153131587 22 753 25 1458
383 0.9536414284215878 0.028480687743427525 -0.3759866041833629 51 56 58 0.09198291217544483 22 910 25 1646
384 0.9679971727181885 -0.10329085972998261 -0.3780862252786778 176 180 180 0.588210164889603 22 1488 25 2301
385 0.9051451010837964 0.03623838942714889 -0.38302388152775135 35 38 36 0.09059764652301332 23 1640 24 618
386 0.9193275540514477 -0.06295882856946199 -0.3791077357446049 23 29 27 0.24721494748322395 23 2152 25 2179
387 0.8321133189252252 0.08344590960128151 -0.3865190038315568 181 181 180 0.08977102756956694 24 218 25 878
388 0.8322265585014276 0.06327058080971733 -0.38514394438015165 121 120 116 0.2542370766357901 24 357 25 1030
389 0.8322265585014276 0.06327058080971733 -0.38514394438015165 121 120 116 0.2542370766357901 24 358 25 1031
390 0.8296907943866274 0.0521546180405786 -0.38535631199660425 177 179 178 0.06099246388664314 24 442 25 1105
391 0.8597063535642598 0.01208699099298672 -0.38295217138288146 162 170 169 0.1780228803327925 24 779 25 1465
392 0.8304992236059282 -0.002721641796832671 -0.3825452170068624 181 181 185 0.13680758025047088 24 891 25 1471
393 0.853389786785701 -0.012489924578990909 -0.38379632597397145 28 28 30 0.3464004310722223 24 974 25 1608
394 0.8309722466438161 -0.015297588624855201 -0.3833322691877105 133 132 135 0.002695259848553678 24 993 25 1564
395 0.8309722466438161 -0.015297588624855201 -0.3833322691877105 133 132 135 0.002695259848553678 24 994 25 1565
396 0.945265368953443 -0.0431064949976416 -0.37670065968455807 29 35 33 0.1844697912908587 24 1189 25 2116
397 0.945265368953443 -0.0431064949976416 -0.37670065968455807 29 35 33 0.1844697912908587 24 1190 25 2117
398 0.883593924243573 -0.0733291759838465 -0.3794057510877767 168 168 164 0.12837923808780702 24 1337 26 1366
399 0.8300519877527082 0.07250132928799569 -0.38503613226846867 191 191 193 0.06738074555701137 24 277 27 350
400 0.8821751836827316 0.054379169702248896 -0.3780601159678114 23 29 27 0.5090635000303345 24 468 27 518
401 0.7617183169581595 0.10246452471502993 -0.39489664621528786 21 19 18 0.006747267235226739 25 309 26 311
402 0.7698331343920224 0.09912831043092332 -0.39989239193296455 39 40 36 0.06379820198135598 25 450 26 351
403 0.7614190245592554 0.0897181398369544 -0.39564085773445523 46 47 43 0.12690974639330463 25 463 26 363
404 0.7628885752318644 0.07069056881629472 -0.3961339944705488 52 59 53 0.2258504054537889 25 650 26 430 28 615
405 0.7672000920393178 0.10823500989837845 -0.39077796604575005 18 17 17 0.03906827575082225 25 260 27 164
406 0.7680427504378404 0.07164469917276534 -0.3890049396190939 55 55 55 0.32036997387486377 25 645 27 282
407 0.7667751137897646 0.06991508541536529 -0.39061537731352675 25 25 21 0.09707438095668262 25 668 27 285
408 0.7679537392208114 0.06692266949313332 -0.39191429251232257 55 58 53 0.08995327321438523 25 707 27 294
409 0.7640411876352383 0.05779164174172248 -0.39522397961973654 62 62 62 0.33714768531409006 25 774 28 720
410 0.7640411876352383 0.05779164174172248 -0.39522397961973654 62 62 62 0.33714768531409006 25 775 28 721
411 0.7689622204099857 0.05827522716939953 -0.3930566687328409 69 77 74 0.24258787520394076 25 797 28 716 26 497
412 0.766957836668097 0.04628631401352276 -0.394710508566904 25 25 25 0.22481023759396548 25 870 28 808
413 0.7698679417462853 0.04716096520553161 -0.39298446297571343 48 43 39 0.1802010768548921 25 877 28 801
414 0.7646908128267846 0.04292571570663449 -0.39358747081383055 68 67 67 0.30200601216332223 25 880 28 830
415 0.7646908128267846 0.04292571570663449 -0.39358747081383055 68 67 67 0.30200601216332223 25 881 28 831
416 0.7662590698956944 0.04292380240299227 -0.3945939288871266 30 27 24 0.30561166961378294 25 895 28 832
417 0.764744763792981 0.04139829619224728 -0.3953497233293825 41 38 33 0.12641999390818232 25 903 28 845
418 0.7644749349492982 0.036229370984256194 -0.39485151095386545 33 30 27 0.025834962229999186 25 945 28 909
419 0.7680097690722382 0.037792568444497625 -0.3938874834111413 24 23 23 0.05341187166642397 25 948 28 886
420 0.7696060004080987 0.02947063417056122 -0.3932665473094684 29 24 22 0.10206050773999106 25 1012 28 967
421 0.8309298621648504 0.059699287041398104 -0.3854327871398771 143 146 149 0.18119936092467748 25 1054 28 707 30 1005
422 0.8299065494255528 0.05287599297235554 -0.3846523189447914 176 176 177 0.1593772255974361 25 1094 28 758
423 0.8335521435030073 0.050667159596140224 -0.3855040737169001 172 174 172 0.3546990706363318 25 1142 28 768
424 0.8326440695918846 0.0450470121176008 -0.3856514935535886 133 130 129 0.20121696480962942 25 1179 28 813
425 0.8324144793125646 0.04063508731941636 -0.3852965080868101 165 165 165 0.40398981043430665 25 1203 28 846
426 0.8318170437710037 0.037489779103920685 -0.3856551286121362 183 183 187 0.1969110472081258 25 1219 28 880 30 1153
427 0.8788626170377688 0.0563567933315004 -0.38486354636758796 173 176 175 0.15474375425667147 25 1256 28 737
428 0.9153488688016748 0.05103991384031535 -0.3830730184617084 31 37 37 0.11171640907537805 25 1398 28 772
429 0.8843798418951209 0.019968099687040882 -0.38428699593991517 23 28 25 0.35605769902932227 25 1493 28 1032 29 823
430 0.9808547558663204 0.042656000340689185 -0.3797930055232472 56 67 66 0.04096766491492435 25 1630 28 833
431 0.9806839431174462 0.04058428440584871 -0.3805133288190716 60 67 68 0.32608064901116124 25 1642 28 847
432 0.9722774336300548 -0.006278122911371025 -0.3803349900772896 63 71 70 0.13440222151096928 25 1926 28 1202
433 0.7724287957663377 0.1234428847692322 -0.387327090448897 51 51 47 0.062364942115272576 26 233 28 277
434 0.7645094283705015 0.12153133730272918 -0.3981595916370893 53 54 51 0.44837727826953994 26 251 28 288
435 0.7682374712813782 0.11814563936342269 -0.39693696290149183 57 58 54 0.28739800778018165 26 265 28 308
436 0.7740483881442253 0.10264467168418324 -0.39253432110387176 61 62 58 0.0013688222489577659 26 327 28 345
437 0.7612094926936517 0.09156313949647389 -0.39149164897589117 35 39 32 0.09676687598463374 26 355 28 419
438 0.7617711019661932 0.08258219898888694 -0.3944213634633975 44 44 43 0.24568099402887256 26 380 28 508
439 0.7617711019661932 0.08258219898888694 -0.3944213634633975 44 44 43 0.24568099402887256 26 381 28 509
440 0.7666065505623374 0.08254816342625816 -0.39044395106658975 53 54 50 0.17915650617315976 26 382 28 493
441 0.7626562072526039 0.08152444250940612 -0.3957495996628641 45 46 42 0.23336725544865 26 386 28 524
442 0.7656317003349309 0.08230134556810799 -0.3963876966221338 26 22 23 0.11268350632535333 26 389 28 520
443 0.8296193708179312 0.09848442653444253 -0.38620660366514603 187 188 187 0.6103543820617072 26 404 28 387 29 479 30 694
444 0.8307059604074927 0.09806607399073089 -0.3881635337161192 185 188 189 0.48818001433303065 26 414 28 393 29 482
445 0.77133112988158 0.07612833058083303 -0.39244083503488225 46 47 43 0.025039455619767028 26 415 28 567
446 0.7758628161446506 0.07660018560723239 -0.3942179327044057 53 52 52 0.09155399063819533 26 424 28 568
447 0.7676651267435605 0.07341988646471205 -0.39449159665558725 55 59 54 0.030038342244006946 26 426 28 588
448 0.8318928352700111 0.09026490493401604 -0.38620459691456166 125 125 128 0.07447597656028404 26 446 28 452
449 0.7751713500404516 0.06696409790220893 -0.3925646607695145 20 20 16 0.15533087995113523 26 461 28 645
450 0.7682950378055523 0.06159477918109085 -0.39580857898870014 58 57 55 0.08052302900199199 26 478 28 695
451 0.7689142867387936 0.058242615184065163 -0.393042074279578 61 61 59 0.08273215689545936 26 498 28 717
452 0.7695326402174241 0.05379676422067615 -0.39532801773634496 64 65 61 0.05101852699342688 26 513 28 755
453 0.8341506393734542 0.07304833401169307 -0.3866006675360777 183 183 183 0.2545173321905927 26 520 28 606 29 592
454 0.8718766733957076 0.06695797733667748 -0.38432872996793266 176 184 185 0.007340422042972468 26 620 28 665
455 0.9625572106974457 0.06528185273794261 -0.3810569782835564 51 59 57 0.13289892255926203 26 790 28 688
456 0.8329108446858687 0.024782237750679916 -0.3861784900203644 113 113 114 0.05307357748921645 26 809 28 998
457 0.8322398524266009 0.005483543663569779 -0.3857151693580898 176 182 183 0.07752770776200496 26 907 28 1156
458 0.9939516064001375 0.03871561858568895 -0.377252863526996 77 85 84 0.2095757238546931 26 955 28 862
459 0.9408510383460165 0.02533535231487473 -0.3819872532449165 45 55 55 0.28407119159576666 26 959 28 980
460 0.9836340197275427 0.00533110806808934 -0.3786141815317322 187 190 191 0.074594150054409 26 1101 28 1114
461 0.8317590104207506 -0.03211007731496494 -0.38718033957657705 169 173 175 0.21738039039926957 26 1136 28 1353
462 0.977340951945362 -0.011295080533043256 -0.37855067472327214 51 56 58 0.3036619189930809 26 1174 28 1223
463 0.878953139456813 -0.037079300065873545 -0.38477290814897996 23 29 27 0.3084409141444931 26 1203 28 1361
464 0.9613399894643694 -0.02521234932628144 -0.38146393908365106 43 45 51 0.139436891291294 26 1224 28 1281
465 0.9171075038361295 -0.09933048759295621 -0.3821242394716944 23 29 27 0.6078020070761044 26 1439 28 1557
466 0.9405359300092122 -0.09886007756456154 -0.3813396160449257 32 32 33 0.5218083307737982 26 1444 28 1555 30 1820 31 2139
467 0.8308431073258947 0.1127811337154091 -0.38702287668897956 156 155 158 0.040212819789145586 26 370 29 441
468 0.7674893603971445 0.0630504626987404 -0.3942347795115631 50 51 47 0.3384407804956835 27 304 28 686
469 0.9251593619109265 0.06692859437888474 -0.38277535875985996 187 191 190 0.015957712965707586 27 529 28 677
470 0.829845991269717 0.03693430125639495 -0.3850127270068812 180 183 183 0.08436629507625047 27 538 28 888
471 0.9102348503984234 0.05649351096387061 -0.38438161203175747 33 39 39 0.06359794092680093 27 565 28 739
472 0.8324512283519472 0.02050774349033369 -0.3851268033843151 152 150 149 0.044858123214283833 27 647 28 1035
473 0.8337179444940964 0.020758692638654992 -0.38540370432704674 177 174 172 0.0848237811026266 27 650 28 1033
474 0.8957964010249768 0.03609999752674925 -0.3836565169258129 173 181 178 0.21440720975521568 27 664 28 899 30 1145 31 1427
475 0.9908933374015548 0.04071063230683667 -0.3819601808934799 78 89 89 0.2621279866288919 27 759 28 849
476 0.995815907969083 0.041832278207589536 -0.37898877465288644 67 77 77 0.025525246592082575 27 760 28 835
477 0.9863378935441327 0.037766129641654655 -0.3814035421463849 75 83 82 0.31910843301288994 27 776 28 873
478 0.9882405131828861 0.036299088139344814 -0.3818251447401807 63 71 72 0.13413198373881044 27 795 28 894
479 0.9730880481200084 -0.006367542944115625 -0.38148193863014784 54 62 63 0.1691301605827509 27 987 28 1203
480 0.8326629621775078 0.10662320489716826 -0.38794944747517335 190 193 195 0.23247661680133738 27 257 29 458 30 651
481 0.8303327428243092 0.08231552579340295 -0.3874618958578122 188 188 188 0.047404582330106214 27 314 29 540
482 0.8548119086529821 -0.03745041706937434 -0.3880745968679951 21 27 25 0.18164597102331273 27 1022 29 1052
483 1.0018359437443278 0.04966527261786726 -0.37984513574694156 66 70 71 0.2031922234554219 27 728 30 1045
484 0.9343668021955668 0.012830389956161987 -0.3822631003903529 178 184 183 0.04438351312798575 27 861 30 1292
485 0.9853089726411922 0.0019600925733023605 -0.3801090035450088 73 78 83 0.1874902714718227 27 959 30 1347
486 0.8295131836424753 0.09538778926787611 -0.38559474740780364 189 192 193 0.2991896429001671 28 407 29 490
487 0.8342586277481203 0.07312557583600983 -0.3870843529825905 186 188 187 0.2629679528863392 28 605 29 591
488 0.8847781750662556 0.019940143517106643 -0.3852419327170788 23 28 25 0.13714560011306834 28 1031 29 822
489 0.8328470346140389 0.09754582133743323 -0.3855042038725824 190 189 190 0.17449037299670989 28 392 30 697
490 0.8304132279854957 0.09532978600356284 -0.3860338344742521 184 186 187 0.13883354600662312 28 409 30 720
491 0.8788948656234118 0.0879856318739833 -0.38534509744802725 31 34 33 0.32312917802622965 28 488 30 771
492 0.9725469389821018 0.05133088065334525 -0.3818683551977914 192 200 199 0.18892900650783137 28 779 30 1037 31 1196
493 0.9100261251935772 -0.011540379392425174 -0.3831102199824372 168 174 172 0.10015602277206219 28 1240 30 1479 31 1732
494 0.8353576037556389 -0.03417987926393962 -0.38590463242588485 161 167 165 0.7036964705378398 28 1364 30 1657
495 0.9472684722904092 -0.04265153031567927 -0.3813713681856534 30 33 36 0.10667172581514893 28 1369 30 1643
496 0.9361699212056244 -0.05901192934550792 -0.38134973866746713 27 32 34 0.236139501863723 28 1450 30 1716
497 0.8847941004733255 -0.07391519456882441 -0.3831576479443001 169 170 166 0.21455149381368854 28 1514 30 1787 31 2122
498 0.9861064471847092 -0.15240321242622892 -0.38189223438298636 14 18 15 0.2870789601021771 28 1571 30 1850
499 0.8564632538278913 0.05958513280059661 -0.383931166756105 31 34 33 0.2340450701904532 28 710 31 1314
500 0.832015420226419 0.005510768870489519 -0.3848122966722532 176 182 183 0.02561782311219601 28 1155 31 1755
501 0.9099684737313064 -0.037243503868793784 -0.3826272852003578 182 188 188 0.011075337709734425 28 1351 31 1935
502 0.8846520933665727 -0.0059990522874143574 -0.38242763728824386 35 38 37 0.23669355993783991 29 920 30 1452 31 1740
503 0.9408051474558745 -0.03670148439497302 -0.3813389575852197 27 30 29 0.040848781022098365 29 1023 30 1611
504 0.9151970421299497 -0.03662700873610665 -0.3796601934318752 28 31 30 0.14560530653061962 29 1032 30 1628
505 0.8789382935731167 -0.037212886963306685 -0.3835964211477329 25 28 26 0.2257690734815567 29 1046 30 1649 31 2000
506 0.9290005418199874 -0.0546450541607341 -0.3828706717201924 166 169 169 0.024407520663725264 29 1095 30 1700
507 0.9165191432173896 -0.09698459595509128 -0.3779556440407624 22 28 28 0.08656051085354477 29 1213 30 1825
508 0.9413420282507001 -0.04254629643210055 -0.3817207250544248 185 188 189 0.021731484962754233 29 1051 31 1907
509 1.099825805708455 0.1021663090847586 -0.38201108661716277 99 93 96 0.04429982455816859 30 707 31 698
510 1.0830471185867798 0.10150048402749637 -0.38228146684471487 91 90 92 0.04986525496966956 30 714 31 715
511 1.0948538325533288 0.09697313089649544 -0.3811166820670189 108 107 107 0.062276598973743234 30 729 31 737
512 1.091860516596749 0.09408609246334383 -0.38183476512258807 107 106 106 0.05189091655623556 30 752 31 759
513 1.0820261662951793 0.09298094107504233 -0.3790759317977723 158 161 162 0.15105658975615663 30 756 31 766
514 1.0854650530777437 0.08979120594232061 -0.38046488166692033 169 174 174 0.07622370806708297 30 773 31 790
515 1.0965929597366777 0.08925763820739904 -0.37959177083527856 163 166 165 0.09362946328901539 30 786 31 779
516 1.0899423456991546 0.0880576601765551 -0.3810330199751209 169 169 169 0.12255391786734451 30 795 31 801
517 1.094396995103301 0.08786505539262539 -0.3804617144526681 91 91 93 0.028980388248201358 30 796 31 796
518 1.0811397087177734 0.08758347772476677 -0.3823720511911774 160 165 166 0.16883941335390987 30 800 31 815
519 1.0898997158685517 0.08506711977687315 -0.38092179981334323 166 169 169 0.030579827470709843 30 809 31 819
520 1.0769969592518407 0.08218511420435794 -0.3768933623066786 149 155 155 0.19655158763479816 30 823 31 835
521 0.8848980385581583 0.08204563311583943 -0.3853974280366486 29 32 35 0.03904257804717055 30 828 31 1092
522 1.0961460296157666 0.08071998343863826 -0.3809146688863164 107 106 107 0.049725675903991566 30 841 31 842
523 1.0961460296157666 0.08071998343863826 -0.3809146688863164 107 106 107 0.049725675903991566 30 842 31 843
524 1.0962901114792598 0.08051502076105801 -0.3838415229686463 172 177 177 0.12925747246578564 30 846 31 856
525 1.0787126395223525 0.07983669132817686 -0.38209701265040436 98 99 95 0.10663548293197288 30 847 31 875
526 1.089774103028308 0.07586410385517706 -0.37818379553059495 107 107 111 0.13096498618741367 30 863 31 879
527 1.0932819069477278 0.07599428975415193 -0.3796688485434882 165 170 170 0.09135929819800943 30 865 31 880
528 1.0801039289580974 0.07500221946443314 -0.3810730709794477 157 165 164 0.023268482891460218 30 877 31 898
529 1.0866149076267606 0.07265906361102335 -0.38209659477220054 109 109 112 0.07635132557198389 30 890 31 907
530 1.0923998111170639 0.07043154359546946 -0.3809022144883261 112 112 116 0.1120786270962608 30 912 31 911
531 1.086712002476822 0.07038267263375475 -0.3804991782024582 170 175 177 0.036625745480044 30 913 31 921
532 1.0901365520344404 0.07063606068274186 -0.3824829938928514 166 169 170 0.10561100726946274 30 914 31 922
533 1.1004157624871784 0.06843931638115658 -0.3818447036019306 164 166 164 0.18441853002602773 30 930 31 923
534 1.0941753699287768 0.06788390514985632 -0.38287676468163073 128 129 131 0.15340163099248466 30 935 31 932
535 1.0929470499104665 0.06377965506767833 -0.37821843489354356 158 163 162 0.06366428577830929 30 961 31 944
536 1.0975836384130304 0.06411145682694402 -0.3813525822466628 111 114 114 0.04752424696592754 30 962 31 948
537 1.082450351731483 0.06312817228302887 -0.38286647118585515 149 153 152 0.1479480810539997 30 971 31 982
538 1.0940201380337908 0.06281411443356455 -0.3820987252390241 109 109 112 0.06030598441972886 30 972 31 964
539 1.0940201380337908 0.06281411443356455 -0.3820987252390241 109 109 112 0.06030598441972886 30 973 31 965
540 1.0900130305626559 0.06229354150597765 -0.3817150701719227 153 159 159 0.2055133177712102 30 978 31 971
541 1.098460199621305 0.059252466886633784 -0.3814159025020678 109 108 110 0.018197210008903186 30 993 31 985
542 1.098460199621305 0.059252466886633784 -0.3814159025020678 109 108 110 0.018197210008903186 30 994 31 986
543 1.0930092190954832 0.05743121659016599 -0.3797595911667693 135 138 139 0.01052662529690541 30 998 31 1002
544 1.087389304784999 0.05579461584738128 -0.3813394006880203 111 112 112 0.08531189651290084 30 1007 31 1023
545 1.099656723456068 0.054882613711633416 -0.3801469542726877 163 166 160 0.016217858461762102 30 1010 31 1013
546 1.093037425497521 0.05369337142959672 -0.3821588384064477 163 167 167 0.13241860530676036 30 1018 31 1029
547 0.8842999661419286 0.055995787482157944 -0.3817991064181616 25 31 31 0.1251816679293852 30 1024 31 1297
548 1.0965672790347494 0.05176236829023785 -0.38088978727286293 165 165 167 0.018310995872750847 30 1028 31 1032
549 1.0941038340221132 0.04979061813090629 -0.3805432272918597 96 95 100 0.024342111722311016 30 1034 31 1048
550 1.0888405939541619 0.04980737767886948 -0.3811067532650369 157 163 161 0.11575114468888612 30 1035 31 1056
551 1.0836354244909414 0.04874765375259989 -0.38113923241650544 98 97 99 0.03088680144950748 30 1040 31 1066
552 1.0925065084764898 0.04826276678894041 -0.38015654190963855 159 159 162 0.1503585438787548 30 1041 31 1058
553 0.9408413249067137 0.050605271520080645 -0.381949431586082 29 32 31 0.1923143567989506 30 1046 31 1241
554 0.9408413249067137 0.050605271520080645 -0.381949431586082 29 32 31 0.1923143567989506 30 1047 31 1242
555 1.0821356406260194 0.04705516439132432 -0.3819819428325751 147 153 153 0.07537155220952829 30 1055 31 1090
556 1.0007684345659302 0.048180486877278605 -0.3795046520750481 38 49 49 0.2535467153474729 30 1056 31 1173
557 1.0758019945078177 0.04585800556008425 -0.38325041467026727 148 156 155 0.08878980691883893 30 1060 31 1112
558 1.0833257245565338 0.04460241840199433 -0.3806418597508474 87 87 91 0.008234267136812704 30 1061 31 1105
559 1.0888842685846931 0.04432388903926272 -0.3829510755491321 100 104 107 0.15622351261297998 30 1066 31 1108
560 1.0838431518204805 0.043102477023960806 -0.3787539334802451 156 162 162 0.1023303091902379 30 1072 31 1110
561 1.0899935838475134 0.041529919766427156 -0.38215706141270517 152 160 159 0.007432201560391846 30 1083 31 1122
562 1.0937200713630042 0.03973375813719942 -0.38149964039764356 156 162 162 0.1345877225076701 30 1094 31 1126
563 1.0872077143204566 0.03888894917874913 -0.3828376692733301 163 170 168 0.1258835271735911 30 1103 31 1136
564 1.093044653257844 0.0337001750721606 -0.38017455484497503 163 166 169 0.07166544939396031 30 1119 31 1160
565 1.0951510493995513 0.03354682328276449 -0.38071295684732476 101 102 106 0.008282316178317938 30 1121 31 1158
566 1.0951510493995513 0.03354682328276449 -0.38071295684732476 101 102 106 0.008282316178317938 30 1122 31 1159
567 1.083027754118026 0.030612014991816847 -0.3790202086961207 99 99 101 0.053873289531258924 30 1137 31 1193
568 1.085951606056266 0.028326401677107097 -0.38063051047087654 166 169 167 0.00941825724268799 30 1154 31 1214
569 1.085951606056266 0.028326401677107097 -0.38063051047087654 166 169 167 0.00941825724268799 30 1155 31 1215
570 1.0855378680343672 0.02143148073955891 -0.37988668026597167 148 154 154 0.1689616981534502 30 1187 31 1251
571 1.079093852137393 0.02010814347447517 -0.38521311697648164 146 152 152 0.12391259496391221 30 1198 31 1284
572 1.0760625390062968 0.01860139962370546 -0.38218196297484447 147 153 153 0.023392351345210196 30 1213 31 1298
573 1.0957900322270206 0.013849937887603183 -0.38167287007258527 153 153 154 0.033433782318566245 30 1240 31 1301
574 1.0811298826634663 0.014360307370644105 -0.38264489269174085 84 87 88 0.0487194730739464 30 1241 31 1320
575 1.0811298826634663 0.014360307370644105 -0.38264489269174085 84 87 88 0.0487194730739464 30 1242 31 1321
576 1.0895950226144198 0.012894962994438836 -0.3808210215897554 102 101 104 0.036936999081548794 30 1248 31 1312
577 1.0909666961436846 0.009155516265439563 -0.3798960144156987 162 165 165 0.1457110516212103 30 1264 31 1335
578 1.0853640859972375 0.00861862716000576 -0.38170211109704405 102 101 103 0.020796114047791445 30 1271 31 1350
579 1.0844211875955694 0.007655524182158221 -0.38386847540200986 149 152 153 0.0024145566269617863 30 1279 31 1358
580 1.0921778639166912 0.006967032468250939 -0.3839495888533705 92 90 92 0.10794553871617558 30 1283 31 1355
581 1.092953089404171 0.004080512635147477 -0.38168300876717937 161 165 164 0.05590922725221391 30 1294 31 1365
582 1.0830224373549588 0.00390234347655764 -0.38187499685901866 146 152 150 0.04347624113464735 30 1296 31 1384
583 1.0830224373549588 0.00390234347655764 -0.38187499685901866 146 152 150 0.04347624113464735 30 1297 31 1385
584 1.0838680213436556 0.0030134799276687408 -0.3797402293448638 89 85 88 0.1688963416051785 30 1302 31 1386
585 1.087009189775863 0.0018235318263208106 -0.3817773613425663 160 162 161 0.10739739270798936 30 1307 31 1392
586 1.0845394830797628 0.001099854501413213 -0.38057453610952924 93 89 92 0.14684558080579457 30 1313 31 1400
587 1.0845394830797628 0.001099854501413213 -0.38057453610952924 93 89 92 0.14684558080579457 30 1314 31 1401
588 1.0917026473184213 -0.0009964153448733693 -0.3824926822410878 107 106 109 0.004718882989341401 30 1333 31 1405
589 0.9887860709247331 0.0011472869888663737 -0.38027792285932055 171 177 177 0.12502355315455316 30 1358 31 1506
590 0.9716829615248158 -0.005330608649980654 -0.3800941942334482 30 36 34 0.2884975608224928 30 1412 31 1569
591 0.9162224607827727 -0.011633853126618078 -0.3831049042165114 32 35 37 0.08083220350624698 30 1472 31 1715
592 0.830534426504141 -0.009082110117593578 -0.3858945575275829 193 193 195 0.03960884582930503 30 1503 31 1885
593 0.9538044422991269 -0.030003437796156853 -0.38121287887620076 163 171 170 0.07774211654895967 30 1566 31 1780
594 0.959641865528254 -0.055633691916690604 -0.38208611261046255 24 30 28 0.040209673046782246 30 1692 31 1967
595 0.9360900768717229 -0.06186065758453272 -0.3814707207974683 29 32 31 0.01916728834313558 30 1725 31 2033
596 0.9210213912721323 -0.06340356488501177 -0.3824292772821549 32 31 33 0.10688048353875727 30 1737 31 2055
597 0.9210213912721323 -0.06340356488501177 -0.3824292772821549 32 31 33 0.10688048353875727 30 1739 31 2057
598 1.0022794727650508 -0.07424347010344443 -0.37923900401408767 34 37 38 0.1987929531687007 30 1741 31 2004
599 0.9798386579745724 -0.09893041005625722 -0.3816176762961938 34 40 40 0.1271137261193216 30 1816 31 2111
600 0.9170930137307044 -0.09945543580490272 -0.3837302391135084 29 32 31 0.24932238387492575 30 1826 31 2143
601 0.9996672240263019 -0.15761469623601987 -0.38142930986740786 19 19 19 0.030778131413325017 30 1855 31 2183
602 0.9928078220722277 -0.16136473517486893 -0.3815952811199573 15 19 14 0.16575004281124184 30 1865 31 2202
