# 3D point list with one line of data per point:
#   POINT3D_ID, X, Y, Z, R, G, B, ERROR, TRACK[] as (IMAGE_ID, POINT2D_IDX)
# Number of points: 437
27 1.0930714273502014 0.03854293401081375 -0.39259154751620806 98 100 99 0.04947653218951571 1 1051 2 1222
28 0.8848660986996104 0.020305135112823502 -0.3908490348694365 182 188 188 0.11621743565762224 1 1101 2 1322 12 516
29 1.1083704448841794 0.0233230801574732 -0.3941183149941094 94 95 86 0.09001701528115089 1 1155 2 1323
30 1.077721725427648 0.020573134320273002 -0.3954527118539762 188 192 187 0.04766675775203361 1 1165 2 1340
31 1.0843703082870781 0.018981332087744385 -0.3915077077535728 107 107 108 0.09195850383006456 1 1167 2 1346
32 1.094128872216001 0.018436901399447266 -0.3929590747032166 100 99 101 0.03768033288731877 1 1174 2 1356
33 0.9367727146816818 0.01107555644542311 -0.3889436864369497 182 188 188 0.2371010034983028 1 1176 2 1385
34 0.9367727146816818 0.01107555644542311 -0.3889436864369497 182 188 188 0.2371010034983028 1 1177 2 1386
35 0.9367727146816818 0.01107555644542311 -0.3889436864369497 182 188 188 0.2371010034983028 1 1178 2 1387
36 1.1016848466685063 0.01819976431192708 -0.39628322036541885 125 131 129 0.09371168288998376 1 1180 2 1358
37 1.099723621416851 0.01598708997878528 -0.39750952582552534 104 103 107 0.12839410947317714 1 1196 2 1366
38 0.8747946416251955 0.006419601348759868 -0.38984216504374036 179 186 187 0.04691777039532189 1 1202 2 1426
39 0.8385112446870944 -0.003877088072597 -0.38859700533602937 128 128 130 0.07737640290561516 1 1268 2 1506
40 0.8385112446870944 -0.003877088072597 -0.38859700533602937 128 128 130 0.07737640290561516 1 1269 2 1507
41 0.839273248268289 -0.007428705453854493 -0.3897766767081201 113 113 115 0.18486685128643843 1 1295 2 1530 5 2124 17 870 16 896 18 650
42 0.8393026247621035 -0.007384293858869891 -0.38973791941029884 131 131 133 0.12980656316406988 1 1296 2 1531 5 2125
43 0.9595582158680156 -0.014986878035823171 -0.39042845034158413 113 124 126 0.18583568459906874 1 1359 2 1558
44 0.8387775377594201 -0.029732137881143515 -0.3893318690011537 176 179 180 0.21155890900561108 1 1476 2 1692 17 1028 18 788
45 0.966737037728129 -0.032269281590419994 -0.394143889707442 48 55 57 0.6019945325796587 1 1486 2 1666 26 1251
46 0.8387076327457531 -0.03204563461200111 -0.3903862253764831 131 131 135 0.2058923629675444 1 1494 2 1718 5 2292
47 0.8729119732036467 -0.06310150798239494 -0.3892507167745434 23 26 27 0.06795390460987945 1 1721 2 1881
48 0.8729119732036467 -0.06310150798239494 -0.3892507167745434 23 26 27 0.06795390460987945 1 1722 2 1880
49 0.8995850648908111 0.10666748535595223 -0.3881198415374688 191 197 197 0.09396940570310398 1 454 4 1268
50 0.9064646983411723 0.10618249688696613 -0.38812858261787164 191 197 199 0.0994886918416069 1 470 4 1275
51 0.9064646983411723 0.10618249688696613 -0.38812858261787164 191 197 199 0.0994886918416069 1 471 4 1276
52 0.9018779431584967 0.10071174466388173 -0.38823337432799915 36 38 39 0.08669775675513935 1 493 4 1316
53 0.9018779431584967 0.10071174466388173 -0.38823337432799915 36 38 39 0.08669775675513935 1 494 4 1317
54 0.9104952315392134 0.09189169745629192 -0.38812954059409427 38 38 40 0.1078951979628675 1 561 4 1366
55 1.0808861026157304 0.11173351310047894 -0.39420363552980703 161 164 163 0.23649831322412254 1 585 4 1340
56 0.8629926402823863 0.07677008577956701 -0.3904127362129787 35 38 39 0.03863164256910492 1 615 4 1469
57 0.9205328620244678 0.08292005466197472 -0.388975818478984 187 195 194 0.1669878051384166 1 625 4 1442
58 0.9419903459846286 0.07960507340428057 -0.3882746991758836 47 46 42 0.24537359243890156 1 663 4 1480
59 0.9340391964600341 0.07867015042183641 -0.3864069825566779 39 42 44 0.7227044579246527 1 664 4 1486 31 1050 28 587
60 0.8346390579768389 0.06617980113002571 -0.3875287217972228 192 195 197 0.055227353298777725 1 666 4 1564
61 0.9387707408936788 0.07650570473294335 -0.38807666331450563 187 196 197 0.10770226574430734 1 678 4 1517
62 0.8766973132128032 0.06721057052769513 -0.38811981066336737 184 190 192 0.0877541514738914 1 693 4 1579
63 1.0968889496093734 0.09411743975719974 -0.39729607268416883 148 148 148 0.38044462664048256 1 701 4 1453
64 1.0923047463463078 0.08793257955997665 -0.391597361760481 145 151 145 0.22507619002840737 1 727 4 1492
65 0.9298020103921817 0.0678126786540726 -0.38812198980901236 186 192 192 0.5273018439838165 1 740 4 1605 27 535
66 0.9451183336921323 0.05737847546134878 -0.3871052475574221 189 197 196 0.13172852669634058 1 846 4 1684
67 1.0980241686523489 0.06920766449444098 -0.3929537507818691 121 122 118 0.1685940036033422 1 867 4 1642
68 0.9149265910274792 0.051602805634199896 -0.3889576671719593 183 189 191 0.16335974496700484 1 872 4 1716
69 0.8947872789208502 0.046335356766552045 -0.3894545337763596 28 34 36 0.0349931948544752 1 895 4 1759
70 0.9003220278733679 0.04444489569154319 -0.388171706074355 180 189 189 0.035807420871744336 1 912 4 1768
71 0.9003220278733679 0.04444489569154319 -0.388171706074355 180 189 189 0.035807420871744336 1 913 4 1769
72 0.9003220278733679 0.04444489569154319 -0.388171706074355 180 189 189 0.035807420871744336 1 914 4 1770
73 0.9583521635456018 0.04447382558962145 -0.3855411767011151 192 198 196 0.6916288984592143 1 946 4 1774 31 1284
74 1.106820294105394 0.0565095644155383 -0.3940724627891689 121 125 120 0.17593559068634318 1 952 4 1715
75 0.9338755222725126 0.03857277708625209 -0.38955457401621624 27 33 31 0.010312452103991473 1 979 4 1816
76 0.9074262757791777 0.03290084849776122 -0.38865655251784376 178 186 187 0.08366096329794384 1 1007 4 1855
77 1.0084115336773096 0.029310146956046786 -0.39045908130108803 60 73 72 0.34073412826141725 1 1082 4 1877
78 1.1055454861195875 0.031598484645920105 -0.3944200745850474 130 133 131 0.18838827763272958 1 1103 4 1863
79 0.8782974441526378 0.013688220430675548 -0.3888675992940181 23 28 28 0.073633197912904 1 1146 4 2019
80 1.0039009408915445 0.016572331384603834 -0.38844616570137946 61 69 70 0.16496909741967905 1 1164 4 1982
81 0.8735156169967082 0.009552802063609069 -0.38819648380702226 176 183 185 0.032544994339617835 1 1168 4 2056
82 0.8735156169967082 0.009552802063609069 -0.38819648380702226 176 183 185 0.032544994339617835 1 1169 4 2054
83 0.8735156169967082 0.009552802063609069 -0.38819648380702226 176 183 185 0.032544994339617835 1 1170 4 2055
84 0.9976714393453537 0.01426560921384111 -0.3890718811471982 189 197 194 0.29861934890646674 1 1173 4 1994
85 0.9852466015127611 0.010920229843966555 -0.38474804473967317 52 62 60 1.0784134976822626 1 1198 4 2016 31 1480
86 0.9934924445869384 0.010461515380306123 -0.38823601273371 63 68 71 0.1511876280115588 1 1203 4 2021
87 0.9906868290836707 0.0071377810583559305 -0.3889349976073571 185 196 194 0.1375171825276496 1 1224 4 2049
88 0.9945881255170204 0.006809424684816936 -0.3886514815577505 76 79 77 0.14228263549796957 1 1225 4 2051
89 0.8664290817899728 0.0017269255706006458 -0.38840748459949753 40 29 30 0.08688083584707942 1 1231 4 2128
90 0.8664290817899728 0.0017269255706006458 -0.38840748459949753 40 29 30 0.08688083584707942 1 1232 4 2129
91 0.9971622003857347 0.003619531018742787 -0.38858000824318023 190 198 197 0.12626149447780535 1 1245 4 2070
92 0.838333975222954 -0.007443542217100879 -0.38840960972747873 151 149 156 0.14488224950191983 1 1294 4 2213
93 0.8369724272401142 -0.0075303785347685115 -0.3885687206710082 181 181 185 0.02109396555402027 1 1297 4 2214
94 0.8369724272401142 -0.0075303785347685115 -0.3885687206710082 181 181 185 0.02109396555402027 1 1298 4 2215
95 0.9157632206549852 -0.010594109760224905 -0.3890778569908207 174 180 180 0.00968431083543696 1 1325 4 2201
96 0.9109538269954235 -0.015754035668268513 -0.3894038192637273 30 30 30 0.009500725830126473 1 1362 4 2241
97 0.8956357443333215 -0.01595607564198448 -0.3890343691586885 29 29 31 0.125865395734976 1 1365 4 2252
98 0.8380127739669095 -0.016919096328487166 -0.3882961120871932 179 179 183 0.17801670801325306 1 1367 4 2280
99 0.9679877902590996 -0.016598913084556317 -0.38953155439054304 187 198 198 0.16771594946228432 1 1373 4 2225
100 0.9710936881443611 -0.017706623403600776 -0.38913110670779566 56 62 64 0.14417521531533428 1 1381 4 2229
101 0.9710936881443611 -0.017706623403600776 -0.38913110670779566 56 62 64 0.14417521531533428 1 1382 4 2230
102 0.9043997842377346 -0.018324719710713575 -0.3887326001659668 178 184 184 0.1150869073018154 1 1386 4 2262
103 0.8978856291924869 -0.018646999772084207 -0.3886990432370999 45 38 39 0.058041935040674356 1 1389 4 2267
104 0.8978856291924869 -0.018646999772084207 -0.3886990432370999 45 38 39 0.058041935040674356 1 1390 4 2268
105 0.9623787192976565 -0.01895406576159895 -0.38957469122979366 193 199 199 0.18608740043526395 1 1393 4 2240
106 0.9678421376176242 -0.020596596648020833 -0.38923255514303534 55 46 53 0.06985994624994753 1 1401 4 2250
107 0.9678421376176242 -0.020596596648020833 -0.38923255514303534 55 46 53 0.06985994624994753 1 1402 4 2251
108 0.8970494523006287 -0.021552649631627625 -0.38850790839245697 177 183 181 0.06803866092705518 1 1407 4 2287
109 0.9647182890667728 -0.02174915205006303 -0.38940432785937124 188 195 195 0.028966383616062547 1 1411 4 2257
110 0.9647182890667728 -0.02174915205006303 -0.38940432785937124 188 195 195 0.028966383616062547 1 1412 4 2258
111 0.9049175691250303 -0.024867506537876068 -0.3880407569017342 178 184 182 0.08801107312301334 1 1435 4 2307
112 0.9049175691250303 -0.024867506537876068 -0.3880407569017342 178 184 182 0.08801107312301334 1 1436 4 2308
113 0.960120242288074 -0.028680293841648875 -0.3892328631714953 188 195 194 0.044533038913274495 1 1460 4 2306
114 0.8970797819324491 -0.030069199602248613 -0.38851424469526036 177 180 179 0.09305131461053422 1 1473 4 2348
115 0.8970797819324491 -0.030069199602248613 -0.38851424469526036 177 180 179 0.09305131461053422 1 1474 4 2349
116 0.9783081413553905 -0.03553627205869206 -0.38863733910759535 190 196 196 0.06133571018927412 1 1509 4 2342
117 0.9783081413553905 -0.03553627205869206 -0.38863733910759535 190 196 196 0.06133571018927412 1 1510 4 2343
118 0.9415086623059894 -0.053059953744188225 -0.3887959773680338 172 178 178 0.23265475605075664 1 1621 4 2455
119 0.9415086623059894 -0.053059953744188225 -0.3887959773680338 172 178 178 0.23265475605075664 1 1622 4 2456
120 1.0002750441354211 -0.05664710112777554 -0.3885695912149585 195 198 197 0.12386902402111459 1 1632 4 2447
121 0.8784732379487689 -0.05305784349236557 -0.38890600261631264 173 176 175 0.044368098397992786 1 1636 4 2490
122 0.866591890255791 -0.05327349726206097 -0.38900583706509323 174 173 173 0.01673711298724175 1 1642 4 2502
123 0.9327353884368579 -0.05609622464554571 -0.38815579575455456 49 40 47 0.05924578694919536 1 1643 4 2476
124 0.9327353884368579 -0.05609622464554571 -0.38815579575455456 49 40 47 0.05924578694919536 1 1646 4 2479
125 0.9351683150575804 -0.0561852275734667 -0.387816916846329 172 172 172 0.11750991760893949 1 1647 4 2475
126 0.9284876716533174 -0.05646538387793994 -0.3881287880745508 163 169 167 0.10958083957038804 1 1653 4 2484
127 0.9294585768694837 -0.05936786754906218 -0.3883290079200109 45 39 43 0.09151496645473516 1 1673 4 2491
128 0.9357010515191191 -0.05966088988654637 -0.387920916594986 175 177 176 0.020633835436462904 1 1675 4 2488
129 0.9405585044342224 -0.06036490793953429 -0.3843759713034973 29 32 33 0.08285387517817931 1 1678 4 2495
130 0.8642969076034397 -0.057315121875580556 -0.3910341309794656 28 30 34 0.026299959977681524 1 1680 4 2513
131 0.885506406126139 -0.0677247274514382 -0.3886084063819451 180 180 182 0.0763575076392185 1 1743 4 2546
132 0.9571527480384596 -0.07551593808012864 -0.38841289343498925 40 45 52 0.015541106193003066 1 1771 4 2537
133 0.8914405154806208 -0.07314261580695224 -0.38924336655257924 178 181 182 0.0835115604073998 1 1782 4 2567
134 0.9121246282972288 -0.07768987984684396 -0.38960202195363436 29 30 31 0.09424110347909728 1 1798 4 2575
135 0.9121246282972288 -0.07768987984684396 -0.38960202195363436 29 30 31 0.09424110347909728 1 1799 4 2576
136 0.9643016325325222 -0.08272219758159122 -0.3883976905943626 59 53 56 0.028834196366920375 1 1809 4 2561
137 0.9643016325325222 -0.08272219758159122 -0.3883976905943626 59 53 56 0.028834196366920375 1 1810 4 2562
138 0.8986073462228029 -0.08031946035358242 -0.3896485455787909 178 181 182 0.09667581552541456 1 1821 4 2590
139 0.9715451496982339 -0.08717223630377255 -0.38810945406060376 54 50 52 0.15345047616152457 1 1833 4 2578
140 0.968750915837475 -0.09024034818517998 -0.389270605352518 52 46 63 0.05253377840499467 1 1841 4 2587
141 0.9726022558797396 -0.09074424112898043 -0.3889738072516863 192 196 192 0.010844122944964906 1 1842 4 2586
142 0.9084591712246098 -0.08787749846044991 -0.389630862101997 180 185 181 0.053292583934589834 1 1845 4 2602
143 0.9616280848346795 -0.09272214671296386 -0.3886198882362724 33 40 44 0.2536488417647925 1 1847 4 2599
144 0.9756234399808376 -0.09400579309645199 -0.38874918678901277 46 45 49 0.005162356567945718 1 1848 4 2594
145 0.8918536402680153 0.09132894619837546 -0.3867380175010165 37 40 43 0.562835937108742 1 540 5 1333 31 1012
146 1.0890876158198124 0.11516674493298215 -0.3946312906373702 98 103 103 0.004811923502926526 1 574 5 1292
147 1.0807901553902461 0.10871837261060999 -0.3941419785489625 162 168 168 0.12068130707895666 1 600 5 1325
148 1.0863929166007038 0.1096030886197201 -0.394823130599671 150 160 157 0.003541223060125514 1 601 5 1323
149 1.0782055396566126 0.0992492598511467 -0.3936143787866598 122 125 124 0.08493048778545774 1 653 5 1367
150 1.0850355566717111 0.0996005435601321 -0.39297938589241094 160 167 164 0.10109287434566565 1 657 5 1366
151 1.1055429710043219 0.10139934410107201 -0.39460890905090457 87 90 92 0.07901172530275619 1 659 5 1364
152 1.0969164817297536 0.09880645044978904 -0.39689720412539437 147 153 153 0.11205435235052483 1 671 5 1385
153 1.095676299266981 0.09202702747419135 -0.38996757738255633 142 149 148 0.755761112587123 1 704 5 1421 31 786
154 0.9281500748403851 0.0719389041029841 -0.3895587924239779 47 39 33 0.11285918287179032 1 707 5 1505
155 0.9281500748403851 0.0719389041029841 -0.3895587924239779 47 39 33 0.11285918287179032 1 708 5 1506
156 1.0794774529845577 0.08975443197811772 -0.3947318265184662 107 109 112 0.09745243727326701 1 712 5 1435
157 1.1006454606338003 0.08772775272835644 -0.39667956325950066 104 110 108 0.07057011544484104 1 749 5 1459
158 1.1071888938637666 0.08764969037189797 -0.39665874043214955 131 140 138 0.10661441701541965 1 754 5 1466
159 0.9644740250612377 0.0707655870139373 -0.38996895941109877 40 51 49 0.0683713916351264 1 755 5 1536
160 1.087806610708465 0.08442933835693649 -0.39523353854845106 153 162 162 0.015048436582218142 1 760 5 1478
161 1.0855175472455811 0.08259296200244659 -0.3900016964002662 86 89 90 0.9417707057119759 1 766 5 1484 31 867
162 1.075872050252427 0.08013397942445827 -0.3940962448807236 190 194 189 0.0319532778573271 1 780 5 1501
163 1.0978112569526675 0.08220376710525455 -0.3934689390880337 104 109 109 0.11125838680372133 1 781 5 1495
164 0.9903184467238056 0.06966740706357366 -0.3891854111224405 191 197 196 0.030796260039710782 1 784 5 1553
165 0.9903184467238056 0.06966740706357366 -0.3891854111224405 191 197 196 0.030796260039710782 1 785 5 1554
166 1.0873909652750873 0.07957537307099706 -0.39471768995150447 163 171 170 0.11709070327216436 1 795 5 1507
167 0.8369339097263889 0.05290321100483056 -0.3897877536140201 111 112 116 0.05545757376971666 1 801 5 1646
168 1.0834395983490963 0.0791574384947345 -0.3968006031089455 160 171 169 0.10380805870181578 1 803 5 1513
169 1.0794610176985866 0.07787077148091318 -0.3948275863797456 126 132 132 0.06416535821703437 1 806 5 1519
170 0.9911284852613984 0.06645662870521062 -0.38954735442740485 70 67 70 0.017633694190512195 1 817 5 1578
171 0.9911284852613984 0.06645662870521062 -0.38954735442740485 70 67 70 0.017633694190512195 1 818 5 1579
172 0.8370393563180785 0.05070107410907598 -0.38912251219498645 191 191 195 0.0290828635370165 1 826 5 1656
173 1.001766937286838 0.06634495934336782 -0.3901381612391811 191 199 198 0.313847289865802 1 829 5 1585 27 668
174 1.0815642376551393 0.07217745545267758 -0.39044787060748887 98 102 103 0.9987961519679235 1 843 5 1565 31 938
175 1.099363758056084 0.07379948552325487 -0.394486249739787 109 116 116 0.07389964619287488 1 844 5 1561
176 1.0838813599866217 0.07099652584186569 -0.3953184904764807 158 162 161 0.11972972656665036 1 855 5 1573
177 1.0968048573235976 0.06596335812161633 -0.39489421206394926 136 142 140 0.08211142597385866 1 887 5 1606
178 1.1003539574825394 0.0661003750241874 -0.3947836317986615 113 113 117 0.06448946759471778 1 888 5 1605
179 1.0823647153787739 0.06291011407294785 -0.4005965175473672 188 195 189 0.05027341125553605 1 910 5 1627
180 1.1031362903220516 0.06260261435211976 -0.3925432494884208 110 110 110 0.046692857371293243 1 911 5 1628
181 1.086310894990624 0.061084472390438016 -0.3950838113307488 148 154 154 0.004150959469160688 1 915 5 1641
182 1.1059487753674224 0.062275620080024685 -0.3977336216755594 131 135 135 0.04437644273362919 1 922 5 1638
183 1.0811409962994711 0.058014671587306506 -0.3962305379226325 109 109 111 0.06761044171111329 1 934 5 1651
184 1.1018043316392865 0.05733020599938867 -0.390648982340885 106 109 108 0.01193950597170308 1 939 5 1654
185 1.0793771084096202 0.05553464709817601 -0.39431090421980297 110 109 110 0.07131805093027054 1 944 5 1670
186 0.8995861834877584 0.040470443902984626 -0.38694751348168294 39 41 47 0.6035270490831974 1 945 5 1745 31 1410
187 1.1026373274860133 0.053663513276430756 -0.3958394348879372 93 96 100 0.024875997736351255 1 966 5 1686
188 0.969510614453933 0.041761133492011014 -0.38927588462406976 189 197 196 0.01544338991936053 1 972 5 1739
189 1.0954717645044785 0.050322799979196225 -0.40219280862173645 148 151 152 0.1050518732568 1 987 5 1711
190 1.0869159874000718 0.04819658691727338 -0.39640597560369023 145 147 148 0.11086979331413899 1 991 5 1715
191 0.901007050900801 0.033326764121670883 -0.39030080760315405 43 39 40 0.06978270863706572 1 999 5 1801
192 0.8969294849126342 0.032580906149494215 -0.38983812694244 177 185 182 0.020641884253745555 1 1004 5 1804
193 1.0922735689576626 0.046246109927572894 -0.3939128797857627 145 153 148 0.038663646276988275 1 1008 5 1725
194 1.0922735689576626 0.046246109927572894 -0.3939128797857627 145 153 148 0.038663646276988275 1 1009 5 1726
195 1.0809800393125981 0.044094821410438786 -0.39381455926065806 162 172 170 0.09809432094871055 1 1013 5 1736
196 1.0864434784049015 0.042979315951381894 -0.3960081109632831 160 167 161 0.041637448844160145 1 1021 5 1740
197 1.0951624935690165 0.042348000412486854 -0.3949807741368252 102 106 106 0.0683598613447547 1 1033 5 1747
198 1.0992916261241825 0.04149243096435312 -0.395452418662441 139 145 144 0.016024765420419022 1 1039 5 1749
199 1.1052094115450366 0.04070409797557756 -0.3950230959647385 123 129 127 0.06422773269164458 1 1046 5 1754
200 1.0856390274334238 0.038638202045346834 -0.3931814160607552 102 102 102 0.09971830669525596 1 1049 5 1766
201 1.0966802254866106 0.038540776673565716 -0.39553926970678216 104 105 108 0.05247462226305424 1 1054 5 1770
202 1.0870453399363533 0.037411335384229985 -0.3963314197205042 164 166 166 0.012842829130539283 1 1058 5 1778
203 1.0800150889646456 0.03588549854100647 -0.3948003666152639 100 99 101 0.02674788436819198 1 1065 5 1785
204 1.0948391609505912 0.036122295581655986 -0.39587252542150664 141 149 147 0.04292946603517425 1 1072 5 1784
205 1.0875283754711687 0.035500899030530185 -0.3952159972255084 95 97 100 0.02724096674561848 1 1075 5 1786
206 0.9508927270504598 0.026646755345514434 -0.3856252126519833 188 199 199 0.8608038245346125 1 1077 5 1855 31 1427
207 1.0796321485695857 0.03503439103082579 -0.39787713527256396 190 194 189 0.13348506661692286 1 1078 5 1789
208 1.089868902744666 0.03437035564516387 -0.39487713751506626 150 156 154 0.10141778865891075 1 1086 5 1793
209 1.0877836042078972 0.034248414474916826 -0.39964156834830333 164 170 170 0.0010003999584569706 1 1090 5 1796
210 1.0877267824133487 0.029601438378867813 -0.39010176569510085 111 112 112 0.8454379920743743 1 1117 5 1822 31 1223
211 1.099949377444914 0.029638768179274817 -0.3934234530100703 143 149 149 0.011811912002286012 1 1119 5 1823
212 1.1012302612599205 0.029396329313840022 -0.39605907732061985 133 139 139 0.1099817229110033 1 1120 5 1824
213 1.0819638880925129 0.02593425690656698 -0.39673075281594716 120 120 124 0.024112633853370407 1 1127 5 1853
214 1.0826440068670236 0.021317302319966144 -0.394019271104212 157 167 163 0.13114012745029793 1 1159 5 1879
215 0.9267419546303169 0.014152110034181875 -0.3861447624837685 171 182 180 0.8704254261585667 1 1160 5 1934 31 1533
216 0.9267419546303169 0.014152110034181875 -0.3861447624837685 171 182 180 0.8704254261585667 1 1161 5 1935 31 1534
217 1.1054555539464608 0.01799781275097688 -0.39516464048013605 91 91 93 0.12188523413658027 1 1185 5 1895
218 0.8771527344003621 0.008510575479174111 -0.3897306060292291 53 53 56 0.039293981441658764 1 1187 5 1984
219 0.9243859168861909 0.010234950127711126 -0.38644672659824775 34 40 40 1.0628230865456256 1 1190 5 1959 31 1562
220 1.0958492408356657 0.01713669852488323 -0.3959546442798156 134 142 139 0.03654443873407526 1 1191 5 1899
221 0.9655742687893617 0.00844148426593891 -0.39083853855759804 31 37 37 0.09055233835743735 1 1206 5 1961
222 0.9655742687893617 0.00844148426593891 -0.39083853855759804 31 37 37 0.09055233835743735 1 1207 5 1962
223 0.9285897665140445 0.00616981933358624 -0.3903107223348012 169 177 174 0.00978311176479091 1 1219 5 1987
224 0.9368259831326476 0.002762608292365555 -0.3903014179930285 48 40 45 0.015883033037856327 1 1239 5 2015
225 0.9920081128058004 0.0038289162737406308 -0.39032540801426324 63 61 65 0.12424866633934349 1 1242 5 1993
226 0.9328679105133535 0.002083770559970267 -0.39052784037701305 166 177 175 0.020169680805141126 1 1243 5 2022
227 0.8378628876771648 -0.0016903032509786396 -0.38940703058782766 183 184 187 0.03957102180301355 1 1253 5 2088
228 0.9478741565753108 -0.004506453370400901 -0.3909490830346831 184 192 189 0.01861440467291349 1 1285 5 2070
229 0.8384468288565413 -0.007337741063538905 -0.3897149757569443 157 154 153 0.08459227645549329 1 1293 5 2126
230 0.9543663876682719 -0.00977030716383035 -0.3917201831192608 190 196 194 0.01411787255040249 1 1323 5 2104
231 0.8385954432639608 -0.02086530830326921 -0.3898419948144362 177 176 176 0.0052135031259594325 1 1404 5 2217
232 0.8387490861204663 -0.02490825820629819 -0.3899326312925541 176 177 178 0.16894354990517163 1 1437 5 2249
233 0.9060669418739541 -0.026345190692517402 -0.38860199720869887 183 188 187 0.010763455456359379 1 1443 5 2224
234 0.9060669418739541 -0.026345190692517402 -0.38860199720869887 183 188 187 0.010763455456359379 1 1444 5 2225
235 0.9686899847483964 -0.028642025615989348 -0.3905691879066526 189 195 195 0.05010492550586142 1 1455 5 2203
236 0.9686899847483964 -0.028642025615989348 -0.3905691879066526 189 195 195 0.05010492550586142 1 1456 5 2204
237 0.9051263977153045 -0.02882236620666944 -0.38981799075568674 37 36 39 0.008451335449817274 1 1464 5 2238
238 0.8378677153413729 -0.02832065280093967 -0.3905563778918859 178 178 180 0.18357157007698222 1 1466 5 2270
239 0.9574340396007545 -0.03217538832252339 -0.3902695623527919 45 47 53 0.10690996748492283 1 1487 5 2235
240 0.8379656662058101 -0.03247245168894829 -0.3897979038848326 108 108 108 0.32222456737996813 1 1500 5 2297 17 1045 16 1037 18 806
241 0.9965523460920898 -0.05067019502632849 -0.38903939609572613 42 50 51 0.13315435268010314 1 1592 5 2314
242 0.9960723530977872 -0.05120775579217533 -0.3894182489126073 47 54 55 0.07457422311259433 1 1600 5 2317
243 0.9960723530977872 -0.05120775579217533 -0.3894182489126073 47 54 55 0.07457422311259433 1 1601 5 2316
244 0.9394141310137811 -0.05062336480624053 -0.3911120111723189 179 182 181 0.018582184976923547 1 1613 5 2338
245 0.9655338007866766 -0.053788291882601605 -0.38856450829574646 26 32 30 0.15518157945222183 1 1620 5 2340
246 0.9285021026560502 -0.05190315510863891 -0.3869729223299446 186 186 186 1.2329761743528052 1 1625 5 2348 31 2014 28 1449
247 0.8711872212918642 -0.060900429148092496 -0.38987771316836284 28 29 34 0.1724852075332306 1 1700 5 2409
248 0.8671417878282152 -0.06145201602367417 -0.3907535718578859 171 174 175 0.01180776149261424 1 1708 5 2413
249 0.8671417878282152 -0.06145201602367417 -0.3907535718578859 171 174 175 0.01180776149261424 1 1709 5 2414
250 0.863986248867983 -0.06474751800044332 -0.39092268872803215 31 30 32 0.11669342781306619 1 1733 5 2428
251 0.9543756505043293 -0.07218867552492422 -0.3900295028822236 192 196 191 0.12391441048920138 1 1746 5 2415
252 0.9232153234462972 -0.07302668676385225 -0.38943065293053436 24 30 30 0.04021158819629678 1 1767 5 2431
253 0.8956966270565327 -0.07698171521346889 -0.39123989465045406 29 32 35 0.05413839567515726 1 1800 5 2452
254 0.8614395112854144 -0.07499419808996707 -0.39273904910004126 28 31 30 0.006861167851565698 1 1801 5 2459
255 0.8614395112854144 -0.07499419808996707 -0.39273904910004126 28 31 30 0.006861167851565698 1 1802 5 2460
256 0.998048110822157 -0.08596975017698705 -0.38828791762857884 27 33 33 0.0036830983277878113 1 1811 5 2439
257 0.998048110822157 -0.08596975017698705 -0.38828791762857884 27 33 33 0.0036830983277878113 1 1812 5 2440
258 0.9622625381934505 -0.08678132706838686 -0.3902117776942034 192 198 198 0.0060189201067406385 1 1834 5 2456
259 0.9039424234650043 -0.08431292875564934 -0.3916224771882994 28 31 32 0.0049852536453958395 1 1837 5 2474
260 0.9358252454441375 -0.08820224181060483 -0.38978155362095723 21 24 23 0.026243571502881844 1 1844 5 2471
261 0.8992524549318475 -0.0919210980963678 -0.3912909740480561 176 180 181 0.03566307792292295 1 1859 5 2485
262 0.8366999316860018 0.14302876250545055 -0.3943968528393134 165 159 161 0.10978472886489408 1 280 12 60
263 0.8367165282672757 0.1397007534351936 -0.3943567295614935 167 165 168 0.09939374037838875 1 281 12 61
264 0.8367165282672757 0.1397007534351936 -0.3943567295614935 167 165 168 0.09939374037838875 1 282 12 62
265 0.8365935827473431 0.12926523767375647 -0.39360353829518924 148 142 144 0.172868654460783 1 312 12 71
266 0.8365935827473431 0.12926523767375647 -0.39360353829518924 148 142 144 0.172868654460783 1 313 12 72
267 0.8345274239668076 0.12715516731278304 -0.3940206361712228 193 193 193 0.043042777562987876 1 323 12 73
268 0.8368771102142688 0.1250737976141958 -0.39265421931795436 142 136 140 0.1586681899214389 1 333 12 76
269 0.8371211777017532 0.07931891072846159 -0.39094278146033834 152 149 152 0.05974245379544448 1 577 12 165
270 0.8371966478291268 0.07593662517850715 -0.3898450572302728 190 190 192 0.13507207345316505 1 597 12 173
271 0.838897493391283 0.048758406541943924 -0.3903685408543661 188 188 189 0.019810050548155222 1 842 12 343
272 0.8385867125762642 -0.022609412017978527 -0.3894827922753176 149 151 157 0.1343708456390336 1 1423 12 722 2 1632
273 0.8385416971141093 -0.02267525148125798 -0.38901006905821706 149 151 157 0.04798341920131808 1 1424 12 723
274 0.8384578123995993 -0.025054806884493738 -0.3884978524122681 172 178 179 0.2596020547201012 1 1438 17 984
275 0.8385794085761934 -0.03569296244648508 -0.3883840209250182 170 175 173 0.10838677071636464 1 1530 17 1069
276 0.9119492637907656 0.09324862661297381 -0.39195650097039963 35 35 36 0.21371220222805168 1 560 27 379
277 0.9456610194776319 0.08355440435786872 -0.38872775668874443 184 184 184 0.3984140414691293 1 638 27 477
278 0.9314717942504867 0.0689958116995285 -0.3916255516876874 181 184 183 0.4343587274848695 1 741 27 537
279 0.935253557057965 0.06791469765681417 -0.3881877746512982 41 46 51 0.3760207483112889 1 746 27 547
280 0.935253557057965 0.06791469765681417 -0.3881877746512982 41 46 51 0.3760207483112889 1 747 27 548
281 1.0057082577406589 0.06254612425836688 -0.39020927461007127 74 80 82 0.3779753288149238 1 853 27 688
282 0.968675432798789 -0.02367208552503989 -0.3915879918478122 47 54 58 0.6721545793025827 1 1430 27 1067
283 0.8352459308519669 0.13576657005110737 -0.3859383570423837 172 167 170 0.04110499291088625 2 502 4 1002
284 0.8357679729329006 0.1178600737508078 -0.3877134469469741 175 171 174 0.08399506153536436 2 619 4 1137
285 0.8372057743105572 0.10620244271006622 -0.39063032339016096 190 189 191 0.5008964643710643 2 663 4 1221 12 92
286 0.8357272076818656 0.10252260035034966 -0.38569999031374325 199 200 204 0.15291658761295565 2 673 4 1237
287 0.838113688283228 0.09095675921570391 -0.38964181834156875 185 186 186 0.24377530628495991 2 749 4 1339 12 115 26 439
288 0.918979635288137 0.08801265409645272 -0.38441666323645646 33 40 40 0.225328789048285 2 819 4 1392
289 0.8359372036861371 0.07177868323282961 -0.3892499398185001 134 136 139 0.2995259252763301 2 894 4 1507 12 190 26 515
290 0.8365122112033389 0.05238572432049524 -0.386730086190036 137 136 141 0.060492893194448526 2 1060 4 1695
291 0.8601374932363213 0.04910874101714101 -0.39120750795587145 29 35 37 0.08247456732497467 2 1096 4 1733
292 0.8591972972554244 0.026108562541944384 -0.38845553017816614 29 35 34 0.0550029421267437 2 1274 4 1917
293 0.878753088881956 0.0162954657778105 -0.38205482814475306 27 27 30 0.3353150971969333 2 1354 4 1998
294 0.878753088881956 0.0162954657778105 -0.38205482814475306 27 27 30 0.3353150971969333 2 1355 4 1999
295 0.8387581487281647 0.015152199138801115 -0.3870813220780366 128 127 130 0.17100298167510747 2 1359 4 2015
296 0.8594089843981462 -0.01209915212958187 -0.38750759298909554 30 30 30 0.22992204990501916 2 1557 4 2239
297 0.884691039982579 -0.03638542323009334 -0.38866164620249144 27 27 27 0.13078477180913167 2 1736 4 2388
298 0.884691039982579 -0.03638542323009334 -0.38866164620249144 27 27 27 0.13078477180913167 2 1737 4 2389
299 0.8374345560013363 0.09971520197265553 -0.3896577199392587 147 143 144 0.1452134029590218 2 693 5 1250
300 0.8360606170191947 0.07205890403966407 -0.3899379484777074 137 137 138 0.08318619756663556 2 895 5 1472 12 191 26 516
301 0.8722756105657186 0.07125985086432089 -0.38669917234085693 193 199 201 0.25812050961318445 2 919 5 1487 31 1201
302 0.8838059490587907 0.056947126320281614 -0.38916162561580675 184 191 191 0.08577695484473603 2 1046 5 1616
303 0.8838059490587907 0.056947126320281614 -0.38916162561580675 184 191 191 0.08577695484473603 2 1047 5 1617
304 0.8379360221607666 0.04180436654061572 -0.39192602371956764 138 141 144 0.0697927244535422 2 1151 5 1734
305 0.8379360221607666 0.04180436654061572 -0.39192602371956764 138 141 144 0.0697927244535422 2 1152 5 1735
306 0.8387038181224576 0.02893480724243633 -0.3895483340815238 113 112 119 0.09271842442801469 2 1246 5 1838
307 0.8371512260774704 0.028667990290010357 -0.3892763327204301 118 118 125 0.1111274006039728 2 1249 5 1842
308 0.8377867356541945 0.020903299647217873 -0.38810539642040304 169 170 172 0.027196038896486266 2 1309 5 1904
309 0.8717406470399367 0.014882300720280994 -0.3900217131053621 28 31 32 0.1342991396333744 2 1363 5 1939
310 0.8789822869381705 0.014010589730863573 -0.3916265937293664 25 28 29 0.22824123576808525 2 1373 5 1942 12 538
311 0.8386682763826532 0.009002952459419778 -0.38943220407279544 121 120 122 0.01625996261133885 2 1407 5 1991
312 0.8700799206311928 0.008943387563754545 -0.3906613683364039 44 44 46 0.01902770725183652 2 1410 5 1981
313 0.838298143325826 0.008172513510908124 -0.39172840492073846 110 116 117 0.37675323247207954 2 1417 5 1999 26 891
314 0.838298143325826 0.008172513510908124 -0.39172840492073846 110 116 117 0.37675323247207954 2 1418 5 2000 26 892
315 0.8649242877190604 0.004282451411097354 -0.3886177241745997 176 182 183 0.11196445177149894 2 1439 5 2027
316 0.8909725001944816 -0.010878677634575187 -0.3904071787335133 173 179 179 0.013967337202889965 2 1541 5 2131
317 0.8909725001944816 -0.010878677634575187 -0.3904071787335133 173 179 179 0.013967337202889965 2 1542 5 2132
318 0.8610605038289502 -0.01345520621542044 -0.3909321485669425 25 25 25 0.1603292405098993 2 1561 5 2158
319 0.8948032103383832 -0.015368994224795016 -0.38714548302524326 33 33 33 0.6884551006984995 2 1571 5 2159 31 1813 28 1280
320 0.9050314944738342 -0.018314632252960313 -0.3907752974356946 177 183 183 0.10024273813189948 2 1581 5 2171
321 0.9035013193878166 -0.021608750855221393 -0.3879866018022887 178 182 183 0.09702186597602505 2 1607 5 2189
322 0.8413515890375701 -0.023097041980373274 -0.3908974094112585 177 180 181 0.04405759910475128 2 1635 5 2233
323 0.8994357691657031 -0.02735144121458693 -0.3880756663408609 163 169 167 0.11867871092454874 2 1650 5 2234 26 1173
324 0.9088664938406243 -0.029964119387627778 -0.3877684448580689 27 31 27 0.1021696651958212 2 1671 5 2243
325 0.8408263338701094 -0.027352241711621362 -0.38987047753856247 171 168 169 0.015807439180024023 2 1672 5 2262
326 0.8947553736367021 -0.03287811853159646 -0.389669776188592 35 38 37 0.006250405376900376 2 1705 5 2268
327 0.8915023888489875 -0.042446269523968023 -0.38982020887663693 25 30 33 0.0030336264858903937 2 1774 5 2323
328 0.8915023888489875 -0.042446269523968023 -0.38982020887663693 25 30 33 0.0030336264858903937 2 1775 5 2324
329 0.8820678758581869 0.11267421826081937 -0.38942856432465617 32 32 34 0.21129995493487558 2 657 12 94
330 0.9095204551504286 0.09328205203442637 -0.3903584816957891 31 34 37 0.2047408301701336 2 795 12 148
331 0.9154020712851747 0.05186678394686616 -0.3904288865803128 181 186 187 0.18258315626531946 2 1093 12 379 26 777
332 0.9574444238683144 0.047910764200840165 -0.39179790045303026 43 40 37 0.14200071914225568 2 1139 12 421
333 0.9154352343873698 0.026029247159434426 -0.3896710256079993 181 189 188 0.49309105680917387 2 1290 12 500 26 904
334 0.8387374008045826 0.009013291427642098 -0.38971427973086703 125 124 125 0.0539274949815229 2 1408 12 544
335 0.8375350797409178 -0.001872315785466031 -0.3897692202257614 195 197 200 0.009895767391296684 2 1486 12 617
336 0.8381354140105359 -0.012907385851462975 -0.38987857233206563 163 163 163 0.0668537224670408 2 1563 12 665
337 0.901568952730303 -0.017589781435621576 -0.3900575098554272 178 186 187 0.20362578360456546 2 1579 12 714
338 0.8385085708711196 -0.02497635124235624 -0.38955774800353526 183 187 190 0.04362455817021841 2 1652 12 736
339 0.8397702964394352 -0.027502003604712118 -0.38975245026585525 125 125 130 0.23603067301063435 2 1679 12 760
340 0.8803870054837093 -0.04746662408001249 -0.3906259125110347 22 28 26 0.17105054860054936 2 1795 12 859
341 0.8803870054837093 -0.04746662408001249 -0.3906259125110347 22 28 26 0.17105054860054936 2 1796 12 860
342 0.8814245508189703 0.11232229109607378 -0.39112931261086825 27 27 27 0.27410152021368733 2 662 18 85
343 0.9948476114948832 0.010651272750685148 -0.39066266846021946 60 66 68 0.12510793908605294 2 1391 18 633 15 1012
344 0.9683950006483683 -0.02868883660147486 -0.3901232650092811 176 183 180 0.07852546454415368 2 1636 18 827
345 1.0026329353145067 -0.04793476167727934 -0.3898628460877805 32 38 38 0.1920316410927833 2 1767 18 912 15 1267
346 0.8335529962845354 0.12061485708299752 -0.3895615090959656 189 189 189 0.1374946760149906 2 608 26 335
347 0.8948623950403994 0.11004441877739866 -0.3919111231129438 28 34 35 0.013539973115242165 2 677 26 452
348 0.9122601041310304 0.09335400220986985 -0.39286405963757376 37 39 38 0.11285954387898883 2 796 26 537
349 0.8347971707725466 0.08106875298129058 -0.3892740158921262 183 186 189 0.005965790523655747 2 821 26 472
350 0.8380887981176605 0.07966826354910171 -0.3893604122495596 186 186 184 0.1328272661615666 2 832 26 493
351 0.9483514461659073 0.08504070211296051 -0.39422736272365005 178 184 182 0.02111836151510709 2 872 26 649
352 0.9444771102694788 0.08096778350521927 -0.3935620388085534 46 49 52 0.06693090047599819 2 898 26 659
353 0.8368492681089463 0.07003149611537474 -0.3895471355235338 181 187 189 0.13859318799220566 2 907 26 527
354 0.9329202800760645 0.07755255031508466 -0.3932543388022328 175 183 181 0.02871338964436477 2 912 26 657
355 0.9373407522608963 0.0771288805503887 -0.3937937835577139 45 43 41 0.009297511903917643 2 925 26 664
356 0.9373407522608963 0.0771288805503887 -0.3937937835577139 45 43 41 0.009297511903917643 2 926 26 665
357 0.9411563937287225 0.07472281279969133 -0.3948387689439182 182 188 186 0.08022755795365523 2 943 26 690 24 400
358 0.9949364078275049 0.07867865925567041 -0.3955149024767425 62 70 69 0.043646969627916705 2 944 26 757
359 1.0032852038893045 0.07819991401507553 -0.3963622712875716 65 66 67 0.1620292648646334 2 960 26 781
360 1.0032852038893045 0.07819991401507553 -0.3963622712875716 65 66 67 0.1620292648646334 2 961 26 780
361 0.9285380148140814 0.0692219476595043 -0.39275839776358895 176 186 185 0.023054222632161902 2 975 26 695
362 0.9285380148140814 0.0692219476595043 -0.39275839776358895 176 186 185 0.023054222632161902 2 976 26 696
363 0.9943972378447836 0.07102894109904236 -0.39593061904380283 178 184 182 0.07075074233349851 2 1003 26 801
364 0.9943972378447836 0.07102894109904236 -0.39593061904380283 178 184 182 0.07075074233349851 2 1004 26 800
365 0.9292338593615413 0.06569898137743915 -0.39202628232246056 48 47 50 0.12560135424763935 2 1006 26 721
366 0.9292338593615413 0.06569898137743915 -0.39202628232246056 48 47 50 0.12560135424763935 2 1007 26 722
367 1.0025672422417853 0.07090772986098903 -0.3963894468276473 79 78 85 0.03349351805545052 2 1008 26 810
368 0.9333357895080562 0.0651144640481253 -0.3932264245973078 176 183 181 0.0360268912963411 2 1017 26 731 24 454
369 0.9271599181574481 0.06318778397042862 -0.39303084580220193 33 39 41 0.1316706240646577 2 1026 26 736
370 0.9942172057518607 0.0674649752925741 -0.3946864370901278 72 77 81 0.09367832482759508 2 1027 26 813
371 0.9942172057518607 0.0674649752925741 -0.3946864370901278 72 77 81 0.09367832482759508 2 1028 26 814
372 1.0110128467857284 0.0532174392755541 -0.3937970454615096 63 76 76 0.057489464888277816 2 1117 26 895
373 0.89791073229789 0.04409353465879116 -0.39153720116258633 39 32 25 0.02886942041714876 2 1154 26 792
374 0.89791073229789 0.04409353465879116 -0.39153720116258633 39 32 25 0.02886942041714876 2 1155 26 791
375 0.9658467714891216 0.04241898521565205 -0.39456109203850903 62 67 69 0.09850427773572992 2 1181 26 889
376 0.9357313736385122 0.039097128316616395 -0.3939903203896373 32 38 36 0.02736858191826966 2 1191 26 865
377 0.9357313736385122 0.039097128316616395 -0.3939903203896373 32 38 36 0.02736858191826966 2 1192 26 864
378 0.9017045087824824 0.03717298442268393 -0.39143889119286585 176 184 183 0.06174479716021534 2 1195 26 833
379 0.9668219049550958 0.03957404793450265 -0.39524782982861395 53 61 62 0.02383659411027769 2 1196 26 906
380 0.8989310511048637 0.0368766765579594 -0.3921561735004854 176 184 183 0.04982197957915929 2 1198 26 830
381 0.9013684917949957 0.03341583575268788 -0.3916546757678296 42 35 31 0.03448131963715189 2 1219 26 845
382 0.961402102374641 0.03465545829830173 -0.3924175027300535 64 67 68 0.010464340388401773 2 1227 26 921
383 0.961402102374641 0.03465545829830173 -0.3924175027300535 64 67 68 0.010464340388401773 2 1228 26 922
384 0.9738505931239683 0.03446741625286738 -0.39427600272325364 175 183 182 0.07690323687204009 2 1233 26 942
385 0.9738505931239683 0.03446741625286738 -0.39427600272325364 175 183 182 0.07690323687204009 2 1235 26 943
386 0.9659388848543327 0.03417762374514518 -0.3941616221933024 174 182 180 0.07845449565431294 2 1236 26 926
387 0.9659388848543327 0.03417762374514518 -0.3941616221933024 174 182 180 0.07845449565431294 2 1237 26 927
388 0.9551372995604152 0.027024732279274957 -0.39411186286334465 179 185 183 0.009050956042197326 2 1294 26 966
389 0.9481689012191755 0.021523793688110048 -0.3926336609538064 176 182 182 0.04648223153643012 2 1318 26 981
390 0.9221387186703064 0.020914013408569344 -0.3914429415599414 178 184 182 0.07397520976324086 2 1319 26 945
391 0.9298871192401087 0.01015414209585787 -0.39268693280980754 43 46 49 0.02016290716593577 2 1394 26 1016
392 0.9269773857806276 0.01006200619614478 -0.39275760878705757 35 38 39 0.014378022518367988 2 1395 26 1013
393 0.9940372731987069 0.0072963142493585945 -0.3945800460753716 177 183 185 0.02090725187532526 2 1419 26 1097
394 0.9339229567455163 0.00631449268478678 -0.39291080522531713 47 47 49 0.030555291692770294 2 1424 26 1039
395 0.9339229567455163 0.00631449268478678 -0.39291080522531713 47 47 49 0.030555291692770294 2 1425 26 1040
396 0.9295772667968374 0.006120758555817003 -0.3926807949030208 176 182 182 0.05628893680629582 2 1427 26 1035
397 0.9295772667968374 0.006120758555817003 -0.3926807949030208 176 182 182 0.05628893680629582 2 1428 26 1036
398 0.9295772667968374 0.006120758555817003 -0.3926807949030208 176 182 182 0.05628893680629582 2 1429 26 1037
399 0.994185829021361 0.0038080477471909035 -0.3940660432828389 74 74 81 0.028276044053126292 2 1435 26 1120
400 0.994185829021361 0.0038080477471909035 -0.3940660432828389 74 74 81 0.028276044053126292 2 1436 26 1121
401 0.9300269110580822 0.002921294589584799 -0.39188367891435544 46 46 50 0.0028144362390328075 2 1445 26 1054
402 0.9300269110580822 0.002921294589584799 -0.39188367891435544 46 46 50 0.0028144362390328075 2 1446 26 1055
403 0.9382459727048471 0.002750512059550028 -0.39357649018384283 53 53 56 0.05018863724046596 2 1449 26 1061
404 0.9421412442545759 0.0019866100007587435 -0.3934254639568167 177 183 181 0.00014807573941731655 2 1455 26 1071
405 0.9338220287377467 0.0020220436603215755 -0.3928323443012146 173 182 181 0.051975344131210674 2 1457 26 1059
406 0.928312300786942 0.00012620457977653734 -0.39367914525822995 30 36 36 0.0352868249597893 2 1470 26 1064
407 0.9582920635232974 -0.013608150658464538 -0.39221097308948805 48 54 59 0.023557164711649304 2 1553 26 1160
408 0.9025157497203724 -0.01768245836847792 -0.3922615842367819 162 171 170 0.02140769772417599 2 1577 26 1129
409 0.9741024616366968 -0.020988402334344385 -0.39349026421179245 175 181 181 0.04738192364314739 2 1584 26 1208
410 0.9741024616366968 -0.020988402334344385 -0.39349026421179245 175 181 181 0.04738192364314739 2 1585 26 1209
411 0.9028661450028367 -0.021960923820744032 -0.393395429725031 38 41 42 0.005625593693879271 2 1609 26 1152
412 0.9028661450028367 -0.021960923820744032 -0.393395429725031 38 41 42 0.005625593693879271 2 1610 26 1153
413 0.9028661450028367 -0.021960923820744032 -0.393395429725031 38 41 42 0.005625593693879271 2 1611 26 1154
414 0.9028661450028367 -0.021960923820744032 -0.393395429725031 38 41 42 0.005625593693879271 2 1612 26 1151
415 0.9375964107128779 -0.023358588773966283 -0.3962848275368469 29 35 33 0.04732807539993878 2 1613 26 1185
416 0.9076270037386797 -0.026595168642341623 -0.393246008744087 160 168 167 0.05945961837247925 2 1640 26 1174
417 0.9076270037386797 -0.026595168642341623 -0.393246008744087 160 168 167 0.05945961837247925 2 1641 26 1175
418 0.906304118286464 -0.02901070884002652 -0.39347209483419643 31 30 32 0.003235435387762212 2 1659 26 1182
419 0.906304118286464 -0.02901070884002652 -0.39347209483419643 31 30 32 0.003235435387762212 2 1660 26 1183
420 0.8962401160153397 -0.03328701069623482 -0.39429233784787976 30 34 30 0.04142906414901234 2 1704 26 1196
421 0.9382199708062748 -0.048189200968109004 -0.39352143576811255 175 185 185 0.06329426369367087 2 1788 26 1300
422 0.9382199708062748 -0.048189200968109004 -0.39352143576811255 175 185 185 0.06329426369367087 2 1789 26 1299
423 0.9306983067143964 -0.05311458581222774 -0.3918812041736909 170 176 176 0.13739316142182137 2 1812 26 1314
424 0.9348508114718732 -0.05682250200850262 -0.3933183042065128 47 46 50 0.07694043786151643 2 1828 26 1323
425 0.9348508114718732 -0.05682250200850262 -0.3933183042065128 47 46 50 0.07694043786151643 2 1829 26 1325
426 0.9348508114718732 -0.05682250200850262 -0.3933183042065128 47 46 50 0.07694043786151643 2 1830 26 1326
427 0.8674103560756856 -0.0618630588111364 -0.39245764338108124 155 161 161 0.061266669560291 2 1872 26 1311
428 0.8674103560756856 -0.0618630588111364 -0.39245764338108124 155 161 161 0.061266669560291 2 1873 26 1312
429 0.9124817222254623 -0.07799033258086353 -0.3912355563632686 26 26 26 0.08505783586994922 2 1910 26 1386
430 0.9124817222254623 -0.07799033258086353 -0.3912355563632686 26 26 26 0.08505783586994922 2 1911 26 1387
431 0.8963442200545602 -0.07762604173384471 -0.3934476571588995 25 28 29 0.016056266944830422 2 1917 26 1376
432 0.8365793891835305 0.12414699357871152 -0.39149265799426464 164 164 166 0.032334273263064615 3 925 10 90
433 0.9110870888168388 0.11147824128829993 -0.3911744455563173 43 43 46 0.26235293674131593 3 977 10 173 6 634
434 0.8972485012039327 0.10792397962572296 -0.3918258034293654 42 32 21 0.09244959543354704 3 983 10 178
435 0.8364895993055946 0.09685388810538666 -0.3896881945132177 149 149 152 0.12498145598959942 3 1014 10 187
436 0.8364895993055946 0.09685388810538666 -0.3896881945132177 149 149 152 0.12498145598959942 3 1015 10 188
437 0.9622604826969904 0.1017455070559181 -0.3910899142279095 48 46 47 0.29885886326886185 3 1023 10 241 6 743
438 0.834690555615497 0.09164018795980733 -0.3908016931314062 184 191 192 0.12898208218047702 3 1037 10 207
439 0.8372005409652206 0.08452299023265773 -0.39155501153069805 146 152 154 0.06508149455170004 3 1071 10 240
440 0.9397655647203901 0.07751065699389834 -0.39127087219855466 195 201 203 0.1809617532619868 3 1134 10 345 6 936
441 0.9987979430632747 0.07711070788764679 -0.3906572069015476 59 59 61 0.20511397281075666 3 1149 10 391 7 809
442 0.8369528602177676 0.07024452398356479 -0.39028465971801085 187 193 193 0.08011627088696814 3 1156 10 321
443 0.9027394542849977 0.07099440282392415 -0.3922747831292616 25 31 29 0.13880233426626173 3 1173 10 364 6 975
444 0.9026829788636649 0.0709471719827005 -0.3922064769573189 23 27 26 0.013218363670431516 3 1174 10 365
445 0.9950463071474857 0.0731900351472437 -0.39093097489292167 67 73 76 0.0686135243800135 3 1178 10 412
446 0.8691321292401855 0.06809560518507912 -0.39108739970097944 177 185 184 0.011905585330017584 3 1182 10 352
447 0.9914976610903977 0.06693611646560858 -0.391841471930076 73 73 75 0.39120909778184537 3 1216 10 439 8 769
448 1.0010543585334155 0.0666415654470165 -0.39022042264570256 186 193 192 0.10177166242919093 3 1220 10 444 7 902
449 0.8620411976452679 0.060521823364699405 -0.39088963797821713 34 37 36 0.0896337602451408 3 1229 10 397 26 628
450 0.8382947997535631 0.05674708743733791 -0.39063818541609197 188 190 192 0.08638262592975912 3 1239 10 402 26 601
451 0.8382947997535631 0.05674708743733791 -0.39063818541609197 188 190 192 0.08638262592975912 3 1240 10 403 26 602
452 0.9462687061406727 0.058292846325284385 -0.39053779091464363 182 190 187 0.1281328062585253 3 1249 10 456
453 0.9697332705569273 0.042252061362014544 -0.3911051558173773 185 191 189 0.12873540577858814 3 1310 10 551
454 0.9984296640579621 0.040916282170078956 -0.3904997307903279 53 64 62 0.035987860979270064 3 1314 10 571
455 0.8367795815142108 0.03910546270520215 -0.39085954011338425 122 123 125 0.04114029642086982 3 1318 10 505
456 0.9744859609657023 0.03107460794741165 -0.39088016465561987 56 62 64 0.08459016307526537 3 1358 10 619
457 0.8388576789523945 0.029280098690242225 -0.39068431852551777 108 108 108 0.1434996778969125 3 1370 10 559
458 0.9847161288940645 0.02237629413418714 -0.3916493540734326 185 191 191 0.060069648803274485 3 1396 10 662
459 0.9889136542178524 0.011520619538723275 -0.39229195593845817 53 61 62 0.05490871758753842 3 1432 10 713
460 0.8381042962965346 0.012970487974209072 -0.39118882214542366 121 123 121 0.04859082381838203 3 1445 10 654
461 0.8381042962965346 0.012970487974209072 -0.39118882214542366 121 123 121 0.04859082381838203 3 1446 10 655
462 0.9950257611269666 0.00739870947144717 -0.3908095264898204 66 68 74 0.08762286571663624 3 1454 10 736
463 0.873918094982719 0.010119117801448902 -0.39074387347150896 165 175 173 0.01176246684441865 3 1456 10 683
