# 3D point list with one line of data per point:
#   POINT3D_ID, X, Y, Z, R, G, B, ERROR, TRACK[] as (IMAGE_ID, POINT2D_IDX)
# Number of points: 425
761 0.8739530689808744 -0.04861409989422442 -0.3817959271569537 34 34 36 0.594839123944754 9 1395 11 2344
762 0.8739530689808744 -0.04861409989422442 -0.3817959271569537 34 34 36 0.594839123944754 9 1396 11 2345
763 0.9855068736359235 0.062279310764293654 -0.3702539752771795 65 61 61 1.06358746618047 9 604 12 344
764 0.8302094526875492 0.12277298771957694 -0.39084136547658593 195 194 194 0.0963539866398058 10 93 12 78
765 0.8317525928200065 0.0709570077055056 -0.3822508945155508 195 194 194 0.7912989815231366 10 297 12 187 13 658
766 0.8287429447772414 0.04729764656072176 -0.3737013589425556 189 191 192 0.030000582040941904 10 421 12 314
767 0.859198073337579 0.03145880560623713 -0.36852708901806036 23 28 26 0.07099519398991057 10 524 12 417
768 0.8315677158885064 -0.0035906566781009194 -0.38336866071946196 120 119 123 1.0683397639431693 10 732 12 621 15 1120
769 0.8315282550958879 0.10752696409890541 -0.38236929828062804 117 109 108 0.6376440367058087 10 135 13 546
770 0.8319169299766522 0.10026047368750346 -0.38460655860799864 186 186 190 0.690287037242741 10 165 13 555 16 243 15 511 21 500
771 0.9324107360125924 0.0744251873929692 -0.3931015718231543 153 166 163 0.5709760136282224 10 370 13 726
772 0.8311343741471618 0.03136967388977943 -0.38369528159354066 112 111 115 0.7835424180769239 10 537 13 891 17 621 19 343 25 1250 16 662
773 0.970927751515665 0.029561008490158865 -0.38488861587309486 32 45 43 0.3379298793762096 10 612 13 947
774 0.9686523901161608 0.028751664112992546 -0.3813970557208134 49 57 58 0.5200679311940135 10 613 13 948 14 684 17 707
775 0.9660125211074765 -0.08952670615553995 -0.3813870108954769 38 36 38 0.3828754954703791 10 1230 13 1471
776 0.8281325647733027 0.060664452257652615 -0.373701645732899 191 191 191 0.33813320557826737 11 736 12 222
777 0.832671033035286 0.02670396170858042 -0.3793410053438129 119 116 114 0.5953559841332648 11 1262 12 442 18 415
778 0.832671033035286 0.02670396170858042 -0.3793410053438129 119 116 114 0.5953559841332648 11 1263 12 443 18 414
779 0.832340382489034 0.0020080318540736126 -0.3757768755836768 185 187 187 0.6525223480383916 11 1585 12 566
780 0.8309269868078505 -0.02121678877257502 -0.37887599083393764 126 124 128 0.69243715487826 11 1953 12 702 18 727
781 0.9160527892722893 0.08809291290802498 -0.38374548924163754 26 32 30 0.4938237220771478 11 525 13 633 16 368
782 0.9710887020432388 0.09338047981022393 -0.38636105714920355 36 39 38 0.0035615547186363776 11 543 13 642
783 0.9898655866493546 0.07109157377972442 -0.38248652234752756 67 74 68 0.31800707045589416 11 831 13 751 16 498
784 0.8736266099029922 0.013134760134830255 -0.38579382132321294 12 18 17 0.7295025905049076 11 1498 13 1009
785 0.8595001685109208 0.003564319905069876 -0.38315161368189193 138 154 152 0.8750986894135974 11 1613 13 1054
786 0.8595001685109208 0.003564319905069876 -0.38315161368189193 138 154 152 0.8750986894135974 11 1614 13 1055
787 0.8543008250449209 -0.012736093196872406 -0.38537848163715843 24 27 28 0.8294919392593582 11 1845 13 1143 17 902
788 0.8319507457678306 -0.0381086572367756 -0.3832159511006105 90 88 83 1.1123746916553527 11 2201 13 1299
789 0.9650899077444173 -0.08403968151329491 -0.3796759948343166 39 37 42 0.22236398441168126 11 2801 13 1451 14 1148
790 0.9578162246899607 0.037016646900087796 -0.38146235405355583 43 47 42 0.28258862081740205 11 1228 14 636 22 855 24 646
791 0.957735315899754 0.03702952652452637 -0.38131647570089244 56 58 59 0.26360952722368713 11 1229 14 637 22 856
792 0.9025626150769183 0.03179565379523985 -0.38366660217459325 167 175 172 0.45858930536318376 11 1264 14 669
793 0.8897194936435857 0.03067422320553733 -0.3851134853044189 41 33 26 0.5728163023328388 11 1268 14 677
794 0.8897194936435857 0.03067422320553733 -0.3851134853044189 41 33 26 0.5728163023328388 11 1269 14 678
795 0.8339205264393701 -0.02058652049221626 -0.383949514517187 113 113 115 0.9929234347674708 11 1954 14 963
796 0.8837338930776277 0.08696320042769902 -0.3830106982455219 164 172 171 0.1331153757708652 12 160 13 621
797 0.8837338930776277 0.08696320042769902 -0.3830106982455219 164 172 171 0.1331153757708652 12 161 13 622
798 0.95161797523798 0.09231533455724625 -0.38174661399103155 35 43 42 0.22512520847891831 12 181 13 629 23 1203
799 0.9523275002640703 0.09295998929796578 -0.3830254749775064 23 29 30 0.2037569533285817 12 182 13 630
800 0.9089351726696098 0.08086186974640742 -0.38251221670345276 19 25 25 0.1637969957925344 12 204 13 654
801 0.9089351726696098 0.08086186974640742 -0.38251221670345276 19 25 25 0.1637969957925344 12 205 13 655
802 0.8723325427471581 0.07492308147863755 -0.3832083983606652 19 22 21 0.22715915343274362 12 211 13 668 15 657
803 0.8723325427471581 0.07492308147863755 -0.3832083983606652 19 22 21 0.22715915343274362 12 212 13 669 15 659
804 0.9322527680795655 0.07097396879875136 -0.3801642985962528 151 164 159 0.17370274943467942 12 270 13 722
805 0.9410359767140805 0.01988173357391031 -0.38179465343220925 142 157 154 0.1586599967293408 12 532 13 985
806 0.8638765931710322 0.008161149849441935 -0.3828000333532314 18 25 23 0.2752878026625463 12 554 13 1036 15 1040 18 568
807 0.9309033466420994 0.00952390840956606 -0.38280770100183176 137 155 151 0.1859276517588924 12 584 13 1037
808 0.8638102216479243 -0.088126659594326 -0.37947677707440247 13 17 15 0.37903291394992866 12 1024 13 1488
809 0.9574840086905392 0.10562054937693657 -0.3817874884198685 59 61 60 0.12309325930972219 12 130 14 271
810 0.8604200926383068 0.06565059782052521 -0.38332716480700063 35 31 24 0.2431683864105696 12 249 14 480
811 0.9551161181775824 0.043371765196032114 -0.38224234135523955 184 188 189 0.04327761453491406 12 429 14 609
812 0.9551161181775824 0.043371765196032114 -0.38224234135523955 184 188 189 0.04327761453491406 12 432 14 612
813 0.8324402272219444 0.026902157095962782 -0.38346261597133924 172 175 176 0.3282994071392278 12 453 14 703
814 0.8312127804523557 -0.007921468073202459 -0.383299749303607 165 168 168 0.24443746751361073 12 640 14 899 18 647
815 0.8312127804523557 -0.007921468073202459 -0.383299749303607 165 168 168 0.24443746751361073 12 641 14 900 18 648
816 0.8321628390580313 -0.017304583684983547 -0.3833690827546434 159 162 163 0.26363043545773207 12 688 14 946
817 0.8308654833156242 0.07106994915601107 -0.3839869076375214 130 127 128 0.37415077167806454 12 190 15 671
818 0.8308654833156242 0.07106994915601107 -0.3839869076375214 130 127 128 0.37415077167806454 12 191 15 672
819 0.8315701433373145 0.027979355764100548 -0.3832089886316147 107 107 111 0.3826829734055616 12 444 15 936
820 0.8639230698859973 0.008160852736608892 -0.3829668806961857 31 32 32 0.31610675571251523 12 555 15 1041
821 0.9849045402267971 -0.052927897455690494 -0.3799861433174879 185 188 189 0.1539009971713695 12 881 15 1280
822 0.9538558118243188 -0.0804314113150846 -0.38035353378739084 184 190 190 0.26515185064606706 12 997 15 1377 17 1206
823 0.9538558118243188 -0.0804314113150846 -0.38035353378739084 184 190 190 0.26515185064606706 12 998 15 1378 17 1207
824 0.8779542224299692 0.08004240884394054 -0.3811533531074772 187 186 188 0.06328642146186698 12 179 18 155
825 0.9789228405379696 0.08879402756823299 -0.38228568126804974 29 35 33 0.1374258349122743 12 220 18 214
826 0.9355483607229452 0.07644358126712487 -0.37864859165679965 35 32 29 0.09599670565430593 12 239 18 223
827 0.9768970217375117 0.0811345207416697 -0.37949886323593657 185 186 182 0.005904306416126332 12 252 18 242
828 0.8560903835343595 0.01427088095369999 -0.38030955465875127 31 34 35 0.07344028349811772 12 523 18 512
829 0.8314687642528743 -0.03326086201534316 -0.3792806254044458 108 108 108 0.07491565721120387 12 788 18 807
830 0.8533192439063896 -0.0366916479550117 -0.3767180931074024 25 31 29 0.05790037562167128 12 808 18 835
831 0.8315834285141117 0.08833156192987358 -0.3837815713890467 130 130 130 0.03755992104345536 13 591 14 314
832 0.8296712015563306 0.047336357525863675 -0.3818002510926917 176 182 182 0.03840078758869724 13 792 14 589
833 0.8334082250244761 0.04762265107144608 -0.3835991614613577 173 175 174 0.02364900942002877 13 796 14 588
834 0.9094395634361322 0.05038035911194412 -0.38219188736715365 145 158 157 0.26679411578008744 13 818 14 570 23 1540 26 784
835 0.9094395634361322 0.05038035911194412 -0.38219188736715365 145 158 157 0.26679411578008744 13 819 14 571 23 1541 26 783
836 0.8303334871981193 0.03122628556618003 -0.38429379253317836 170 178 177 0.4832992179588716 13 896 14 676 16 664
837 1.0028066053773437 0.02586409793285395 -0.38025789815439115 70 81 81 0.15839617699317662 13 975 14 699
838 0.9155752943792902 0.01957035930130899 -0.38261167207519975 166 174 171 0.10603865926075363 13 982 14 738
839 0.9581311557549663 0.006402381776339446 -0.38031320952970016 27 33 31 0.008022353024605024 13 1050 14 791
840 0.8321881175377086 0.0014368046981015948 -0.3827860095503981 155 155 155 0.05614395288089415 13 1065 14 851
841 0.8319119201305599 -8.228992461843031e-05 -0.38314329202565856 90 90 92 0.1316164163484817 13 1071 14 859 17 824 19 531 16 858
842 0.832030111885823 -0.0172924729552428 -0.38285909580771793 173 175 180 0.085491014643165 13 1168 14 948 17 926
843 0.8318593836382092 -0.03278644062319743 -0.3835240417572054 86 86 85 0.09484401505426145 13 1272 14 1020
844 0.9900152061755371 -0.053051088739520455 -0.3803821431727559 31 37 39 0.18502261638837797 13 1320 14 1053
845 0.8788927773966907 -0.0683633164563128 -0.3820421686725117 142 150 149 0.34949077585912425 13 1419 14 1135 18 1000
846 0.9025458116069954 -0.08098036605298772 -0.3817497045228903 22 25 22 0.3759450918202293 13 1460 14 1162 18 1042
847 0.8330151895670208 0.10592449688483474 -0.3843269916243759 131 125 127 0.12446753289213279 13 550 15 492
848 0.8317211909803591 0.049869202164894114 -0.3833144987864347 184 187 190 0.07995049521836468 13 783 15 809
849 0.8678608049879113 0.008829189024189665 -0.383045087468645 165 171 171 0.023346708642032345 13 1029 15 1036
850 0.9632783541468579 -0.029704235456323693 -0.3798978706558728 184 190 188 0.37411605821209054 13 1230 15 1199 18 822
851 0.8322041019497906 -0.031536635632902675 -0.3838882252396395 94 88 92 0.3310028047867074 13 1265 15 1261
852 0.8849458536288705 -0.0740324642055588 -0.3828313017021741 160 160 162 0.07106010890836853 13 1437 15 1383
853 0.8910604967788414 0.09393870404267529 -0.3828794342424812 181 184 183 0.03169027463605308 13 596 16 313
854 0.9574506102017546 0.09771882497355344 -0.3812566687821653 43 46 47 0.013145758519184586 13 612 16 341
855 0.8666766991014994 0.07334414758082808 -0.3823600864466554 34 35 34 0.110951030378057 13 675 16 423 25 1097
856 0.9808053814781953 0.0786249260692571 -0.3808549420098237 43 47 45 0.008917610101005492 13 706 16 453
857 0.9090742169471103 0.05534099079364748 -0.3809950762411698 26 33 27 0.027090048092782967 13 786 16 552
858 0.8317549012398691 0.04875936125044349 -0.3834529156345416 111 107 108 0.018986459259539307 13 790 16 561
859 0.9775713457907692 0.02526090848580185 -0.3798460882709628 51 64 61 0.3594927277980698 13 972 16 733 15 939 21 1271
860 0.9720667729236129 0.02001898628494121 -0.38124718844129524 36 49 47 0.040077462544538256 13 990 16 756
861 0.9720667729236129 0.02001898628494121 -0.38124718844129524 36 49 47 0.040077462544538256 13 991 16 757
862 0.9371900835823316 -0.0024668251836169057 -0.3813213668086142 46 53 58 0.2252283835367675 13 1097 16 864 15 1086 23 1879 26 1097
863 1.0036752056391824 -0.011551771204257256 -0.3815612821581677 54 64 67 0.05225996741767751 13 1132 16 889
864 0.9648139559620486 -0.01906650220842611 -0.3806696573958569 33 38 38 0.07843010814047818 13 1172 16 938
865 0.9504289621509837 -0.02594510870205668 -0.3807783462791876 35 38 39 0.0647565781597657 13 1212 16 969
866 0.9155854567813735 -0.04267270922073629 -0.3813891001479244 132 143 141 0.0914747367495811 13 1306 16 1063 17 1096
867 0.9411212794484435 -0.06825352087080351 -0.3807023228679105 164 168 164 0.23143988496143086 13 1400 16 1146 14 1111
868 0.8966463668951316 0.06922628975680833 -0.3834580852704684 13 19 16 0.16801240507493873 13 712 17 470 18 232
869 0.8781158168374877 0.05544910007891821 -0.3818301229531756 152 163 161 0.01781564800435143 13 774 17 522
870 0.8298943997358779 0.049971599180148416 -0.3840790226806163 193 193 193 0.0028619606054137723 13 782 17 521
871 0.8318345199373025 0.04777744980579003 -0.38367639716346463 180 179 179 0.03583759180863062 13 793 17 533 19 268
872 0.8318345199373025 0.04777744980579003 -0.38367639716346463 180 179 179 0.03583759180863062 13 794 17 534 19 269
873 0.9150241667306293 0.050452022496811834 -0.3821243631365737 24 27 30 0.10763261063074858 13 821 17 570 19 302
874 0.9514182927103068 0.029916827023640555 -0.38141975870390826 33 39 39 0.09835153060686198 13 938 17 690 15 917
875 0.9810109033572078 0.016216259422438744 -0.37949208067497703 58 61 62 0.06567265093292657 13 1008 17 776 19 487
876 0.83194465496477 0.010216457602061383 -0.38313443432761013 156 160 161 0.1011966376879902 13 1013 17 762 14 792 16 786
877 0.8602176105203795 0.00513993685885292 -0.3823042008145831 142 157 156 0.12806877887643223 13 1049 17 798 19 508
878 0.904807117263398 -0.016776385915518877 -0.3826674256177918 13 19 17 0.0424029059814463 13 1162 17 929
879 0.904807117263398 -0.016776385915518877 -0.3826674256177918 13 19 17 0.0424029059814463 13 1163 17 930
880 0.8319528744339901 -0.01732568565424009 -0.3821756190958931 173 175 180 0.05654825271360794 13 1169 17 925
881 0.9609667721584482 -0.026852742676930306 -0.3787660853623368 44 47 50 0.09838797653800282 13 1217 17 994 16 971
882 0.9609667721584482 -0.026852742676930306 -0.3787660853623368 44 47 50 0.09838797653800282 13 1218 17 995 16 972
883 0.8301202788343687 -0.030006798463082195 -0.3757841220397891 146 149 152 0.1169742572596145 13 1258 17 1022
884 0.9780616241571242 -0.06810297855340779 -0.37923148673207857 179 183 183 0.3328634929715995 13 1388 17 1166 25 2264 22 1382
885 0.9780616241571242 -0.06810297855340779 -0.37923148673207857 179 183 183 0.3328634929715995 13 1389 17 1167 25 2265 22 1383
886 0.907549096878771 -0.06725962365089072 -0.37571610086148133 19 21 21 0.05522108997539686 13 1408 17 1178
887 0.907549096878771 -0.06725962365089072 -0.37571610086148133 19 21 21 0.05522108997539686 13 1409 17 1179
888 0.9544266936741733 -0.07884871137244642 -0.37991266740181484 173 180 176 0.1538276005775747 13 1435 17 1204 16 1170
889 0.8324393493528989 -0.014895801534098852 -0.3835467255268821 154 160 162 0.046860229055309455 13 1153 18 693
890 0.8302260800193498 -0.029700312217367998 -0.38415866551995453 157 163 164 0.0710996162679634 13 1255 18 787
891 0.8336707144325607 -0.03411313479020653 -0.38326070255160904 107 110 111 0.09891052355332394 13 1280 18 815
892 0.8965497566865841 -0.0552909887495943 -0.3800505286677651 11 18 12 0.3526792366567936 13 1346 18 927
893 0.9989851045375538 -0.06435943929160544 -0.37852168695520155 46 49 51 0.16487275064895185 13 1364 18 980
894 0.9989851045375538 -0.06435943929160544 -0.37852168695520155 46 49 51 0.16487275064895185 13 1365 18 981
895 0.8687316028898584 -0.05842529996342136 -0.38282639552885533 142 150 147 0.28945870190969974 13 1380 18 952
896 0.8687316028898584 -0.05842529996342136 -0.38282639552885533 142 150 147 0.28945870190969974 13 1381 18 953
897 0.8788832715812266 -0.0683529012411187 -0.3818619232881616 142 150 149 0.3545642633840339 13 1420 18 1001
898 0.9655071050442953 -0.0922440179973751 -0.3794765137519752 177 182 180 0.29330616570613044 13 1480 18 1065
899 0.8338152151421213 0.11000064625139507 -0.38633197285069476 189 188 188 0.02101261147528479 13 547 19 53
900 0.9271150522886515 0.10226724862848648 -0.3819197400781425 26 32 30 0.36394506199015186 13 589 19 90 16 287 21 638 23 1143
901 0.8314173067574055 0.07944902922306675 -0.38450652690277426 182 182 182 0.02933414215824109 13 624 19 119
902 0.8319099663706043 0.07280048944239056 -0.3840329710924783 112 112 113 0.047903186382475975 13 650 19 141
903 0.8316946995821091 0.0658928297061797 -0.3839672342168628 184 184 183 0.16462380161321652 13 691 19 180 20 834 25 1004
904 0.8840768442513358 0.050083527062856105 -0.382796317211307 147 161 160 0.03741310890567054 13 810 19 288
905 0.8840768442513358 0.050083527062856105 -0.382796317211307 147 161 160 0.03741310890567054 13 811 19 289
906 0.8906815183984303 0.031205903111794553 -0.38177057100125505 139 155 154 0.038225918216418776 13 911 19 365
907 0.8906815183984303 0.031205903111794553 -0.38177057100125505 139 155 154 0.038225918216418776 13 912 19 366
908 0.9774973267900883 0.01983086460885452 -0.37982826604100506 181 182 178 0.01329121272758386 13 992 19 472
909 0.9774973267900883 0.01983086460885452 -0.37982826604100506 181 182 178 0.01329121272758386 13 993 19 473
910 0.8330242826819609 0.00849399985204839 -0.38328457618642586 99 99 95 0.021498437784446486 13 1024 19 481
911 0.8672885218628852 0.0011705702051615881 -0.38254016074282965 24 24 26 0.05368539778793848 13 1068 19 542
912 0.8849742482560806 -0.005475113406259312 -0.3812750233316035 11 17 15 0.06671836648665676 13 1101 19 586
913 0.8849742482560806 -0.005475113406259312 -0.3812750233316035 11 17 15 0.06671836648665676 13 1102 19 587
914 0.8338186065574728 -0.012655419459510615 -0.3818149418900881 156 162 164 0.047117979581318484 13 1142 19 611
915 0.8324470342712694 -0.015838111193863687 -0.3829422126202087 151 157 159 0.09240328129417036 13 1160 19 624 25 1570
916 0.8916652124146109 -0.019661634491055322 -0.3811177765936658 27 24 21 0.061480302959999816 13 1182 19 668
917 0.8916652124146109 -0.019661634491055322 -0.3811177765936658 27 24 21 0.061480302959999816 13 1183 19 669
918 0.8337477975673916 -0.024680794112452335 -0.38286455764643706 110 116 118 0.06483867480376694 13 1222 19 683
919 0.9062769378614123 -0.033994326237209875 -0.38099879131272757 18 24 22 0.06412315766638631 13 1266 19 777
920 0.8334095936435791 -0.03772513669822664 -0.3828558617159904 81 77 77 0.07176961838478364 13 1295 19 791
921 0.8881489710807757 -0.07734129253845301 -0.38137328743937265 21 24 24 0.13095647525620296 13 1452 19 954
922 0.8714460281629118 0.06627769448424453 -0.38275997502974446 192 192 194 0.07329738355062178 13 714 22 681
923 0.8895095080114704 -0.09684130064725614 -0.38460399891496155 24 27 28 0.10042707154160871 13 1495 22 1496
924 0.8950858729939811 0.10609272359321334 -0.38393602184570647 174 174 174 0.03964853494425648 13 568 23 1123
925 0.9772106130548649 0.11307487160437266 -0.38094609360516873 37 39 45 0.4211495314892856 13 576 23 1066 15 520
926 0.8597599923518218 0.06303278288709292 -0.38521646324323666 198 198 200 0.38685002598984497 13 731 23 1483
927 0.8596987492940831 0.06283997703390752 -0.3847057426321938 162 170 171 0.45593704867429613 13 732 23 1484 16 487
928 0.9288352258738968 -0.04872216491570931 -0.3786790484641545 180 180 180 0.29754992447379836 13 1317 23 2103
929 0.9288352258738968 -0.04872216491570931 -0.3786790484641545 180 180 180 0.29754992447379836 13 1318 23 2104
930 0.9017271865298812 0.09477669308412572 -0.3828632872769255 167 170 169 0.3151118391415636 13 598 25 1088 16 316 26 527 28 446
931 0.8319012312366528 0.07202160278544358 -0.38374484769988754 184 184 180 0.33419392091487826 13 653 25 962 28 602
932 0.8531377275608351 0.04831911110251544 -0.38174110179645476 26 29 28 0.11295788942227826 13 801 25 1220
933 0.9420037980176426 0.025408763063988354 -0.3835543347372094 47 55 54 0.2495545923344486 13 967 25 1625
934 0.8334252576360242 0.009258269643278964 -0.3832054146323833 168 167 167 0.06405215720856033 13 1020 25 1402
935 0.8334753412871219 -0.007798996159667928 -0.38357520429987796 100 100 96 0.05835409467578775 13 1114 25 1510
936 0.8322709684182115 -0.010520307899954041 -0.38426619734940376 161 167 168 0.07581627728580964 13 1122 25 1528
937 0.8319907920740875 -0.012026403596734762 -0.3834194934323251 162 166 167 0.04552487017846569 13 1138 25 1535
938 0.8319907920740875 -0.012026403596734762 -0.3834194934323251 162 166 167 0.04552487017846569 13 1139 25 1534
939 0.8941749766429677 -0.01856013511949492 -0.3795594857118001 155 163 162 0.1832400477296628 13 1173 25 1822
940 0.8323839097078376 -0.03477436506973336 -0.38218754420117074 74 74 74 0.06095526780447074 13 1285 25 1737
941 0.9801402668587604 -0.04556990981741198 -0.37776037419384145 44 50 52 0.2805649294619251 13 1307 25 2195 17 1100
942 0.9265930787870504 -0.05013934947726463 -0.3806894229577214 36 38 35 0.2927563408941768 13 1324 25 2110 16 1086 17 1107
943 0.9265930787870504 -0.05013934947726463 -0.3806894229577214 36 38 35 0.2927563408941768 13 1325 25 2109 16 1087 17 1108
944 0.9398155387344262 -0.09851332424359101 -0.3801789697198797 22 29 27 0.26975159048451025 13 1494 25 2290
945 0.8315938053667955 0.12014123822633008 -0.3854323253644257 186 186 187 0.22853694730852245 14 215 16 198
946 0.8315938053667955 0.12014123822633008 -0.3854323253644257 186 186 187 0.22853694730852245 14 216 16 199
947 0.9914079904378628 0.1031789982493841 -0.38171446961799277 59 67 64 0.27979892439343146 14 292 16 331
948 0.9530350079831669 0.09798595659914473 -0.3817050023323619 185 188 187 0.08137356583583841 14 304 16 333
949 0.9408968127267874 0.08222396931283775 -0.3826553807240547 183 188 187 0.020137157959751188 14 389 16 410
950 0.8317276557318 0.04994971929457868 -0.38384584986230336 182 188 190 0.20198475678261466 14 563 16 556 20 922 21 843
951 0.8318515260538857 0.04699387648298417 -0.38353750053832825 112 110 112 0.021602355516674703 14 591 16 569
952 0.8324136379973942 0.0205976387979013 -0.3831897978317323 107 106 110 0.046307048227524725 14 742 16 739
953 0.8324136379973942 0.0205976387979013 -0.3831897978317323 107 106 110 0.046307048227524725 14 743 16 740
954 0.8321239188769526 0.0038663079543739608 -0.38312256930730326 140 140 141 0.09391656164348322 14 836 16 828
955 0.9093521554549483 -0.005856789554758196 -0.3817274725851221 21 27 25 0.11317535132177733 14 872 16 883
956 0.9092584622351185 -0.005826365904255668 -0.3814144415167034 22 29 23 0.1733040028421282 14 873 16 884 24 941
957 0.8789868156291225 -0.011796157082557204 -0.38347929898710714 21 24 21 0.07221596119681793 14 905 16 914
958 0.8789868156291225 -0.011796157082557204 -0.38347929898710714 21 24 21 0.07221596119681793 14 906 16 915
959 0.8319722610178597 -0.017193587544557992 -0.3820230287678538 159 162 163 0.44563086310746186 14 949 16 957 24 1011 26 1051 28 1279
960 0.9770719897259867 -0.04197572344034552 -0.3783502516198667 179 182 183 0.6100098905820052 14 1004 16 1038 21 1705 24 1175 23 2048 25 2176 26 1314 28 1355
961 0.9145675342592491 -0.036788110293558586 -0.3789855569413553 20 23 22 0.14266729184359797 14 1006 16 1031
962 0.9148995834982803 -0.03703634744233624 -0.379814436500193 20 23 22 0.8548374229758736 14 1007 16 1032 23 2078
963 0.8731883377874796 -0.04810082677510559 -0.3823476619088017 20 21 17 0.0005611717661733981 14 1064 16 1091
964 0.8731883377874796 -0.04810082677510559 -0.3823476619088017 20 21 17 0.0005611717661733981 14 1065 16 1092
965 0.9414059564811613 -0.06846271194130689 -0.3813175513578939 171 174 175 0.15647382997087936 14 1110 16 1145
966 0.8319794567490988 0.023663328106820397 -0.3832445035379124 177 177 179 0.006485024463856571 14 729 17 664
967 0.8333954838867232 -0.007801099569047365 -0.3829921716506122 109 104 106 0.031030136863972484 14 898 17 868
968 0.8334799187765007 -0.01400180311460228 -0.382669819052577 128 128 130 0.029045476358770684 14 924 17 907
969 0.9675359093480653 -0.03339309398301439 -0.3792300464836247 39 41 44 0.0614768316252524 14 978 17 1040
970 0.8308257868861353 -0.029386270713163458 -0.3831319821064148 132 132 133 0.12353167970272032 14 1000 17 1012 16 1020
971 0.8308257868861353 -0.029386270713163458 -0.3831319821064148 132 132 133 0.12353167970272032 14 1001 17 1013 16 1021
972 0.8320716215073394 -0.0314470702551912 -0.3830974042860539 111 110 112 0.12665730011024076 14 1014 17 1033 25 1693
973 0.8312773834039013 -0.03192626458959492 -0.38294612087861496 160 166 168 0.061766224362082574 14 1016 17 1035 16 1033
974 0.9812636276353173 -0.06439361498155335 -0.3790359986451608 31 34 37 0.19626527830205787 14 1088 17 1160 22 1367
975 0.8618476277125043 0.09874525305694684 -0.37599780712788433 21 27 25 0.022057040543255572 14 259 20 639
976 0.8618476277125043 0.09874525305694684 -0.37599780712788433 21 27 25 0.022057040543255572 14 260 20 640
977 0.8316286444525961 0.08440534393030912 -0.3822496762514888 186 189 192 0.14824624794359142 14 329 20 657
978 0.8315878800992471 0.08065666896707936 -0.38294886928344996 184 189 187 0.10684858137768223 14 363 20 697
979 0.832400054917848 0.0506359524507063 -0.38377735309115846 127 127 128 0.3152182278500463 14 559 20 915 21 839
980 0.83159573183515 0.06311533204175553 -0.38157022014985664 197 195 198 0.10116921272649544 14 489 21 731
981 0.832859913142106 0.05899753744177279 -0.38243028644418664 163 162 164 0.09946158577848896 14 518 21 771
982 0.8326828640418348 0.0565470049686545 -0.382105616990566 120 114 116 0.18115541913553743 14 528 21 785
983 0.8328806646083572 0.05675052733590667 -0.3838272602195716 117 113 115 0.19358956179692324 14 529 21 786 19 216 25 1076
984 0.831407972833074 0.051897602376306556 -0.38229135974916123 127 126 128 0.22179263495744714 14 555 21 826
985 0.8326662802227093 0.03748189195607611 -0.38492733926198364 131 128 131 0.29405806600040024 14 633 21 940
986 0.8654624248324245 0.013871790632671572 -0.3815600827962695 29 32 31 0.935523843680533 14 769 21 1213 23 1849
987 0.8654624248324245 0.013871790632671572 -0.3815600827962695 29 32 31 0.935523843680533 14 770 21 1214 23 1850
988 0.8732981115623092 0.012798194650645425 -0.38594613589754484 25 28 27 0.0030327568301200493 14 773 21 1243
989 0.8635220876172848 0.008246319037510148 -0.38179975495098045 39 38 40 0.3961613480049442 14 800 21 1266 23 1908
990 0.8734191516933895 -0.0018900729803727385 -0.38883923926279595 25 28 27 0.03183314253910878 14 852 21 1371
991 0.9466219279416779 -0.005774256658378967 -0.3803609746960066 37 43 43 0.539902708407067 14 862 21 1486 16 874 23 1891
992 0.9008259934203429 -0.020542643897429578 -0.38943016984735046 160 166 164 0.16621128509633815 14 935 21 1558
993 1.000557711222761 -0.06185531767835024 -0.3890414321736895 190 190 194 0.4381319850673995 14 1062 21 1780
994 0.9577187175510997 0.03199001687018384 -0.38175004455995387 182 188 186 0.023344783806223523 14 665 22 893
995 0.9812183252613289 0.008961006133868092 -0.379723630895249 49 55 57 0.023132978748788464 14 777 22 1020
996 0.931108800916945 0.00947486356412026 -0.3840647528065951 169 174 174 0.02695436178203136 14 785 22 1047
997 0.931108800916945 0.00947486356412026 -0.3840647528065951 169 174 174 0.02695436178203136 14 786 22 1048
998 0.9550880096529242 -0.08270850946246844 -0.37564249852598797 38 37 39 0.12445257545537618 14 1152 22 1448
999 0.9550880096529242 -0.08270850946246844 -0.37564249852598797 38 37 39 0.12445257545537618 14 1153 22 1449
1000 0.9985620314415151 -0.0005205867145667495 -0.3805434062038651 54 60 62 0.5614898753501468 14 822 23 1790
1001 0.9799868215007116 -0.06936384689654322 -0.38249306846589676 202 202 204 0.32688544226853633 14 1100 23 2122
1002 0.8314791116044832 0.12198289376669948 -0.38528581043921745 189 188 188 0.44371252783868925 15 450 16 188 20 523
1003 0.8314576658307672 0.09324642509784621 -0.38433108681561906 186 185 189 0.3109819482900519 15 548 16 278 20 569
1004 0.8330560168673554 0.08958660933310364 -0.382975733564957 189 189 191 0.15619999925477232 15 558 16 291
1005 0.9055393485389766 0.0906169491150824 -0.3824023380569916 33 33 32 0.0658779658861809 15 581 16 348
1006 0.8299759899273708 0.08024514242839786 -0.38485272761436656 185 188 189 0.12839134312340686 15 618 16 360
1007 0.878386733702982 0.08132445157060347 -0.3836036552026535 183 186 187 0.08415415758839627 15 630 16 378
1008 0.878386733702982 0.08132445157060347 -0.3836036552026535 183 186 187 0.08415415758839627 15 631 16 379
1009 0.9147980562525938 0.05576060193696606 -0.3812300633324809 178 186 185 0.19123027053121905 15 787 16 553 21 937 23 1493
1010 0.941316592397328 0.050755367750545906 -0.3832457226284711 32 38 36 0.02250029818083388 15 821 16 581
1011 0.941316592397328 0.050755367750545906 -0.3832457226284711 32 38 36 0.02250029818083388 15 822 16 582
1012 0.9680922658832516 0.03994118776984583 -0.3792914227337057 54 62 63 0.054312604269039826 15 867 16 644 17 641
1013 0.8328150492064937 0.0309945360970572 -0.38313877598517615 175 177 179 0.06967413143146071 15 916 16 667
1014 0.833103678779893 0.028228647459341796 -0.3831631036303848 100 96 99 0.06721189545709852 15 933 16 680
1015 0.833103678779893 0.028228647459341796 -0.3831631036303848 100 96 99 0.06721189545709852 15 934 16 681
1016 0.9348024994201249 -0.05423670402006578 -0.3805882133420737 156 162 162 0.038947370834948446 15 1302 16 1097
1017 0.9353917098191775 -0.058657604604824706 -0.3794213658137714 23 23 23 0.03350661001541023 15 1323 16 1118
1018 0.8968517557056194 -0.0553463146588807 -0.38152319865138246 15 19 14 0.009568846345678415 15 1326 16 1117
1019 0.9100754931378895 -0.07413430762749122 -0.38254453805546484 169 169 166 0.012962174409795276 15 1376 16 1169
1020 0.9658647877073228 -0.09403146041143942 -0.3754352694442238 37 37 42 0.07812946169418614 15 1405 16 1202
1021 0.852909137823001 0.0869815387351788 -0.3817946419109783 25 29 28 0.1268771336979631 15 579 17 322
1022 0.8319723523708552 0.0726316394577915 -0.3835056444485604 126 125 125 0.15300480132986818 15 656 17 388
1023 0.9018791021439406 0.031753237094191276 -0.3819911404145957 167 175 172 0.029362433171039412 15 909 17 651 19 370
1024 0.9513560015081459 0.029922751179480064 -0.3813254509677895 33 39 39 0.047463511275146635 15 918 17 691
1025 0.8342261925170369 0.010270059481114377 -0.38243345715442356 172 175 176 0.027069913972062275 15 1035 17 761
1026 0.8303856569984486 -0.0031505262077010823 -0.3832796774980151 116 115 116 0.010208607472966867 15 1117 17 843
1027 0.9531368379057643 -0.030052323726614805 -0.3799629711210051 184 187 186 0.04998321028160637 15 1200 17 1017
1028 0.8330550936758748 -0.025093678790234712 -0.383434488960557 160 164 163 0.04760390114326765 15 1232 17 978
1029 0.8319905359119867 -0.025104999194427862 -0.3833436952570749 169 175 175 0.06972632844407928 15 1233 17 976 18 763
1030 0.9230340684772977 -0.06037336560085739 -0.3808944073192416 35 23 30 0.10931788849551081 15 1331 17 1152
1031 0.8883379203293511 -0.07734851928397056 -0.3819701999955831 22 22 22 0.04411638766092431 15 1392 17 1212
1032 0.9573539002590759 0.10523817403889017 -0.3812953511567597 57 52 48 0.13463898463129315 15 544 18 131
1033 0.831949935455642 0.02498227058330474 -0.38324875305440453 182 182 184 0.02318776291745678 15 954 18 430
1034 0.860156940767307 0.011951271148426614 -0.38332568931962613 167 173 173 0.05915600188204483 15 1021 18 549
1035 0.8319936320806789 -0.025114102867991078 -0.38336332650340627 160 160 159 0.06462035638844271 15 1234 18 764
1036 0.8587546247316247 -0.048403880131770244 -0.383292944786499 18 21 20 0.07359514421957926 15 1316 18 902
1037 0.8322446747889818 0.09823610791777818 -0.3826861070003817 142 138 135 0.24830629698917187 15 523 20 559
1038 0.8312608536950373 0.09165144762660174 -0.3819063900153133 190 196 198 0.20574431781751717 15 550 20 575
1039 0.8873202232926686 0.09025177506694919 -0.38265164013586433 29 33 28 0.12532938744449573 15 577 20 831
1040 0.8328760444138447 0.0566974623180102 -0.3837821437773937 98 97 99 0.2815056488249651 15 767 20 882 17 479
1041 0.8328760444138447 0.0566974623180102 -0.3837821437773937 98 97 99 0.2815056488249651 15 768 20 883 17 480
1042 0.8318057492881715 0.03699589999952906 -0.38564285592168396 179 182 184 0.022370538700593526 15 881 20 1010
1043 0.8335747508448174 0.03165751752310509 -0.38638143747937703 151 150 152 0.048216956272945574 15 911 20 1062
1044 0.8335747508448174 0.03165751752310509 -0.38638143747937703 151 150 152 0.048216956272945574 15 912 20 1063
1045 0.831915908726626 0.029203505405031124 -0.3856998000309961 135 135 141 0.059852510985356384 15 928 20 1085
1046 0.8329189627744079 0.021726029799474276 -0.38736737761336915 135 132 137 0.10945189212309665 15 969 20 1140
1047 0.9695198313486424 -0.03439785086283073 -0.38288523077238107 46 47 51 1.3972568907460905 15 1211 20 1868 23 2024
1048 0.8316234074917582 0.12247470634245598 -0.3844103394728321 141 136 137 0.6066958447965823 15 449 21 363 16 184
1049 0.8821433573833767 0.08040365707172666 -0.3777688763341737 27 30 31 0.1492079857040632 15 632 21 687
1050 0.8315143574698692 0.06883977728523191 -0.3823018462644494 181 187 189 0.15946444315765382 15 689 21 675 20 813 28 631
1051 0.8313657815639311 0.06152942652386387 -0.3801937268646116 189 187 188 0.06235047509409577 15 738 21 744
1052 0.8311250004745874 0.05561429004296763 -0.38366042128619304 122 118 117 0.3135242532024128 15 772 21 791 16 517 19 222 24 407 17 488
1053 0.8311250004745874 0.05561429004296763 -0.38366042128619304 122 118 117 0.3135242532024128 15 773 21 792 16 518 19 224 24 408 17 489
1054 0.8325717668876965 0.0555627930051757 -0.3834792863082031 200 200 202 0.2291352425012231 15 775 21 799 16 519 20 890
1055 0.8908923846270183 0.039577448306059894 -0.38291579317143754 169 177 176 0.11610333912191279 15 868 21 1032 22 853
1056 0.8942701179197449 0.03924768915727518 -0.38120077419223847 29 32 33 0.12426312769208808 15 870 21 1044
1057 0.8624669767934714 0.003702075047580712 -0.37825210595942355 168 171 170 0.1157087363584476 15 1078 21 1315
1058 0.8586424072897118 -0.0015644910124688856 -0.38670043454503017 28 31 32 0.07526827012453183 15 1100 21 1356
1059 1.0024790653852507 -0.01302591987597135 -0.3812885057958059 42 50 51 0.08531188888182928 15 1112 21 1576
1060 0.8845876800888247 -0.006505371977991139 -0.38328241761634674 29 33 28 0.5068814071593176 15 1115 21 1421 23 1978
1061 0.8845876800888247 -0.006505371977991139 -0.38328241761634674 29 33 28 0.5068814071593176 15 1116 21 1422 23 1977
1062 0.8968144932501492 -0.019437447227623285 -0.38675751544823245 184 185 181 0.10664159003947478 15 1173 21 1550
1063 0.8968144932501492 -0.019437447227623285 -0.38675751544823245 184 185 181 0.10664159003947478 15 1174 21 1551
1064 0.9508231002979061 -0.03917909533031619 -0.387781007065039 193 196 195 0.04196634823719887 15 1238 21 1677
1065 0.8895149586456578 -0.034836457642266665 -0.3860868698752112 29 30 26 0.13822393630870264 15 1248 21 1636
1066 0.8895149586456578 -0.034836457642266665 -0.3860868698752112 29 30 26 0.13822393630870264 15 1249 21 1635
1067 0.8742233426482221 -0.06052509297110478 -0.39257535879388594 32 28 29 0.11130886068158803 15 1340 21 1747
1068 0.8742233426482221 -0.06052509297110478 -0.39257535879388594 32 28 29 0.11130886068158803 15 1341 21 1748
1069 0.8888225672921798 0.10755036807906301 -0.3831285031580322 34 34 34 0.16572440149070228 15 504 22 388
1070 1.075677902583875 0.12460584440770223 -0.3808423256406845 121 121 121 0.06261762897866698 15 512 22 369
1071 0.8908368513236293 0.09368852707705544 -0.38223818177567165 186 185 185 0.3190782745775741 15 563 22 468 17 324 20 820
1072 0.9215555056938788 0.06972078277936689 -0.37999744440794797 46 38 29 0.10802116199369749 15 711 22 660
1073 0.9396498895881675 0.05584533858323694 -0.38011654092039593 178 186 183 0.06054978772571125 15 794 22 751
1074 0.8879146507079364 0.030778677171975563 -0.38029364366673285 46 32 20 0.03918896157029204 15 914 22 922
1075 0.9472170319696888 0.01982125808645115 -0.38265021334699867 31 38 37 0.023945089005738662 15 965 22 972
1076 0.9205518998352566 -0.0012085621974740335 -0.3820850462856384 26 29 28 0.393344499152134 15 1083 22 1128 21 1412
1077 0.8636442989064868 0.00017322530020780672 -0.3814317399425199 176 179 180 0.06131454784246763 15 1096 22 1164
1078 0.8636442989064868 0.00017322530020780672 -0.3814317399425199 176 179 180 0.06131454784246763 15 1097 22 1165
1079 0.9152322313278892 -0.006010718392342218 -0.38099442148739787 159 168 165 0.04164685738958458 15 1103 22 1171
1080 0.9152322313278892 -0.006010718392342218 -0.38099442148739787 159 168 165 0.04164685738958458 15 1104 22 1172
1081 0.9639193394188946 -0.019170609317140503 -0.3794076558288352 57 58 60 0.17009024294078104 15 1152 22 1214 24 1041
1082 0.8733266844974902 -0.04805462226223813 -0.3822254788528026 20 20 20 0.11089477051580277 15 1308 22 1378
1083 0.8733266844974902 -0.04805462226223813 -0.3822254788528026 20 20 20 0.11089477051580277 15 1309 22 1379
1084 0.8661283244533298 -0.055540182761371064 -0.3825550110338776 167 167 169 0.12810551542310883 15 1338 22 1409
1085 0.940673967394922 -0.06796674174327053 -0.37985593689822383 170 173 173 0.15702629823940603 15 1344 22 1406
1086 0.940673967394922 -0.06796674174327053 -0.37985593689822383 170 173 173 0.15702629823940603 15 1345 22 1407
1087 0.9911597985231881 0.10284210231238808 -0.381667953870915 42 48 48 0.22722485400695805 15 559 23 1128 24 261
1088 0.8873104919975203 0.028325565463779935 -0.3810782908341049 38 40 37 0.06731350665817036 15 930 23 1711
1089 0.9876612578966714 0.008557428906321454 -0.3803839209762103 60 66 68 0.3063594333069793 15 1013 23 1739
1090 0.8602684166468589 0.001386721168367175 -0.38079126943522035 39 30 40 0.13037589912106168 15 1091 23 1960
1091 0.9158533065213333 -0.011780951908214045 -0.38222750352117985 34 34 34 0.26893985688393734 15 1131 23 1967
1092 0.9542105377967424 -0.03331015016381639 -0.38194205561582417 44 44 57 0.3599055782549402 15 1215 23 2036
1093 0.9588006872745387 -0.03406787990681297 -0.3823701168141075 41 44 47 0.3744525436793155 15 1216 23 2033
1094 0.9517685051076208 -0.03439740551513925 -0.38344231221625186 41 44 47 0.3659168282983129 15 1220 23 2038
1095 0.9259083568011752 -0.04993434203001037 -0.38041085235380423 36 38 37 0.5208934764848023 15 1295 23 2111 24 1222
1096 0.9618329960102769 0.09406992869237532 -0.3804842770607343 183 184 180 0.24396277540702221 16 361 17 379 21 758
1097 0.8607164341081289 0.07406569646670227 -0.38380903277826 35 27 20 0.06043409156714633 16 413 17 406
1098 0.9780779861287906 0.08216463980919671 -0.3815688477662607 182 186 185 0.04974692668544984 16 429 17 457
1099 0.8714926828057802 0.06630897882068863 -0.38292267620954734 180 186 188 0.018658084983942474 16 471 17 463
1100 0.9858115342926879 0.07522715207957226 -0.3816197453293782 53 64 62 0.05213783026581442 16 479 17 495
1101 0.8331105942542252 0.03641538914324505 -0.38320211273501803 177 176 178 0.14166284268761561 16 636 17 604
1102 0.889628314815008 -0.016829043499044107 -0.38268913077577976 23 26 25 0.051181483733076655 16 940 17 927
1103 0.8315512530576967 -0.027708338329750424 -0.382740798433095 108 108 110 0.10968185307756327 16 1015 17 1000 25 1652
1104 0.8336211778440114 -0.035444961969064055 -0.3827548346201244 116 116 118 0.10437416348474289 16 1056 17 1061 24 1153
1105 0.8336211778440114 -0.035444961969064055 -0.3827548346201244 116 116 118 0.10437416348474289 16 1057 17 1062 24 1154
1106 0.8318324368874563 -0.037929758487570735 -0.38330642986079644 88 87 89 0.02863761831250095 16 1071 17 1085
1107 0.8318324368874563 -0.037929758487570735 -0.38330642986079644 88 87 89 0.02863761831250095 16 1072 17 1086
1108 0.9208583114383895 -0.06321654207162254 -0.3810956747227317 19 24 22 0.493867685895967 16 1141 17 1162 18 976
1109 0.9408446901916776 -0.07313598677224246 -0.3799716784757736 26 26 27 0.09818472261245327 16 1160 17 1191
1110 0.8316434652404885 0.11224236378499312 -0.3869705685702984 209 208 212 0.4732943704844935 16 218 18 59 21 384
1111 0.9167570263076689 0.11137557949228682 -0.38262846469363476 31 34 35 0.08418107920360653 16 246 18 98
1112 0.8317029504394331 0.0693336149720241 -0.38459178333116817 186 186 188 0.34513654299234287 16 426 18 167
1113 0.8320030916687463 0.03609698866712599 -0.3834872599390001 117 113 114 0.18866532548037518 16 637 18 362
1114 0.902042999814675 0.03174438268603599 -0.38219351023335185 171 180 178 0.11439786511773914 16 672 18 446
1115 1.0000099611333186 0.03464236522849575 -0.37896542979138936 58 69 69 0.3157790449838017 16 675 18 494
1116 0.8333078169765619 0.009377613250115577 -0.3833793959448945 169 167 170 0.07342375870616207 16 793 18 544
1117 0.8319645922974978 -0.008445474532456015 -0.3832769967797527 107 104 105 0.03870956102439437 16 902 18 652
1118 0.8335788461134799 -0.013206406640387356 -0.38336024508431515 162 165 164 0.05180182640487669 16 930 18 687
1119 0.950841692127822 -0.03364350469009801 -0.3814567851225338 37 40 41 0.3545637549633024 16 1004 18 845
1120 0.8335130474550859 -0.037716821818084015 -0.38350312099153566 86 80 84 0.208744258734183 16 1068 18 839
1121 0.8335130474550859 -0.037716821818084015 -0.38350312099153566 86 80 84 0.208744258734183 16 1069 18 840
1122 0.8318922910861689 0.08334186815313911 -0.38568006519009074 152 149 150 0.08844020640686225 16 345 19 105
1123 0.9366983743974869 0.07786324799294056 -0.38118565002421884 36 40 39 0.20001319548157537 16 431 19 184 21 825
1124 0.872911711852369 0.012851098154998299 -0.38338483461913986 19 24 22 0.0707889144727522 16 777 19 474
1125 0.831961287167664 -0.004505587089281207 -0.3833859665789337 178 178 180 0.13274123512993843 16 886 19 566
1126 0.8334060699397894 -0.007835063054289864 -0.38319426227170456 104 98 101 0.12272837988030907 16 895 19 585
1127 0.9550237358972005 -0.020505744465264597 -0.37945873873228825 201 202 198 0.5897893945365843 16 943 19 682 21 1597 23 1973
1128 0.8318688945209826 -0.03269360802995023 -0.38307677509647015 94 89 90 0.13741469635445167 16 1036 19 742
1129 0.8318688945209826 -0.03269360802995023 -0.38307677509647015 94 89 90 0.13741469635445167 16 1037 19 743
1130 0.8317797619287414 0.09842404517672845 -0.38546261996161063 186 185 185 0.04530462166630627 16 253 20 560
1131 0.8317797619287414 0.09842404517672845 -0.38546261996161063 186 185 185 0.04530462166630627 16 254 20 561
1132 0.8318334053038706 0.07392338952844593 -0.3828752916034409 188 188 190 0.05057444542979925 16 392 20 766
1133 0.9461832828606742 0.08169986462284566 -0.3815377703316903 37 40 40 0.22293256736943073 16 420 20 1000
1134 0.9328999622164744 0.07451743977755415 -0.3801882022291343 193 199 200 0.19720985331149032 16 446 20 1015 23 1326
1135 0.8334416545822094 0.04752769417639615 -0.38378854376551036 194 194 198 0.1370860597894332 16 564 20 938
1136 0.8318713037054233 0.04609108332933745 -0.3840158303692702 148 147 149 0.17014629631198563 16 573 20 940
1137 0.8318713037054233 0.04609108332933745 -0.3840158303692702 148 147 149 0.17014629631198563 16 574 20 941
1138 0.9868003328278935 0.03710092870701426 -0.3730276128958145 80 86 86 0.678134724243334 16 656 20 1426
1139 0.8566221909113381 0.015390361911098074 -0.3830170511196442 34 34 36 0.2351676994785453 16 762 20 1253
1140 0.9636785483909139 -0.015875224582607365 -0.3758015662281353 42 47 52 0.7394448265904388 16 921 20 1740
1141 0.9770076997346884 0.11281453246001494 -0.3806409470535732 50 56 58 0.24846347075003206 16 274 21 654
1142 0.9770076997346884 0.11281453246001494 -0.3806409470535732 50 56 58 0.24846347075003206 16 275 21 655
1143 0.9385794170395166 0.08606943932303332 -0.3782068414595468 35 38 37 0.0961412245395803 16 381 21 769
1144 0.989618872938875 0.072759953834009 -0.3758894489592452 63 63 63 0.21624659205192043 16 483 21 928 23 1303
1145 0.989618872938875 0.072759953834009 -0.3758894489592452 63 63 63 0.21624659205192043 16 484 21 927 23 1304
1146 0.9682895656465778 0.05013895421558779 -0.37600805332254794 181 187 185 0.06074073166075713 16 587 21 1058
1147 0.9773664505882528 -0.0008541862076212824 -0.3723289608693609 63 69 69 0.014901629300261485 16 852 21 1480
1148 0.9773664505882528 -0.0008541862076212824 -0.3723289608693609 63 69 69 0.014901629300261485 16 854 21 1481
1149 0.9286870081037006 -0.048557142736253035 -0.3782500430866826 172 179 173 0.46661765383540177 16 1085 21 1728
1150 0.8735518077381298 0.07637429426830114 -0.388330949962167 21 27 25 0.4350815749156876 16 416 23 1364
1151 0.8722889335414135 0.07483511527674777 -0.3827399458775003 24 30 30 0.560026698536014 16 417 23 1365 26 565
1152 0.9284479512206623 0.037242546844474186 -0.3832575045259466 30 36 34 0.10394838893851452 16 648 23 1605 24 629
1153 0.9284479512206623 0.037242546844474186 -0.3832575045259466 30 36 34 0.10394838893851452 16 649 23 1606 24 630
1154 0.898489707977678 0.03507536962301162 -0.3825589764096939 44 47 50 0.09666085147581471 16 655 23 1656
1155 0.9196025853070589 -0.0011861750983089554 -0.37980842655968955 33 36 35 0.1895124528677465 16 857 23 1894
1156 0.9758470681587692 -0.01112969630617083 -0.3768161467494339 50 57 60 0.3059509619641251 16 890 23 1888 21 1559
1157 0.9764921802216437 -0.011219889757839673 -0.3778398656379893 55 63 64 0.2951840164099313 16 891 23 1889 24 989 21 1560
1158 0.9435975234712827 -0.03637752576717843 -0.37436831915897717 193 194 190 0.5093512490376179 16 1026 23 2055
1159 0.9828976754006058 -0.0509435936877078 -0.36991458035694863 42 48 50 0.5771013441453039 16 1081 23 2072
1160 0.8311966927228455 0.13442347611379554 -0.38217268253243514 168 162 166 0.1476217718017554 16 127 24 104
1161 0.8311966927228455 0.13442347611379554 -0.38217268253243514 168 162 166 0.1476217718017554 16 128 24 105
1162 0.833281230758003 0.10794808510382466 -0.38179921568635194 191 190 190 0.11991188421464961 16 224 24 145
1163 0.8295302890785795 0.09773194134640474 -0.3852046588345141 190 193 192 0.10863303654652659 16 257 24 160
1164 0.8307770338936836 0.08668211167297118 -0.380905929009103 184 184 185 0.10903171940453271 16 305 24 189
1165 0.8305071753429855 0.08323443448110192 -0.3809311930614125 141 141 143 0.12173724837944641 16 327 24 206
1166 0.8314462981531309 0.07997508803995465 -0.38119038400633376 180 179 179 0.08185171984872992 16 355 24 225
1167 0.8314462981531309 0.07997508803995465 -0.38119038400633376 180 179 179 0.08185171984872992 16 356 24 226
1168 1.072079133601592 0.10618238218907283 -0.3831008985404948 126 125 122 0.5319161770085946 16 365 24 323
1169 1.0031637802114481 0.08949635457098344 -0.3825212959067705 68 75 79 0.282093829545223 16 404 24 360
1170 0.8295675670636797 0.05395374215109618 -0.38195501379453356 182 185 184 0.08114380917731087 16 524 24 422
1171 0.8299458286188701 0.05137377407165724 -0.38256005068229504 181 184 185 0.09012262010179846 16 543 24 443
1172 0.8315964108411036 0.04743310507799124 -0.3817630070873079 178 177 179 0.06851015141610262 16 563 24 474
1173 0.9651128988198461 0.03211381759249556 -0.380960670589694 176 184 181 0.04306241140985624 16 686 24 681
1174 0.834345431470027 0.010376730643472252 -0.38172772518390724 173 176 177 0.053803986828971924 16 785 24 774
1175 0.8309580593257976 0.008265616058564726 -0.3809124757888398 124 123 125 0.17441538303443285 16 803 24 788
1176 0.9853867650865062 0.002090828297553411 -0.38078829248543555 66 68 69 0.2108299778593572 16 833 24 903
1177 0.831853276479558 -0.0021691890736380047 -0.38144869691719846 174 179 180 0.14780405897575782 16 869 24 887
1178 0.8309991318104264 -0.007776013635189724 -0.3820126253592233 170 173 174 0.00024339383777578433 16 897 24 931
1179 0.8309991318104264 -0.007776013635189724 -0.3820126253592233 170 173 174 0.00024339383777578433 16 898 24 932
1180 0.8322974274029997 -0.014871277206455627 -0.38202756105451846 172 178 178 0.010187358090318283 16 942 24 990
1181 0.8949155682241395 -0.018410503456615834 -0.38112457005638817 160 167 167 0.16329681828450332 16 945 24 1030
1182 0.8949155682241395 -0.018410503456615834 -0.38112457005638817 160 167 167 0.16329681828450332 16 946 24 1031
1183 0.8880471719706987 -0.03366200675307317 -0.3814197701073854 28 31 30 0.10111009628337625 16 1028 24 1130
1184 0.8319804959169463 -0.03133111321107762 -0.3822670378524615 115 114 118 0.08150860397657654 16 1030 24 1118
1185 0.8324680510637397 -0.0335773309782315 -0.382315051797896 166 169 170 0.09313347352535196 16 1043 24 1135
