# 3D point list with one line of data per point:
#   POINT3D_ID, X, Y, Z, R, G, B, ERROR, TRACK[] as (IMAGE_ID, POINT2D_IDX)
# Number of points: 432
95 1.0031870236270308 -0.03586829057392359 -0.3811499216926151 43 49 49 0.36305816988550077 3 1594 7 1548
96 0.9658923184959455 -0.0896494928150649 -0.38137247423669296 38 37 46 1.4113186905061985 3 1770 10 1229 13 1470
97 0.8293700855545736 0.12102413331175392 -0.3864694490724564 192 196 196 0.1587223975570326 3 933 11 196
98 0.9267363250037777 -0.05516914685357555 -0.38156035982469605 207 213 213 0.11041522412760009 3 1681 11 2444 31 2013
99 0.8335061336774626 0.06686897360753039 -0.3847704433651916 177 180 181 0.27008379452091125 3 1177 26 543 29 626 28 656
100 0.955412639115418 0.04359194325950248 -0.38213618000295285 179 185 185 0.07410369447360768 3 1299 26 873
101 0.9589527312211176 0.03745702437132467 -0.38274184104384235 53 61 62 0.07810599100708189 3 1320 26 912
102 0.9483381122414998 -0.0055528135668330815 -0.38286874608031507 39 47 46 0.1640931204645944 3 1506 26 1123 28 1204
103 0.9483381122414998 -0.0055528135668330815 -0.38286874608031507 39 47 46 0.1640931204645944 3 1507 26 1124 28 1205
104 0.8309784232765426 -0.03699262567088894 -0.3828389595328933 169 176 179 0.08821224474687368 3 1649 26 1161
105 1.0031255752757002 -0.07467079736041139 -0.3799018033097643 44 46 51 0.37579292791476987 3 1720 26 1410
106 0.8431589982873156 0.007861527000320454 -0.38097529743625047 172 178 178 0.16721958100718473 3 1464 27 740 30 1379
107 0.9554211739498187 0.04361526796326593 -0.3821439885229436 188 191 192 0.10324440677978113 3 1300 28 821
108 0.9104481653000136 0.01963241679071765 -0.3842973350363824 28 31 32 0.39611117290545944 3 1401 28 1028 25 1574
109 0.9705258756707271 -0.06723459391493077 -0.3777093826647868 34 37 38 0.21995677583364898 3 1713 28 1475
110 0.9705258756707271 -0.06723459391493077 -0.3777093826647868 34 37 38 0.21995677583364898 3 1714 28 1476
111 0.9762213593986091 -0.07239885892443636 -0.37608904531477677 28 34 37 0.273883514434753 3 1724 28 1489
112 0.9016816368105381 0.1053228131794889 -0.3820877444902358 186 186 182 0.26051271975527923 3 989 29 470 27 321
113 0.9103632367549782 0.08803076661536234 -0.38456357266345914 180 188 185 0.18244388025761987 3 1065 29 532 31 1005 25 1181 28 502
114 0.9101502416235843 0.08206141696414239 -0.3849481241173432 30 36 36 0.06905251703326583 3 1093 29 551
115 0.9101502416235843 0.08206141696414239 -0.3849481241173432 30 36 36 0.06905251703326583 3 1094 29 552
116 0.8295124760876221 0.06896085004546412 -0.3847809049715729 187 190 191 0.052175640061207194 3 1161 29 612
117 0.8335293070185725 0.06306195264028583 -0.3846889350375039 181 183 182 0.19532825476498286 3 1206 29 647 26 560
118 0.9163279854929973 0.05056976610765797 -0.3834122898604018 26 32 30 0.057044063876181286 3 1269 29 710
119 0.9163279854929973 0.05056976610765797 -0.3834122898604018 26 32 30 0.057044063876181286 3 1270 29 711
120 0.8325364484730088 0.09914190799732532 -0.3848886401588887 142 138 142 0.0442174513145465 3 1000 30 686
121 1.0786132075092099 0.11281733044328685 -0.3835237969347103 98 97 100 0.04944448635905132 3 1004 30 653
122 0.9282091704230956 0.1032285696414114 -0.3839398760925581 24 30 28 0.08192406757976976 3 1007 30 675
123 0.9777564417495239 0.08792535737035875 -0.38056191864144495 33 41 38 0.0018744472359295905 3 1076 30 784
124 0.8309402733600988 0.08088485433452221 -0.3851323727401904 139 140 144 0.058063374959009345 3 1082 30 833
125 0.9376437282483304 0.06003540533308938 -0.3822755384689634 34 35 35 0.22457577566526865 3 1229 30 996 29 669 31 1176
126 0.8300992260451657 0.021290367515639827 -0.3856140931519628 176 182 182 0.031383461024445065 3 1403 30 1272
127 0.9267587917906829 -0.0016398219318860593 -0.38203186936567096 29 28 35 0.042315628146894095 3 1494 30 1404
128 0.9737114823900671 -0.005477751042864958 -0.3840495654289766 30 36 34 0.09835546595957655 3 1501 30 1413
129 0.8726737290700662 -0.001121484748289948 -0.384810237175041 24 30 29 0.09870012112521699 3 1502 30 1423
130 0.9680204591957281 -0.016149733411357756 -0.38192305992896947 28 34 36 0.2521058898112798 3 1540 30 1482 31 1651
131 0.8320593172407872 -0.027001302260220437 -0.3834737366396105 176 176 177 0.007222560220010024 3 1611 30 1613
132 0.8850559528757866 -0.06868651379851849 -0.3824819688214457 24 27 26 0.07055983181933707 3 1739 30 1770
133 0.8544756184896798 -0.013408407827798957 -0.38348991489557327 37 38 39 0.2415699138170422 3 1552 31 1866
134 0.9900732645644744 -0.04639117285101251 -0.38052818446228664 36 42 44 0.08076383717367523 3 1634 31 1829
135 1.0840266744303892 0.08324931481626795 -0.3918567787969115 160 169 168 0.000739843997494412 4 1516 6 1009
136 1.0793932210051327 0.08279023147812645 -0.3928467481464326 187 192 186 0.049321196861694255 4 1518 6 1011
137 0.8604761422329783 0.0662276045390688 -0.3835281372663318 48 35 35 0.25696684526655594 4 1575 6 962
138 0.8604761422329783 0.0662276045390688 -0.3835281372663318 48 35 35 0.25696684526655594 4 1576 6 963
139 1.101420367070429 0.059856258654248706 -0.3916264878883485 141 145 144 0.21362097622608603 4 1683 6 1142 9 791
140 1.0907225627580317 0.049475813424650406 -0.38597845577784007 103 106 107 0.09282526512065113 4 1743 6 1198
141 1.0905034727894471 0.047546252476982444 -0.39173207519999703 147 155 154 0.027768972230351747 4 1752 6 1208
142 1.1096654983531562 0.03207038463375998 -0.39054593888114936 110 110 110 0.10443913125354236 4 1840 6 1301
143 1.0067510183488035 0.024037292661497237 -0.3829041298281941 78 81 84 0.07366054379166176 4 1898 6 1334
144 1.0067510183488035 0.024037292661497237 -0.3829041298281941 78 81 84 0.07366054379166176 4 1899 6 1335
145 1.0990546344386294 0.02033128977671183 -0.3923192197717692 112 118 120 0.28448111917661867 4 1916 6 1368 9 1053
146 0.8568473216692024 0.015629081182533783 -0.3832353785396793 39 39 42 0.2785683619414728 4 1999 6 1370 10 641
147 0.8607542093346299 0.012154030991060152 -0.385345558772281 178 184 185 0.24060946306775094 4 2030 6 1404 7 1211
148 0.9522228531935938 -0.015114139826707592 -0.38358676872935304 47 51 58 0.04476585007200675 4 2202 6 1605
149 0.9482714421037722 -0.0430598478505763 -0.3816756430317925 32 37 42 0.046801091052505156 4 2372 6 1803
150 0.9482714421037722 -0.0430598478505763 -0.3816756430317925 32 37 42 0.046801091052505156 4 2373 6 1804
151 0.91608216856782 -0.0682664357624133 -0.38177856980761543 168 172 170 0.17421991459085925 4 2515 6 1994
152 0.91608216856782 -0.0682664357624133 -0.38177856980761543 168 172 170 0.17421991459085925 4 2516 6 1995
153 0.9036978440684484 -0.08191409391506839 -0.37737694475460976 28 28 28 0.2687859636268234 4 2586 6 2081
154 1.0868686668942502 0.10248509964493499 -0.39046484244319063 153 159 159 0.17361176586068908 4 1374 7 678
155 1.1063265849328165 0.09530273977751863 -0.3898148902936568 101 106 102 0.1665243234857951 4 1423 7 760
156 1.0837973769208276 0.0898135947054025 -0.3906121627111814 133 141 141 0.11923631577767156 4 1457 7 785
157 1.0837973769208276 0.0898135947054025 -0.3906121627111814 133 141 141 0.11923631577767156 4 1458 7 786
158 1.0909251236180997 0.013096043372741634 -0.3884026910851688 97 101 96 0.1455635715348844 4 1967 7 1273
159 0.9808164096456048 -0.03776032604441317 -0.38416943475403914 44 52 53 0.11436709269399725 4 2329 7 1557
160 1.109180871885986 0.07817054136490208 -0.3978569078325738 138 144 144 0.7142694277352365 4 1560 8 796
161 1.0848747617381937 0.07601729382519296 -0.39955137454763223 191 195 190 0.6622230191411462 4 1581 8 793
162 1.1020261251916568 0.045073800709296764 -0.3978800052669958 100 106 105 0.43817686668890776 4 1767 8 1002
163 1.1103101453528326 0.04026732611387692 -0.40022651940260406 135 141 140 0.45078042362769627 4 1792 8 1027
164 1.1046700597110977 0.024036508944542685 -0.39912293151152695 96 99 94 0.2900645891697689 4 1881 8 1105
165 1.1046700597110977 0.024036508944542685 -0.39912293151152695 96 99 94 0.2900645891697689 4 1882 8 1106
166 1.097159490087416 0.019548363430768205 -0.4009515774569715 106 110 108 0.2821962481840596 4 1918 8 1130
167 0.9548609442636544 -0.07951527048079321 -0.3882581604599912 40 45 52 1.646785197450308 4 2531 8 1761 9 1650
168 1.0842690506526944 0.07211239720769842 -0.3916023231538384 163 174 172 0.10933965917934368 4 1607 9 676
169 1.084405534214358 0.06482831121507354 -0.392093114398955 160 166 164 0.07573968748765394 4 1653 9 731
170 1.1019637947543512 0.018584650050320135 -0.39126368036701714 126 130 126 0.0017760178056811166 4 1922 9 1072
171 0.8312214962983085 0.0912039204602353 -0.38233868409314165 130 129 133 0.062063184839855234 4 1326 10 201
172 1.002167436158147 0.050512071580669775 -0.37973844489842457 63 76 76 0.03995941490586096 4 1723 26 899
173 0.8325769136621435 0.0377740842370182 -0.38418940899903914 117 117 117 0.04263772077212374 4 1813 26 718
174 0.9572098254062739 0.10574131415723272 -0.3809058252231683 55 51 51 0.11326833623739248 4 1303 27 386
175 0.8296807004580398 0.048092384961499125 -0.383350463288652 185 185 185 0.16882241594932074 4 1730 27 460
176 0.9541602670135604 -0.07853016407211152 -0.37946091694796125 174 184 182 0.014484154407156289 4 2538 27 1262
177 0.8326000954076327 0.06719529183851825 -0.3854676291285893 136 133 135 0.07954836153125064 4 1550 29 625 30 950 26 539
178 0.8345503716461748 -0.025969633792631532 -0.38095189519670747 178 178 180 0.1623782712602461 4 2354 29 1007
179 0.857660861781054 0.07613850113248878 -0.38358090627730557 33 34 35 0.12819724559977896 4 1463 30 860
180 0.8637948222876546 0.06641382454881228 -0.3836524070160986 179 185 187 0.052857661481975 4 1574 30 951
181 0.8324440611787608 0.021041365502888414 -0.38480900926058526 129 129 133 0.14023707172495667 4 1963 30 1274
182 0.8322975775736519 0.004095625815349382 -0.38465890951380416 144 140 145 0.1411340983041509 4 2109 30 1407
183 1.0850236613647959 -0.023048357323168473 -0.3867673652522729 75 72 77 0.30771358064126325 4 2191 30 1467
184 0.8328385748062392 -0.02279413159187468 -0.3846762134367895 142 138 142 0.4016828085024729 4 2324 30 1583 29 988 31 1989
185 0.8909741033448034 -0.02886392208331358 -0.38196962002620966 163 169 171 0.07838436121774905 4 2331 30 1591
186 0.9066303451034785 0.1099050670887149 -0.3847645311615607 42 41 43 0.028940355706617155 4 1240 31 832
187 0.9588219923087165 0.09500837249934423 -0.38290400842083616 43 33 25 0.012011011177484121 4 1356 31 892
188 0.8851870628628459 0.019168846268008174 -0.3835354269111851 30 30 32 0.2501484174608288 4 1969 31 1549 6 1348
189 0.8852003500439304 0.019136310946447736 -0.3836271275510308 34 37 38 0.2434697931518983 4 1970 31 1550
190 0.8640561120116981 0.00365676201349318 -0.38398549854644287 192 195 196 0.3283987376892997 4 2103 31 1700
191 0.8640561120116981 0.00365676201349318 -0.38398549854644287 192 195 196 0.3283987376892997 4 2104 31 1698
192 0.8640561120116981 0.00365676201349318 -0.38398549854644287 192 195 196 0.3283987376892997 4 2105 31 1699
193 0.9433756751451218 0.11443692807622632 -0.39344874004598707 39 47 48 0.33218177621622275 5 1224 6 656
194 0.9507692024377707 0.08357787695074677 -0.3892196597939052 41 47 46 0.2147934982310107 5 1425 6 885
195 1.0094207790290102 0.05159231907551746 -0.39058792378998475 59 69 76 0.047551462786610134 5 1681 6 1156
196 1.1010106117800482 0.024570896810485895 -0.39494684864937973 97 96 99 0.2614866365806203 5 1842 6 1352
197 0.8801951453687993 -0.07455322082499397 -0.3854520206151336 25 25 27 0.5324628554000089 5 2446 6 2057
198 1.1044530930946193 0.08424071275030734 -0.395862228717775 112 115 114 0.18351270308402814 5 1480 7 866
199 0.8608118072122904 0.06628748635682942 -0.38472845983699694 56 45 45 0.20835739836734968 5 1535 7 693 30 957 31 1243
200 1.1136884253084056 0.11800754339837571 -0.4014615674835494 132 140 139 1.0594698430659089 5 1294 8 533
201 1.1068488418851155 0.07898084396803123 -0.3982667763381478 112 117 118 0.7527249683755487 5 1516 8 789
202 0.890829027951055 0.046009114046229094 -0.38842448442572985 29 32 35 0.9640855568092969 5 1708 8 837
203 0.8547354624476586 0.08967690516377208 -0.38550697501909137 29 35 35 0.4622457590153308 5 1333 29 516
204 0.8329665727522569 0.05488153151528385 -0.3843448773100895 110 110 112 0.44461035190354725 5 1625 29 693 30 1033 24 424 26 613
205 0.83297142888778 -0.022766445776750098 -0.3852966602193845 139 139 141 0.1748421997658785 5 2231 29 989 31 1990
206 0.8292161171129364 0.1249686438490669 -0.3851164422915299 195 195 197 0.1836724664147822 5 1099 30 548
207 0.8289009710887814 0.11979362677975687 -0.38309782367793843 195 195 195 0.11184732048451906 5 1119 30 575
208 0.8321791588546082 0.038887791499609387 -0.38436087190539253 182 184 187 0.0636753576971834 5 1753 30 1138
209 1.0872712431995533 0.027991363659963485 -0.3875555865828159 147 153 153 0.2981231452412688 5 1821 30 1162 31 1218
210 0.8300569895337157 0.024225653450066904 -0.38480107761032467 185 188 191 0.16935814597549514 5 1879 30 1251
211 0.88462418219309 0.019464086591235503 -0.3822851122606159 25 28 29 0.2088958043705692 5 1902 30 1265
212 0.8327527544585129 -0.03363096296627192 -0.3837924384779736 176 176 180 0.42049834746977505 5 2300 30 1655
213 0.8892692440517859 0.03116547654563714 -0.38311696778631515 83 65 63 0.13471808395970664 5 1809 31 1466
214 0.8542587269881756 0.02587213643144213 -0.38617478193050947 34 39 39 0.014922549184024338 6 1284 7 1081
215 0.8872556841799522 0.019718973551517947 -0.38970678872043246 36 38 44 0.012570600076768915 6 1349 7 1152
216 0.8873876465902819 -0.011801394628160733 -0.39082415944483484 199 202 205 0.2853627667546855 6 1595 7 1388 9 1158
217 0.9181766830339295 0.08919076149269747 -0.38710585960210503 36 39 39 0.8629959935867157 6 794 8 498 9 368
218 0.9525212268181386 0.08450515349537703 -0.3928973472358843 44 51 54 0.6828616570307908 6 886 8 566
219 0.9029718486640091 0.00742195662694797 -0.39799784551901796 25 31 31 1.1773660746478285 6 1442 8 1156
220 0.9117799012365215 -0.08669326994722563 -0.40626279799685144 44 44 40 1.100921910317475 6 2077 8 1809
221 1.1061853204209333 0.08196481779649376 -0.39497619498654674 138 147 143 0.0295012091461444 6 1036 9 643
222 0.8596132048944672 -0.0007990600891691667 -0.390012972169422 35 38 41 0.4298214867816987 6 1513 9 1047
223 1.079481114682204 -0.004415069587152765 -0.39358287604000497 193 198 196 0.0912576750267126 6 1523 9 1183
224 1.1021205333465476 -0.012671657517932868 -0.39443082960567255 142 149 148 0.07898348132021282 6 1562 9 1237
225 0.8896968062458035 0.03157198751849856 -0.38515354421729464 94 86 80 0.045411334008914825 6 1247 30 1176
226 0.9288781250393164 -0.054309580940977 -0.3810469106926423 180 183 184 0.3225426493870212 6 1881 30 1699 27 1164 28 1431
227 0.9835606028926424 -0.06517611201438925 -0.38244429948727554 32 35 36 0.11433517700147997 6 1935 30 1718
228 0.8792311738368696 0.01939228397023442 -0.38440737061666636 192 194 200 0.16638682506272848 6 1341 31 1556 30 1266
229 0.8803602069627916 0.08852490142030475 -0.3881311452669882 31 32 29 0.026326566845781187 7 552 9 308
230 1.0921907776020794 0.09683090855010659 -0.39411262868992175 122 126 127 0.0812557628118851 7 729 9 529
231 0.8605922186428758 0.06379517743732492 -0.3879941201759977 201 202 206 0.2482735491172278 7 736 9 466
232 1.0936613972952687 0.04738977814072936 -0.399213136848291 156 162 163 0.09811478422471226 7 1073 9 888
233 0.8547992309201478 0.026872764704960053 -0.3862183151280929 37 40 41 0.41421820126255016 7 1075 9 772 31 1548
234 0.9704888027230765 0.033393990203882104 -0.3897606772144116 190 200 203 0.21706895225615824 7 1096 9 872
235 0.8814705088076784 0.020302689281143853 -0.39146460007523926 197 200 203 0.11316534684028477 7 1149 9 894
236 1.1010700653330938 0.033238094506553476 -0.3976644747850503 151 160 159 0.10112671780822213 7 1157 9 987
237 0.9522333633716186 0.021016738474208957 -0.3916174674288764 46 51 54 0.12588258942181224 7 1176 9 962
238 1.1113078419281393 0.027643885684051114 -0.3950287816695966 128 136 135 0.09739076805969303 7 1203 9 1021
239 1.109737823743747 0.015258163124295553 -0.3946825932509433 95 102 103 0.08197280590243443 7 1265 9 1094
240 1.1030058654668586 -0.0008566420900410305 -0.3976576671097374 154 162 159 0.14298037198838112 7 1359 9 1177
241 0.8880058677228435 -0.011538753126894927 -0.39276030028850495 192 194 200 0.11600384653135877 7 1387 9 1157
242 0.9584521518602285 -0.01667434536769499 -0.3920144375355561 198 205 209 0.09212621659810376 7 1428 9 1213
243 1.1069429256269916 -0.01646154009996588 -0.3988818291604604 145 151 151 0.11033066328499402 7 1431 9 1266
244 1.0071507277071552 -0.0635563301865 -0.3944090174743962 187 198 196 0.12573027173527554 7 1709 9 1522
245 1.0071507277071552 -0.0635563301865 -0.3944090174743962 187 198 196 0.12573027173527554 7 1710 9 1523
246 0.8774187665105033 0.04869013772787206 -0.3798981249252926 33 33 35 0.07032269216088265 7 913 10 467
247 0.8774187665105033 0.04869013772787206 -0.3798981249252926 33 33 35 0.07032269216088265 7 914 10 468
248 0.9040314147014665 0.04501506247296963 -0.3767842048265202 41 38 42 0.25288585022506704 7 971 10 493
249 0.9578107387735005 -0.05567930407518119 -0.37739866406877537 39 47 46 0.575924202189494 7 1666 10 1056
250 0.9632369535812034 0.03098532038107141 -0.3772180585396084 202 202 204 0.02190031486539259 7 1093 11 1301
251 0.949854346796365 0.028895067062509026 -0.37805909772930313 49 55 57 0.2019105323739797 7 1108 11 1328
252 0.9452695389732079 0.024279797853288418 -0.3784417711059371 203 203 203 0.1982930830270132 7 1140 11 1390
253 0.8675645933994326 0.10457886485424128 -0.3919711124272863 26 31 30 0.05848525144531045 7 455 31 940
254 0.8705289711035878 0.06190944320916712 -0.38749152038548873 33 39 39 0.1741880859873713 7 782 31 1277
255 1.0874297190036677 0.02650955964985123 -0.3850894137464047 104 107 110 0.9637930786405347 7 1198 31 1220
256 0.9828655467656919 -0.046308516790867005 -0.38157702906010016 42 45 51 0.6489818357214752 7 1606 31 1841
257 0.878175981523698 -0.038600330930321204 -0.38299368754169305 32 35 36 1.2100129932748285 8 1488 9 1339
258 0.8840035338433938 -0.0388104817201065 -0.3827845592640294 189 195 197 1.084799584465238 8 1489 9 1341
259 0.8826972391726017 -0.06997933534085538 -0.37738944522566803 30 35 36 1.1360908646201024 8 1728 9 1586
260 0.9555128088269229 0.09184116087341583 -0.3630131895139376 38 44 43 0.45831258995674284 8 480 10 237
261 0.9529247501175878 0.03852335532499975 -0.3651015506127964 48 51 50 0.5191844696603602 8 934 10 532
262 0.9393542160320639 0.015658364938597815 -0.36615556262912274 40 48 50 0.687078098473606 8 1073 10 644
263 0.9393542160320639 0.015658364938597815 -0.36615556262912274 40 48 50 0.687078098473606 8 1074 10 645
264 0.9508535356117744 -0.027833599896611026 -0.36187716096228795 51 59 60 0.46802906894651003 8 1391 10 903
265 0.9815451672679344 -0.05136200457682267 -0.3569493080745824 61 71 74 0.10270597791560103 8 1549 10 1031
266 0.9586361494286592 -0.07361840128767237 -0.3560929843025675 188 194 194 0.1425320767507382 8 1733 10 1158
267 0.8831975464361976 0.055051956006254066 -0.37947530757277265 34 37 38 0.5255586723507358 8 711 11 920
268 0.8827310476065529 0.017340591425223893 -0.37800759800838946 35 37 43 0.5977610575492139 8 1045 11 1425
269 0.8827310476065529 0.017340591425223893 -0.37800759800838946 35 37 43 0.5977610575492139 8 1046 11 1426
270 0.8686699796791727 0.06060574933981778 -0.3831507600587926 30 30 32 0.7271353239357984 8 634 12 293
271 0.8775116309588423 0.05536556899126804 -0.3816426973897068 184 187 188 0.5624762880525459 8 698 12 326
272 0.8771950209344704 0.04874068372742748 -0.38093753233814154 32 31 33 0.6380371790130627 8 779 12 365
273 0.8771950209344704 0.04874068372742748 -0.38093753233814154 32 31 33 0.6380371790130627 8 780 12 366
274 0.9410710182541122 -0.00851353658160387 -0.3703996633549092 34 42 41 0.3883264344494516 8 1263 12 663
275 0.8317566989986434 0.11520732781759076 -0.38418656404597024 191 187 187 1.3897979304664285 10 113 13 536
276 0.8323541786897788 0.044919721811975385 -0.38377416105984785 115 111 112 0.4475454825721778 10 470 13 817 19 290
277 0.831588663808281 0.04289742679928124 -0.38156217709047396 171 174 177 0.13056328824782043 10 477 13 823
278 0.966173973951452 -0.08970219723713943 -0.3816469517473889 38 36 38 1.6119561752019875 10 1230 13 1471
279 0.8918939644029871 -0.09271891762958735 -0.3825365436126054 149 153 148 1.6322312411030138 10 1242 13 1492
280 0.8292125103678459 0.09053935351387118 -0.38345789387791135 186 186 186 0.19330907735318792 11 418 13 584
281 0.8320999599678348 -0.020984040233980546 -0.38363438308512454 152 162 161 0.467784421146589 11 1963 13 1193
282 0.8294666963873522 0.07686322017061922 -0.38292589971356933 181 187 187 0.16827782171724315 11 579 14 392
283 0.8459810496083436 0.059111214348450056 -0.3855177540941251 179 185 183 0.09921638692832832 11 859 14 523
284 0.889076096194835 0.030901272371716835 -0.38407167848403817 41 33 26 0.6768367718852849 11 1268 14 677
285 0.889076096194835 0.030901272371716835 -0.38407167848403817 41 33 26 0.6768367718852849 11 1269 14 678
286 0.8331922326766459 0.10711197319885787 -0.3862234621709167 136 128 131 0.339997947799153 12 90 13 550
287 0.9092415772177252 0.08154087843274797 -0.38377161062865817 19 25 25 0.03948314791719 12 204 13 654 16 396
288 0.9092415772177252 0.08154087843274797 -0.38377161062865817 19 25 25 0.03948314791719 12 205 13 655 16 397
289 1.0024857904259685 -0.03570073739712692 -0.38068048517804803 61 71 74 0.37286075867285595 12 828 13 1260 16 1000
290 0.9037611734995903 -0.09473219558933495 -0.38126425099536976 17 22 20 0.18645315495842954 12 1031 13 1493
291 0.955291494528948 0.04359667713578979 -0.38314042928819975 184 188 189 0.14634237864469177 12 429 14 609
292 0.955291494528948 0.04359667713578979 -0.38314042928819975 184 188 189 0.14634237864469177 12 432 14 612
293 0.8902515103014069 -0.02858563778183397 -0.38168185832472556 178 186 185 0.32959351487504773 12 776 14 981 22 1296
294 0.8296835683101252 0.04823654247813475 -0.3845777711112227 179 182 185 0.3631561467022029 12 341 15 828 17 529
295 0.8333976168480227 -0.032333871806115806 -0.3843376315919026 89 81 86 0.5125120920855221 12 786 15 1266
296 0.9814797546223192 0.07916763424916021 -0.38220880545636127 61 69 70 0.2735523807149032 13 705 14 419
297 0.8293951187466406 0.04759531605250753 -0.38151653682071424 176 182 182 0.05882855648104304 13 792 14 589
298 0.8331313657289543 0.0478771530159481 -0.38334551343906714 173 175 174 0.0817737523560659 13 796 14 588
299 0.8331644078601401 0.009564416949410267 -0.38335533289986995 157 157 159 0.10276009132448603 13 1020 14 798 19 477
300 0.8317054149947194 -0.011790561485543766 -0.3834009098949174 166 167 163 0.1642691331383412 13 1139 14 915 19 610
301 0.8326749267223689 -0.014360170320582665 -0.383126996902435 162 168 166 0.01751294774034307 13 1149 14 930
302 0.8321682650617267 -0.015564861809647822 -0.38323217050876013 160 163 164 0.045411553898435056 13 1160 14 941 19 624
303 0.832185945447617 -0.022563125265563443 -0.3831210932935959 128 128 128 0.061456925462332196 13 1208 14 974
304 0.8333684024986102 -0.0275477990773753 -0.38340390852991807 98 89 92 0.11397109964836322 13 1244 14 994 16 1013
305 0.8297603374048974 -0.029316345606060387 -0.38276401629352397 165 168 167 0.5376642580120857 13 1255 14 1003 16 1022
306 0.8660874470391613 -0.055501493828881546 -0.38329079793769555 161 161 161 0.13927941855451434 13 1362 14 1093
307 0.9357358954498742 -0.06267905045916031 -0.38111410193665174 22 25 24 0.2390774336107744 13 1378 14 1095
308 0.8314793912400283 0.0623014035429438 -0.3835619922388424 189 187 188 0.1428819932071041 13 719 15 739
309 0.8534454936577823 0.049469743994346976 -0.384615152716573 28 31 32 0.27712942828452536 13 801 15 820 19 279
310 0.833686240802673 -0.01220926606784938 -0.3832273990616318 171 177 177 0.30268844113463017 13 1142 15 1161 19 611
311 0.8330126426404 -0.024869061250928783 -0.38437459795165146 160 160 160 0.10544478602838718 13 1224 15 1230
312 0.8330309826762001 0.09830896160067101 -0.38450349936326694 190 188 190 0.263340214300593 13 562 16 256
313 0.8323450203086677 0.037653146645130045 -0.3832849891271672 116 113 111 0.2360875714913882 13 860 16 627 25 1218
314 0.8328334805697839 0.03651237546616287 -0.3821985936037314 177 176 178 0.08676957892350905 13 864 16 636
315 0.8329216055207951 0.02853710779554081 -0.38358430599749227 107 103 106 0.21550394367418427 13 909 16 680 25 1281 15 933
316 0.8309148268984081 0.025879120238691763 -0.38247844812459136 143 144 146 0.0872108209238089 13 924 16 699
317 0.9836412272474475 0.01419643453051246 -0.3829035657191522 48 61 60 0.06129310217997886 13 1019 16 774
318 0.8910721276330279 -0.028645374515340563 -0.38364636291354326 157 164 162 0.1516137967930797 13 1242 16 995
319 0.926568348649507 -0.06144731298679664 -0.38105158454544424 149 155 149 0.1144798450833555 13 1374 16 1132
320 0.926568348649507 -0.06144731298679664 -0.38105158454544424 149 155 149 0.1144798450833555 13 1375 16 1133
321 0.8837655946975597 0.08199569453872334 -0.3839197208477078 21 27 29 0.08662205239773367 13 640 18 158
322 0.879722605598466 -0.07426236159844679 -0.3848877252334796 17 17 17 0.40385796621938114 13 1439 18 1019
323 0.9156306844582784 0.1130460455950713 -0.383321155816645 27 33 35 0.02684234610473654 13 556 19 64
324 0.8312519010193034 0.07984201898486415 -0.3846996648277527 182 182 182 0.01579865643072101 13 624 19 119
325 0.8298085613437342 -0.022717713775216676 -0.3841793637614848 159 167 168 0.09838904640539452 13 1210 19 677
326 0.8334466516358743 -0.024417526177426378 -0.3831737014827834 110 116 118 0.061762119534296334 13 1222 19 683
327 0.8298945043664275 -0.024978670344688866 -0.38178462453192935 155 166 166 0.1033748991170913 13 1225 19 684
328 0.9058589935478109 -0.03386066778912787 -0.3808439345956373 18 24 22 0.3268211916356177 13 1266 19 777
329 0.9315829639900474 0.010358796300459128 -0.38288218710592353 137 155 151 0.22805424839844443 13 1031 22 1038
330 0.9320746803122893 0.01042133674902016 -0.3839779983558118 173 179 177 0.2689817079046491 13 1032 22 1039 25 1719
331 0.9320746803122893 0.01042133674902016 -0.3839779983558118 173 179 177 0.2689817079046491 13 1033 22 1040 25 1718
332 0.8322150008051749 0.06318173761264202 -0.38426169245364544 121 120 116 0.22452155407442068 13 710 25 1032
333 0.8837763182466977 0.024817131341451085 -0.3822611344611477 167 175 172 0.16713716601707707 13 951 25 1462
334 0.9417885569381532 0.025353446236539574 -0.38344751669794575 47 55 54 0.17433746061729213 13 967 25 1625
335 0.8315109731009193 0.005462240072562673 -0.38259743649800615 163 170 173 0.26107934471794547 13 1045 25 1416
336 0.8318530449374213 0.06260988926235068 -0.38319446138024177 171 170 174 0.03175645348685779 14 500 16 476
337 0.8317917044674573 0.03288667753271741 -0.3837728324437325 182 181 183 0.1727936500502567 14 667 16 653 17 619 18 389
338 0.8322021668950725 0.02087991449669361 -0.3838295113312442 107 106 110 0.040036786875030206 14 743 16 740
339 0.8310291882638748 0.01505439260440119 -0.3842285359143759 122 123 125 0.093492467366451 14 771 16 765 17 737
340 0.8311916426462624 0.003772476373138917 -0.38350890967465245 115 114 114 0.0966785189259361 14 837 16 831 24 839
341 0.8300811470477777 0.00037640690438292567 -0.38372910136237337 168 173 175 0.11541258864126504 14 856 16 855
342 0.8331258510368964 -0.01611254067089581 -0.3838137523043133 166 166 164 0.020842526642285402 14 943 16 947
343 0.8311197476936137 -0.02005870253311565 -0.38364163330040874 122 126 129 0.14258324956489477 14 964 16 968 19 653
344 0.8331792796447929 -0.022904324921607405 -0.38352458169541337 107 106 108 0.05782381494085986 14 976 16 981
345 0.8331792796447929 -0.022904324921607405 -0.38352458169541337 107 106 108 0.05782381494085986 14 977 16 982
346 0.8953838410362225 -0.030871789463979178 -0.3820910256361071 155 161 159 0.522057512797534 14 986 16 1007 24 1112
347 0.8953838410362225 -0.030871789463979178 -0.3820910256361071 155 161 159 0.522057512797534 14 987 16 1008 24 1113
348 0.940972635147079 -0.04250975076600783 -0.38144901370647666 170 173 172 0.278406053010461 14 1028 16 1054
349 0.8334523925934822 -0.03537589166491071 -0.3839034056617174 116 116 118 0.20158583051613946 14 1037 16 1056 17 1061 24 1153
350 0.8334523925934822 -0.03537589166491071 -0.3839034056617174 116 116 118 0.20158583051613946 14 1038 16 1057 17 1062 24 1154
351 0.8318327780219651 -0.036455037207359646 -0.3835754778979618 111 110 112 0.20615175490297738 14 1045 16 1062 17 1080 19 784
352 0.9370374031938743 -0.05946529254170427 -0.3833640132241952 19 25 22 0.17476952619486613 14 1082 16 1119
353 0.8843475841003703 -0.06846615763351722 -0.38219594272021673 20 24 19 0.09682993244452008 14 1132 16 1164
354 0.8784280613813816 -0.005981685572825852 -0.3832224456551847 160 166 164 0.13648198513214746 14 881 17 864
355 0.8332537285077491 -0.013829198555364935 -0.3835789868249989 128 128 130 0.009788593504157683 14 924 17 907
356 0.8329569767036605 -0.02826396166840091 -0.38412245227119085 175 175 177 0.021859283175667342 14 996 17 1005
357 0.8305684089242067 -0.029272261378513246 -0.38400054236691017 140 141 145 0.07925673056770399 14 1000 17 1012
358 0.8305684089242067 -0.029272261378513246 -0.38400054236691017 140 141 145 0.07925673056770399 14 1001 17 1013
359 0.9064288090004138 0.0857931877987198 -0.375757854766714 181 187 184 0.7838106197709691 14 346 22 524
360 0.9576432013076476 0.0373496500217184 -0.3815176053522996 41 47 47 1.064752163034118 14 637 22 856
361 0.833478619263641 0.13251786435633886 -0.3879556495109408 195 195 195 0.3895984109835038 15 416 16 150
362 0.831599490409476 0.09698010448414811 -0.3860438414212724 128 125 120 0.27677609900264055 15 532 16 267
363 0.8330060111978642 0.09033803497997794 -0.384565218854828 189 189 191 0.23174251896704534 15 558 16 291
364 0.8526268675233061 0.08725861039396113 -0.38137490757156806 25 29 28 0.13435626007371088 15 578 16 325
365 0.8310332651197013 0.08379760878297474 -0.38394120959823663 191 192 194 0.24816446807386613 15 590 16 336 25 864
366 0.8298942132378652 0.08091849306498415 -0.3863690606761065 185 188 189 0.2080986848801131 15 618 16 360
367 0.9418551159535407 0.051177621010218964 -0.38461901611670857 32 38 36 0.07895900847266826 15 821 16 581
368 0.8310564548214631 0.02464598814705233 -0.3838299557965863 115 116 117 0.12820803354487717 15 957 16 709
369 0.8310564548214631 0.02464598814705233 -0.3838299557965863 115 116 117 0.12820803354487717 15 958 16 710
370 0.8332635690784614 0.022075056533189318 -0.38447707117866436 173 175 176 0.013858422447571864 15 971 16 737
371 0.9103545514551713 0.02000853568565903 -0.3839606834056089 25 25 25 0.03891454899826873 15 972 16 746
372 0.8325388736550162 0.00605531587465742 -0.3844044583001665 128 127 131 0.061187924330089134 15 1072 16 812
373 0.831680600567511 0.005545162720728428 -0.38349215660601915 180 180 182 0.12007157630927408 15 1076 16 820 19 493 24 819
374 0.8677435448635238 0.0010511994731335133 -0.38310933010051307 25 25 25 0.10535241926385484 15 1092 16 851
375 0.8312609731101263 -0.012511232589014397 -0.38459598772921694 108 104 108 0.09957702707405533 15 1168 16 927 24 965
376 0.8534219436512503 -0.03721526765147704 -0.38411091775275225 20 23 22 0.024094195588463818 15 1277 16 1060
377 0.9676844514677966 -0.09536730864593922 -0.3788888308020815 41 47 47 0.31016632918569265 15 1405 16 1202 17 1237
378 0.8292381076366554 0.06894898329375661 -0.3854288444126778 186 188 188 0.17462537676740997 15 695 17 418
379 0.8340565028018567 0.010538323290922028 -0.38345513442610535 172 175 176 0.018610101202514995 15 1035 17 761
380 0.8302016345557085 -0.002936554987101727 -0.3842858404834488 116 115 116 0.09159333429758425 15 1117 17 843 24 895
381 0.8312929039305113 -0.009572161242896273 -0.384003042711584 108 110 110 0.08897576065394414 15 1148 17 882 25 1520
382 0.8303647719004362 -0.01211403933053426 -0.3848997749980226 165 167 169 0.20312585951072534 15 1158 17 890 18 677
383 0.8328426155550105 -0.024971410099011163 -0.3844058790132902 160 164 163 0.15717761492048704 15 1232 17 978 16 994
384 0.8318044375378629 -0.024990213078778488 -0.38451889729903416 160 160 159 0.17122539986506008 15 1233 17 976 18 763
385 0.831956876436837 0.04106601727534789 -0.38485764004171835 129 128 131 0.08338640224043053 15 858 18 322
386 0.860132905967132 0.012210889472275867 -0.3843792953068679 167 173 173 0.16227900152378943 15 1021 18 549
387 0.8333369764353573 -0.016229399125896778 -0.3844309746772249 164 164 164 0.13965780347765208 15 1184 18 710
388 0.8951360530513555 0.03612739675439552 -0.38279221551837544 172 178 178 0.3494307737040023 15 890 22 878 19 350
389 0.8871287239082806 0.03108529641899027 -0.37846622094890203 46 32 20 0.013347186603245029 15 914 22 922
390 0.9470904561996528 0.020144292174576257 -0.3824641114765279 31 38 37 0.5969101791811541 15 965 22 972
391 0.9154816191374716 -0.0058458002258163855 -0.3820258960144255 159 168 165 0.3007192995652756 15 1103 22 1171
392 0.9268605151989378 -0.05026123844647601 -0.3828544979232622 24 27 26 0.32467093024946775 15 1294 22 1347
393 0.9168642964685163 0.11188669755415272 -0.383205577299582 31 34 35 0.34695779163498025 16 246 17 286 18 98
394 1.0035269564254454 0.05077312836424975 -0.3824651485712958 58 69 69 0.3087066899737532 16 599 17 615 18 421
395 0.8321421745121297 0.04046370825539589 -0.38446416497740327 176 176 178 0.13574726079891647 16 610 17 582
396 0.8321473953396192 0.04045239572506385 -0.38440238797120097 189 187 187 0.12722182564062043 16 611 17 583 18 325
397 1.0018953682082314 0.02600919664837653 -0.3798673263760079 66 77 77 0.2610487173881102 16 732 17 738
398 0.9719344830418049 0.02530559691527675 -0.3812536783774958 181 187 185 0.11896992255486279 16 734 17 730
399 0.910212593851782 0.019988244400288447 -0.3836776966134472 21 24 23 0.13355367252633654 16 747 17 740
400 0.8846140477138321 0.019494040053709548 -0.38436254418229554 23 26 27 0.039539639629662476 16 748 17 732
401 0.9537909633412875 -0.030060715526953132 -0.3816609922406487 176 184 183 0.1601147725896273 16 989 17 1016
402 0.8328377645517151 -0.025003481762593628 -0.3845197085320956 179 179 182 0.16407012212340297 16 993 17 977 18 765
403 1.0024831412048856 -0.03634112790865273 -0.3800570379672834 48 54 54 0.20765088759654562 16 1002 17 1053
404 0.8313273331663578 -0.02756847335275005 -0.3836200898314445 108 108 110 0.17490248404267494 16 1015 17 1000 25 1652
405 0.91568379860871 -0.0427014259530282 -0.3824434549055689 157 160 159 0.10210591942775725 16 1064 17 1097
406 0.8316000346639307 -0.03782262054197675 -0.3842930712813302 88 87 89 0.10743316216831209 16 1071 17 1085
407 0.895086236596978 -0.0815778381915929 -0.38191808335986077 23 23 19 0.13237447767543878 16 1194 17 1224
408 0.8767039492382929 0.11191482484454884 -0.38619956182746396 26 29 28 0.20497931917042742 16 233 18 85
409 0.8318460916076845 0.036444464416531354 -0.3843572285352068 117 113 114 0.17538214800825583 16 637 18 362
410 1.0006638322370076 0.03488072506263962 -0.3798964137252273 58 69 69 0.3315122917254894 16 675 18 494
411 0.8323438867308268 0.02472852873205561 -0.3843690918280578 116 112 115 0.0923251108948788 16 706 18 435
412 0.832341930224408 0.024790163363936094 -0.3844938887087247 120 114 116 0.2089145301381199 16 707 18 436 24 653
413 0.8331574569780151 0.009648017477007295 -0.3844474838562203 169 167 170 0.09141790298913996 16 793 18 544
414 0.8334773065930668 -0.013025976995360268 -0.3845566686009021 162 165 164 0.2703077677053011 16 930 18 687 24 975
415 0.8316924593999524 -0.0042826725612320525 -0.3834809320723903 179 179 176 0.10157131396241537 16 886 19 566 25 1482
416 0.8315205733928704 0.03429459200181761 -0.38295659061006904 178 178 180 0.09060280144195879 16 647 24 593
417 0.83210233237158 0.027686734811303106 -0.3833792526599013 174 174 178 0.07055779769114769 16 688 24 633
418 0.8321626739069217 0.024611562551237382 -0.38295351441662706 116 112 115 0.08452354021936666 16 708 24 654
419 0.8311476390537317 0.013374325923446811 -0.38290945290165335 112 111 114 0.15474175580396807 16 770 24 752
420 0.8311476390537317 0.013374325923446811 -0.38290945290165335 112 111 114 0.15474175580396807 16 771 24 753
421 0.8314631987493492 0.010320162885980713 -0.38127120466312764 175 175 177 0.23795024022793482 16 787 24 776 27 711
422 0.832664978417177 0.008723735681235117 -0.38319044688881887 101 95 99 0.02788602827519073 16 801 24 791
423 0.831915771645246 0.0030623404410630686 -0.38385907118784685 163 168 177 0.12762567988306897 16 836 24 847 17 805 25 1428
424 0.8324992537052325 -0.009693650749649008 -0.38386136222653205 106 105 107 0.03082081512634584 16 911 24 952
425 0.8322867962808795 -0.02108856631045584 -0.38441824897278787 171 172 174 0.17978435747852958 16 973 24 1044
426 0.8631682822090678 -0.02445462967374348 -0.38331658177293215 18 21 20 1.269449118092433 16 980 24 1067
427 0.8336438768737447 -0.03407690956393649 -0.3850535893442866 121 117 120 0.15670379882316773 16 1044 24 1137
428 0.8332468724123093 0.07099927744862528 -0.3855120380804607 125 121 122 0.02456194584237542 16 421 25 980
429 0.8783346777834983 0.019404826248476434 -0.3825372142633196 167 170 169 0.15280968063579725 16 745 25 1478
430 0.832233754833539 0.002383700816809394 -0.3830439049477709 108 110 118 0.12791684306090234 16 842 25 1434
431 0.832233754833539 0.002383700816809394 -0.3830439049477709 108 110 118 0.12791684306090234 16 843 25 1435
432 0.8318211084699055 -0.0019339505267175533 -0.383950026338205 161 172 172 0.19757876052067205 16 869 25 1470 24 887
433 0.89740080800278 -0.022485435690622054 -0.38166447425878347 154 165 162 0.29379425252946617 16 965 25 1853
434 0.8323419940985302 -0.022653207500163378 -0.3841057675898481 135 132 133 0.10208872332284376 16 978 25 1612
435 0.8297156779088134 -0.022552482959628927 -0.38344130670029264 167 170 171 0.15870277353938414 16 979 25 1607
436 0.9607329439731516 -0.05622438324341568 -0.3831588829822886 29 35 33 0.5519014287886264 16 1094 25 2202
437 0.9160291896824885 0.11310943404456535 -0.38366481288468796 29 32 33 0.3556541710745813 17 282 18 96 25 1022
438 0.8781394021141061 0.08624191507712947 -0.38208972843831984 27 27 27 0.02964711770273792 17 350 18 134
439 0.8781394021141061 0.08624191507712947 -0.38208972843831984 27 27 27 0.02964711770273792 17 351 18 135
440 1.0817269854720188 0.039992031611461996 -0.38617858344238676 119 123 118 0.21335697514433624 17 699 18 529
441 1.0716219271929 0.035926300108928 -0.37972146671580886 120 126 124 0.23977274366188195 17 708 18 539
442 1.072450616939179 0.023945216244248863 -0.3835899686773787 114 117 116 0.34899992767972604 17 771 18 598
443 0.8328011506540134 0.0052832958469342 -0.38472668710002367 132 129 126 0.07612627780694561 17 787 18 570
444 0.9892823530534489 -0.0012664719159509565 -0.38139962671235195 55 59 59 0.5229310235825197 17 859 18 686
445 0.9113937069133534 -0.04252895575488683 -0.3856379563346669 20 23 22 0.5643663333871796 17 1094 18 878
446 0.9830273623778625 -0.06481460592121012 -0.3820641603397406 41 49 49 0.7570951305084402 17 1161 18 983
447 0.9523310590812508 -0.07744501877965529 -0.3841000725664939 29 34 36 0.9417974430534697 17 1199 18 1024
448 0.8330294953913484 0.10542238644900158 -0.38363754926419363 146 142 143 0.3130158816270916 17 269 19 54
449 0.831203101464676 0.10030838677026742 -0.3839619890862924 199 194 194 0.23064774185570475 17 275 19 61
450 0.8315115166102729 0.065954447874681 -0.38365214087399524 176 176 176 0.3054464131201324 17 429 19 181 25 1005
451 0.8836187812976134 0.05556085629432762 -0.381071249521375 24 27 26 0.1671383212721171 17 524 19 257
452 0.8747253132291234 0.015616472459944701 -0.38182113505486864 22 23 19 0.08845292678415444 17 747 19 457
453 0.8747253132291234 0.015616472459944701 -0.38182113505486864 22 23 19 0.08845292678415444 17 748 19 458
454 0.9144263355250002 -0.011406246428770557 -0.3806567925807631 24 30 30 0.0940745817223801 17 898 19 621
455 0.9144263355250002 -0.011406246428770557 -0.3806567925807631 24 30 30 0.0940745817223801 17 899 19 622
456 0.9511404650028409 -0.030241503120511506 -0.3774648128952811 170 177 175 1.1745942382532641 17 1019 19 752 25 2037 21 1641
457 0.9087820370166418 -0.037278187581965924 -0.38022968313470157 167 177 170 0.06782340949221288 17 1076 19 799
458 0.9594109640928181 -0.09154900816338167 -0.3782997847591389 32 37 39 0.03982632993483392 17 1232 19 984
459 0.8318407975562871 0.029190510610534827 -0.3803464081491159 183 183 185 0.8931889804811542 17 633 24 615 21 1017
460 0.8312536567408793 -0.025782150577916458 -0.3830686433841173 118 117 120 0.6108200224978636 17 985 24 1076 25 1632 19 693 28 1317 30 1604
461 0.8298563330756105 0.07226130956440169 -0.3844510914299289 178 180 177 0.3469746511923936 17 391 25 953
462 0.8312407614187639 -0.027587313559891705 -0.3830574161011122 120 124 124 0.13422828961375222 17 999 25 1651
463 0.8314087122869465 -0.030421358654397188 -0.38304613927811837 176 179 182 0.12177534093621957 17 1028 25 1686
464 0.831060826688017 -0.034685776731560695 -0.3836971700534437 174 180 179 0.10411419567068769 17 1059 25 1729
465 0.8298874291566212 0.07099213519100805 -0.3814627745511777 197 197 198 0.05265088826736238 19 142 21 652
466 0.9282974724210413 -0.05425234198791118 -0.38120290160281084 166 174 171 0.7312456872430059 19 857 22 1366
467 0.8287725078750967 0.07549544711532388 -0.38429953219001967 183 183 179 0.06900431571122488 19 131 25 930
468 0.8296700168023652 0.07106783347828421 -0.38363113998075954 181 182 179 0.07321274187575785 19 149 25 961
469 0.8311003401576903 0.0701253708519758 -0.38367105002762697 176 175 173 0.01667436733445646 19 157 25 972
470 0.8295162525353649 0.021169450746258298 -0.38287094751370965 170 174 173 0.029098811095699707 19 406 25 1313
471 0.8316684110896786 0.009345734304176045 -0.3829706366693241 161 169 169 0.04629412267749757 19 476 25 1395
472 0.8310242751517001 0.008651159014553914 -0.38342248700195497 109 114 116 0.010095324085244316 19 479 25 1397
473 0.8310281036290802 0.0012243021209576274 -0.38333947137558977 117 123 125 0.06295932398488824 19 527 25 1438
474 0.8310650127218839 -0.017815462750053274 -0.3824677185042349 110 113 112 0.016844720420033148 19 643 25 1580
475 0.9516827389302269 -0.03278103364691039 -0.3786455550760911 45 44 46 0.2477219811372223 19 775 25 2064
476 0.9303181061742375 0.07467674106115968 -0.3830117228969592 198 204 204 0.3192391234829069 20 1006 23 1318
477 0.8744070307675167 0.04856250067711266 -0.3816190702775201 29 32 33 0.03748856565355204 20 1045 23 1564
478 0.9038734670087948 -0.007111300860867081 -0.3780893294526694 32 35 34 0.3640212686889575 20 1573 23 1950
479 0.9416739648537507 -0.006258046363941862 -0.3775150939151714 41 47 47 0.5128313363984981 20 1633 23 1882
480 0.9633460766591108 -0.00677957587527735 -0.37505059136454383 56 59 62 0.32290026895234153 20 1683 23 1855
481 0.904595790705129 -0.03846684046771301 -0.37980440364090995 176 175 176 1.3734109147848979 20 1801 23 2082
482 0.83045948226102 0.07015945292948063 -0.37828440412454534 203 203 205 0.39516600501573884 21 657 24 286
483 0.8329222489842265 0.04257626807564386 -0.37482580876091387 199 199 201 0.5833808846839021 21 887 24 505
484 0.9825697157682696 0.026995307087453818 -0.3724122721510316 71 82 81 1.9269554619241664 21 1261 24 713
485 0.9942996198120616 0.03912209611884174 -0.383073259521654 60 71 69 0.7831007475235461 22 847 24 658
486 0.9668015994291268 0.0328559336994151 -0.3835349283888076 185 196 192 0.44754675422901574 22 885 24 684
487 0.8787864857662882 0.025490597579977552 -0.3845978766426631 25 31 29 0.16724489972036802 22 968 24 687
488 0.8529718658935732 -0.036728905550995825 -0.3813437532558937 23 26 25 0.6987899525122845 22 1343 24 1167
489 0.8779698960320209 -0.042745965144659316 -0.38064853661255227 169 169 169 0.3889803892430839 22 1356 24 1195
490 0.9839354353800848 -0.0633336940910733 -0.3777229048988817 40 42 52 0.39307142810216533 22 1365 24 1279
491 0.8633424092575271 -0.0579869981271285 -0.38084369545840363 165 168 167 0.7076072180688574 22 1424 24 1286
492 0.9038803362281502 -0.09472528453370645 -0.38100976562054745 21 27 25 0.31187981733078696 22 1492 25 2269 24 1375
493 0.8639784233763554 0.06795610848120387 -0.36094386614301494 29 35 37 0.3445841793089594 23 1365 26 565
494 0.8310022106672885 0.10871156833852683 -0.381351817199399 148 145 142 0.37870266460802754 24 139 25 672
495 0.8310022106672885 0.10871156833852683 -0.381351817199399 148 145 142 0.37870266460802754 24 140 25 673
496 0.8319760917933728 0.08310595580413913 -0.38512337948788417 181 181 180 0.23044565154703803 24 218 25 878
497 0.8321275872406718 0.06307836414904815 -0.3839455475154826 121 120 116 0.2760615724321124 24 357 25 1030
498 0.8321275872406718 0.06307836414904815 -0.3839455475154826 121 120 116 0.2760615724321124 24 358 25 1031
499 0.8306690751492768 -0.0025970892855441334 -0.3828503711398819 181 181 185 0.013810280642054945 24 891 25 1471
500 0.8312514610232339 -0.01519565545709226 -0.38427777346269704 133 132 135 0.11480413685066321 24 993 25 1564
501 0.8312514610232339 -0.01519565545709226 -0.38427777346269704 133 132 135 0.11480413685066321 24 994 25 1565
502 0.9311420443352871 -0.054401048538966566 -0.3845450249431379 165 170 168 0.2834164491137173 24 1236 25 2138
503 0.8321578764268716 0.037433480677756585 -0.3823482789679881 122 119 120 0.08312039489461616 24 571 26 719
504 0.8323078087174518 0.03762124992202812 -0.38303948945983296 117 117 117 0.3272810487878775 24 572 26 720 28 872
505 0.8813991909426907 0.07842624347327533 -0.37517008996478585 29 32 33 0.32951296070493785 24 280 27 387
506 0.914546260961152 -0.04221648529248341 -0.3784604365763848 169 175 175 0.31420854842895685 24 1188 27 1102 29 1057
507 0.9407605040004063 -0.07351123341553296 -0.3801272589011494 27 30 29 0.1543249323223531 24 1330 27 1246 28 1498
508 0.9407605040004063 -0.07351123341553296 -0.3801272589011494 27 30 29 0.1543249323223531 24 1331 27 1247 28 1499
509 0.8910488175684735 -0.09181437328081576 -0.3796559255868999 164 164 164 0.40128861940373467 24 1374 27 1271
510 0.7619498860001708 0.10136234744630945 -0.39163131740286933 21 19 18 0.18592057294755496 25 309 26 311
511 0.7619812501391651 0.08053885633427522 -0.39487497930659626 32 28 30 0.09531963104502199 25 561 26 388
512 0.8327002412817753 0.12232620141196189 -0.3891701908398854 182 178 179 0.02057548049679868 25 592 26 344
513 0.8327002412817753 0.12232620141196189 -0.3891701908398854 182 178 179 0.02057548049679868 25 593 26 343
514 0.8317851034809087 0.10898561594273061 -0.3867568515965881 182 178 179 0.004226191480915349 25 691 26 379
515 0.8334405753132846 0.10712875606893116 -0.38635272016452815 136 134 130 0.16256570173679005 25 717 26 385 28 336 29 452
516 0.7719420334394659 0.10082908710995578 -0.3875525991241591 21 20 14 0.04310558218313624 25 378 27 192
517 0.7669604343645882 0.06942674201223253 -0.387885431295846 25 25 21 0.1351565031125557 25 668 27 285
518 0.7681231330314827 0.0664168596551396 -0.3890682190031573 55 58 53 0.15289267261475512 25 707 27 294
519 0.7657624779181567 0.0820904924043842 -0.395391987638687 27 24 21 0.28765361208517587 25 571 28 520 26 389
520 0.8331462237828444 0.12390608611619254 -0.38767733620877703 128 122 124 0.19154302166314707 25 574 28 292
521 0.7715108785482679 0.07653810435681634 -0.3943221905685064 39 40 39 0.2393965490324699 25 647 28 567
522 0.7629848758134634 0.07015313529371671 -0.3935116017422486 52 59 53 0.24966552955768484 25 650 28 615
523 0.7648442155678512 0.04105512935762559 -0.3924125344806539 41 38 33 0.09858790375300372 25 903 28 845
524 0.7645761623522394 0.03592600390425592 -0.3918775634673195 33 30 27 0.022506393652648633 25 945 28 909
525 0.7667733486320197 0.02392099234600986 -0.3910137178650094 56 56 50 0.13090455874697454 25 1050 28 1005
526 0.8308776054523436 0.05953661104440718 -0.3843813908863789 143 142 142 0.02436632466571486 25 1054 28 707
