# 3D point list with one line of data per point:
#   POINT3D_ID, X, Y, Z, R, G, B, ERROR, TRACK[] as (IMAGE_ID, POINT2D_IDX)
# Number of points: 430
1010 0.8329905962510572 0.06988106053418017 -0.383919752823262 125 121 122 0.42623801123539956 13 670 25 980
1011 0.9392945362151828 0.08114322092781331 -0.3801349945223679 177 177 173 0.12040081994669516 13 672 25 1297
1012 0.9392945362151828 0.08114322092781331 -0.3801349945223679 177 177 173 0.12040081994669516 13 673 25 1298
1013 0.8316424592073783 0.06170316200392599 -0.3837232867963067 177 177 177 0.39213226568294524 13 718 25 1034
1014 0.8316424592073783 0.06170316200392599 -0.3837232867963067 177 177 177 0.39213226568294524 13 719 25 1035
1015 0.8319866781730384 0.04029337414258992 -0.3828272384435965 148 149 150 0.17149887082410636 13 835 25 1200
1016 0.8318137065133036 -0.01220030385361557 -0.3824016529480584 162 166 167 0.15429005944908367 13 1138 25 1535
1017 0.8318137065133036 -0.01220030385361557 -0.3824016529480584 162 166 167 0.15429005944908367 13 1139 25 1534
1018 0.8322851309466578 -0.01598934913551316 -0.38210249806809077 155 162 164 0.13592395893186385 13 1160 25 1570
1019 0.8325386959974523 -0.030023415867325234 -0.38174552622811725 158 161 162 0.11838507477900787 13 1257 25 1683
1020 0.8601796589020495 -0.05741300450251918 -0.3810338594870075 25 26 20 0.10693737581392675 13 1376 25 1961 19 879
1021 0.9664553653417574 -0.07629417217023411 -0.3772176238820125 26 35 36 0.11292646059864885 13 1423 25 2277
1022 0.8297484739921762 0.1289440712681372 -0.3953351373174014 193 192 192 0.45689102283044497 14 209 16 177
1023 0.9479516263253014 0.08852018830149509 -0.38481774965816606 184 191 185 0.12263011273437836 14 358 16 387
1024 0.9479516263253014 0.08852018830149509 -0.38481774965816606 184 191 185 0.12263011273437836 14 359 16 388
1025 0.8317526808681935 0.047407655562088896 -0.3852891195042007 112 110 112 0.2957329542918045 14 591 16 569
1026 0.955523221850303 0.033146328198359304 -0.38422120841425356 51 51 53 0.09424463043569847 14 661 16 678
1027 0.8322790352005166 0.02078452461860932 -0.3843993340672606 107 106 110 0.22677064907366296 14 742 16 739
1028 0.8322790352005166 0.02078452461860932 -0.3843993340672606 107 106 110 0.22677064907366296 14 743 16 740
1029 0.8320674795806975 0.012829277015237187 -0.384418689917245 154 153 159 0.20193842050341237 14 783 16 775
1030 0.8320674795806975 0.012829277015237187 -0.384418689917245 154 153 159 0.20193842050341237 14 784 16 776
1031 0.8318149613910062 0.010334638881856557 -0.3844588625710143 174 176 182 0.19561067063537974 14 792 16 786
1032 0.831962584082765 0.003965502370046735 -0.38399218930123213 140 140 141 0.18116804235963596 14 836 16 828
1033 0.9583007578846228 -0.02317463351480235 -0.38099241752237584 180 186 184 0.044316064206849665 14 939 16 960 18 785
1034 0.9583007578846228 -0.02317463351480235 -0.38099241752237584 180 186 184 0.044316064206849665 14 940 16 961 18 786
1035 0.8318370576889397 -0.01727333508474655 -0.3834913714718713 162 162 164 0.12601464887901936 14 949 16 957
1036 0.8312152656044017 -0.02029331672875354 -0.38394997208999515 122 120 122 0.10921463566803888 14 964 16 968
1037 0.9091834318059281 -0.03714171112041208 -0.3806774372507622 156 162 160 0.028256162011231104 14 1012 16 1035
1038 0.9998855307559578 -0.0646649372010117 -0.3799053222742939 42 43 48 1.3918045861162514 14 1080 16 1113 24 1282 27 1242
1039 0.8599014064098967 -0.053548552663987295 -0.38191668866466244 156 159 158 0.4111361986963373 14 1089 16 1126 17 1132 19 851 25 1942
1040 0.8987752575345599 -0.08025697107285652 -0.38020066436141164 161 162 158 0.21911253903399297 14 1166 16 1190 19 963 25 2217
1041 0.9215763923538031 0.07652327509824056 -0.385888847027648 27 33 31 0.20968514356286486 14 427 17 449
1042 0.8949359955538299 0.0322857950385559 -0.3835905078371273 34 31 34 0.9063778163974503 14 668 17 647 18 441 24 639
1043 0.8333031479698084 -0.01396820771741613 -0.3832919835462752 128 128 130 0.2233617163695837 14 924 17 907
1044 0.8317802842067723 -0.01732265830221918 -0.3837402140252307 159 162 163 1.8988374646406985 14 948 17 926 24 1010
1045 0.967681441704269 -0.03332656018602902 -0.37961061167579224 39 41 44 0.46337086640560265 14 978 17 1040
1046 0.967681441704269 -0.03332656018602902 -0.37961061167579224 39 41 44 0.46337086640560265 14 979 17 1041
1047 0.8318679847225495 -0.03145001073971451 -0.3835903919611524 119 120 122 0.20026069864004073 14 1014 17 1033
1048 0.8310760871412485 -0.03192714567149938 -0.38333211690020375 174 181 185 0.20011884680640696 14 1016 17 1035
1049 0.8319137486311067 -0.03664413359086259 -0.3834273643242734 116 119 120 0.1865016757573173 14 1045 17 1080
1050 0.9811591176158474 -0.06432878944928623 -0.3790046563183282 31 34 37 0.5313963779311547 14 1088 17 1160
1051 0.9294319544072488 -0.06086185673164138 -0.3810548175592153 155 160 160 0.3364500053456634 14 1090 17 1153 18 959
1052 0.8328046868515478 0.05298334886452926 -0.39183669824163464 127 126 128 1.997077800849564 14 555 21 826
1053 0.8330287677039332 0.04969016405547243 -0.3918567328364441 124 121 125 1.9380222847132869 14 581 21 851
1054 0.9469473323293954 0.025289215626105702 -0.382040494803075 187 195 193 1.08491384931796 14 708 21 1241 22 936
1055 0.8749680343466265 0.012630273515834262 -0.3916670501902887 25 28 27 1.0978498559433971 14 773 21 1243
1056 0.954672378670382 -0.007418031636107996 -0.3950688955905434 29 35 33 0.06329577566732701 14 862 21 1486
1057 0.9453377639100301 -0.039304176191542146 -0.3902871993661411 24 27 26 0.36239339859288794 14 997 21 1674
1058 0.9453377639100301 -0.039304176191542146 -0.3902871993661411 24 27 26 0.36239339859288794 14 998 21 1675
1059 1.000172641996004 -0.06151895783306264 -0.38838074387015264 190 190 194 1.1490294437905748 14 1062 21 1780
1060 0.9082416781348049 0.08703486922076026 -0.3804682409730291 181 187 184 0.15646067384449056 14 346 22 524
1061 0.936889435792643 0.016380629394345248 -0.3817057447849357 33 36 39 0.15093028802255926 14 753 22 998
1062 0.9192341081037132 0.016332241361527014 -0.3827898389576829 29 32 33 0.22052489474302903 14 755 22 1007
1063 0.8835866263086893 -0.03675166509628978 -0.3795721249343266 167 170 169 0.5404100424837022 14 1023 22 1324
1064 0.832983276758088 0.08961877251668286 -0.3826149275838217 189 189 191 0.4530508817163241 15 558 16 291
1065 0.8836658425700522 0.0869798413711889 -0.38298721406052577 182 188 190 0.17132799104628577 15 595 16 354
1066 0.8782739424277126 0.08145575346640924 -0.3835049415477024 183 186 187 0.19904177187908748 15 630 16 378
1067 0.9328654981424734 0.07184240763357903 -0.38178472085410464 180 188 185 0.0818906502554338 15 702 16 468 18 250
1068 0.9149885392554716 0.05607553260622017 -0.38201780368631627 176 184 183 0.03627807305920121 15 787 16 553
1069 0.9149885392554716 0.05607553260622017 -0.38201780368631627 176 184 183 0.03627807305920121 15 788 16 554
1070 0.879070773931201 -0.037381446014677876 -0.3841550229349232 20 22 21 0.2778625261168404 15 1267 16 1046
1071 0.879070773931201 -0.037381446014677876 -0.3841550229349232 20 22 21 0.2778625261168404 15 1268 16 1047
1072 0.9357132380596278 -0.057772339523482256 -0.38494682170612154 29 28 35 0.08328261744707201 15 1312 16 1108
1073 0.9357132380596278 -0.057772339523482256 -0.38494682170612154 29 28 35 0.08328261744707201 15 1313 16 1109
1074 0.9374343458299855 -0.05957874712082083 -0.3837752330902755 23 23 23 0.09315070229526634 15 1323 16 1118
1075 0.926038455137247 0.07529340709288768 -0.3834031024841361 179 188 187 0.2771527657458473 15 681 17 456
1076 0.9518164766129933 0.03024345566949133 -0.3825893547447806 33 39 39 0.16292739651416838 15 917 17 690
1077 0.9518164766129933 0.03024345566949133 -0.3825893547447806 33 39 39 0.16292739651416838 15 918 17 691
1078 0.8343683413444143 0.010508037689877146 -0.3839815055714949 172 175 176 0.5961520655471881 15 1035 17 761
1079 0.8322447473819142 -0.001958377024140438 -0.38481111314430777 163 166 165 0.6392452544024664 15 1110 17 838
1080 0.9539258291795625 -0.029970611982816982 -0.38174454939610264 184 187 186 0.022050305459291483 15 1200 17 1017
1081 0.8332430756855176 -0.025039157968865782 -0.38536766334681305 160 164 163 0.6738881429351374 15 1232 17 978
1082 0.8706392108881907 0.06973254329647802 -0.3827294795468553 34 35 35 0.12857642163935973 15 698 18 203
1083 0.8605802392736747 -0.06171506520785474 -0.38416968789550904 160 160 161 0.5952965342618002 15 1361 18 971
1084 0.8313618008647526 0.08466461369701672 -0.3859123173339156 161 163 167 1.0348659797760686 15 583 21 597
1085 0.8812723682677328 0.08847790818472062 -0.39156119766951786 30 33 32 1.132276441158451 15 593 21 648
1086 0.8812723682677328 0.08847790818472062 -0.39156119766951786 30 33 32 1.132276441158451 15 594 21 647
1087 0.8333443493170228 0.08249897466920096 -0.381632320021602 158 155 156 1.060640246740322 15 599 21 608
1088 0.9325076049998309 0.06461372293124905 -0.3959194640189914 191 197 195 0.801604124853498 15 755 21 896
1089 0.834055560364294 0.047813036115413494 -0.3861779060970608 192 195 196 0.832031124572841 15 831 21 866
1090 0.919946067852912 0.019441063564826458 -0.3926967676094187 186 189 190 0.7179918562669593 15 974 21 1246
1091 0.919946067852912 0.019441063564826458 -0.3926967676094187 186 189 190 0.7179918562669593 15 975 21 1247
1092 0.9432259764568243 0.015717926398767602 -0.3940191533647532 44 50 52 0.6128906889229633 15 990 21 1295
1093 0.9420151223235211 -0.0008563880135572513 -0.39772434115716176 181 187 185 0.5705153326360028 15 1073 21 1414
1094 0.9420151223235211 -0.0008563880135572513 -0.39772434115716176 181 187 185 0.5705153326360028 15 1074 21 1415
1095 0.8755405710328443 -0.06157583351652873 -0.39716492202933446 32 28 29 0.6162757701034952 15 1340 21 1747
1096 0.8755405710328443 -0.06157583351652873 -0.39716492202933446 32 28 29 0.6162757701034952 15 1341 21 1748
1097 1.0710595093013962 0.12324604074467167 -0.3766092728419607 121 121 121 1.0750564505522442 15 512 22 369
1098 0.8888812976431931 0.09249925908975705 -0.3767884630815102 194 194 196 0.5504961428897809 15 563 22 468
1099 0.9436417122339149 0.08633142418442616 -0.37681114807990185 186 189 188 0.007628862686280613 15 624 22 532
1100 0.9903403489739662 0.07387742753834321 -0.3772164210621223 67 72 73 0.4343185576697054 15 703 22 632
1101 0.9903403489739662 0.07387742753834321 -0.3772164210621223 67 72 73 0.4343185576697054 15 704 22 633
1102 0.9217796417694828 0.07005672601395989 -0.38095761920522586 46 38 29 1.299651568865964 15 710 22 659 24 398 27 504
1103 0.9217796417694828 0.07005672601395989 -0.38095761920522586 46 38 29 1.299651568865964 15 711 22 660 24 399 27 505
1104 0.9383908829379956 0.05586591499735459 -0.3779780906635922 178 186 183 0.06015501702063961 15 794 22 751
1105 0.9491274707386024 0.04715426283420336 -0.3796701602276745 39 45 47 0.04169123933438223 15 838 22 804
1106 0.947261944640131 0.0201492990612682 -0.38308222946073206 31 38 37 0.006329251319947614 15 965 22 972
1107 0.8636723188097688 0.0004007641431592072 -0.38258909795769275 176 179 180 0.9659120027024021 15 1096 22 1164
1108 0.8636723188097688 0.0004007641431592072 -0.38258909795769275 176 179 180 0.9659120027024021 15 1097 22 1165
1109 0.915809522561323 -0.0058708794749164775 -0.3828852523293196 159 168 165 0.344011150646195 15 1103 22 1171
1110 0.915809522561323 -0.0058708794749164775 -0.3828852523293196 159 168 165 0.344011150646195 15 1104 22 1172
1111 0.9650496493507197 -0.019147487871233847 -0.3815948797337228 49 48 51 0.1746690361000783 15 1152 22 1214
1112 0.8743044796941004 -0.048971821134749995 -0.3870575784757723 20 20 20 0.9041992132340616 15 1308 22 1378
1113 0.8743044796941004 -0.048971821134749995 -0.3870575784757723 20 20 20 0.9041992132340616 15 1309 22 1379
1114 0.8670930672774296 -0.056765375965024435 -0.3879971712056962 167 167 169 1.011963737843889 15 1338 22 1409
1115 0.896978613417654 -0.07959839935137993 -0.3885730370913409 20 22 23 0.6571715435356871 15 1389 22 1466
1116 0.831732395063697 0.13928428945495802 -0.39114031676817834 168 162 166 1.6304350212394967 16 127 17 208 24 104
1117 0.8318323274679496 0.13348538994198586 -0.39068592117063944 188 185 185 0.3863792818429604 16 149 17 222
1118 0.8315408140508429 0.09559075334353037 -0.38442061728708393 172 168 171 0.8525685640651616 16 268 17 283 25 791 26 419
1119 0.8315408140508429 0.09559075334353037 -0.38442061728708393 172 168 171 0.8525685640651616 16 269 17 284 25 792 26 420
1120 1.0809422358092722 0.09176078800867334 -0.3857231745901133 88 91 92 0.7530472559773242 16 437 17 481
1121 0.9263824964065783 0.0633092468569683 -0.38324755487144124 177 185 182 0.19684955049505085 16 513 17 510
1122 0.8949275227799409 0.04357527050622053 -0.38290037126591403 172 181 182 0.09853580658210197 16 606 17 598 18 383
1123 0.8950233470629221 0.043644956267669725 -0.38324769626491373 169 172 175 0.06742035030943498 16 607 17 600 19 319
1124 1.0852946781546613 0.05080280917839631 -0.39571689589982945 103 103 104 0.5109983398851824 16 630 17 652
1125 0.9636880346683216 0.04012067165735252 -0.3817506580449882 179 185 183 0.2524046493650679 16 645 17 642
1126 0.9057383943141379 0.028461885356579168 -0.38222541712510233 25 26 22 0.14887457496053808 16 696 17 673 19 396
1127 0.9716793968185596 0.02529650706327279 -0.38087980832121193 181 187 185 0.21615364845776405 16 734 17 730
1128 0.9716793968185596 0.02529650706327279 -0.38087980832121193 181 187 185 0.21615364845776405 16 735 17 731
1129 0.9220399499928064 0.01276373609686998 -0.3823405724478565 163 169 167 0.888302840536743 16 778 17 777 24 807
1130 0.9220399499928064 0.01276373609686998 -0.3823405724478565 163 169 167 0.888302840536743 16 779 17 778 24 808
1131 0.863783881460583 0.008342131299360593 -0.38329808616285455 32 35 34 0.22257454364792556 16 804 17 783 18 568
1132 0.8332573317810618 -0.0077601740026071245 -0.38357868116030797 104 98 101 0.04512542183767535 16 895 17 868
1133 0.833349318392002 -0.032448982551037994 -0.3836489396441071 89 84 88 0.02193042696448083 16 1034 17 1038
1134 0.8317213097496018 -0.037939640082249045 -0.38382746914209237 88 87 89 0.03272275014383993 16 1071 17 1085
1135 0.8317213097496018 -0.037939640082249045 -0.38382746914209237 88 87 89 0.03272275014383993 16 1072 17 1086
1136 0.9264278188133541 -0.050077665845559005 -0.38071126230087243 36 38 35 0.15747215189082964 16 1086 17 1107 25 2110
1137 0.9264278188133541 -0.050077665845559005 -0.38071126230087243 36 38 35 0.15747215189082964 16 1087 17 1108 25 2109
1138 0.888094273627474 -0.07726771758483926 -0.3817149436633474 18 21 22 0.02987606683767684 16 1184 17 1211
1139 0.8638348679141521 0.10215537742031872 -0.3866336252362765 21 26 24 0.11400893050004594 16 261 18 92
1140 0.8638348679141521 0.10215537742031872 -0.3866336252362765 21 26 24 0.11400893050004594 16 262 18 93
1141 0.8636429163102021 0.07035039677984238 -0.38342478867483337 35 31 26 0.12842182020348877 16 433 18 196
1142 0.8636429163102021 0.07035039677984238 -0.38342478867483337 35 31 26 0.12842182020348877 16 434 18 197
1143 0.8318204848428208 0.036257245461852654 -0.3838613674217836 117 113 114 0.06110667980568862 16 637 18 362
1144 0.8925248328299015 0.03568635301759589 -0.38390791250696793 173 181 180 0.1845254516587176 16 651 18 418
1145 0.9649166886457236 0.03219632403409745 -0.3811237356556882 179 182 181 0.7991634862684643 16 686 18 483 24 681
1146 0.9911031613462322 0.0018393636599039294 -0.3802766100789863 179 185 183 0.057670003435866445 16 835 18 668
1147 0.8311377276412435 -0.0034063815328026856 -0.3833528485943709 92 92 95 0.00244170621940039 16 876 18 621
1148 0.8311377276412435 -0.0034063815328026856 -0.3833528485943709 92 92 95 0.00244170621940039 16 877 18 622
1149 0.8332096745238785 -0.016258969153396828 -0.38356129151633483 166 166 164 0.023219862240160438 16 947 18 710
1150 0.8335598143369165 0.13742136442408268 -0.38765233750788236 193 192 192 0.6149227619009098 16 129 19 27
1151 0.8316990211826497 0.09439879845161282 -0.3873281607394897 186 185 189 0.5958642564744175 16 278 19 76
1152 0.9258955824336407 0.07534482970877737 -0.38319721885037134 178 184 184 0.3733747530913838 16 441 19 190
1153 0.8317983629497537 0.05023157171125883 -0.38470822841118374 185 185 188 0.5529224744749897 16 556 19 259
1154 0.8317851970381148 -0.007113952127648332 -0.38306339465204553 102 100 102 0.4999545382143319 16 888 19 578
1155 0.9544004693004678 0.0900005740586193 -0.3682828409076311 180 185 179 0.16294114066376394 16 361 21 758
1156 0.9836171853429128 0.039738500816305165 -0.3695605998438858 53 64 62 0.5456469529754283 16 642 21 1139
1157 0.8323325319374842 0.03056265316099457 -0.3776834926199542 182 182 184 0.9090002388489337 16 666 21 1005
1158 0.8323325319374842 0.03056265316099457 -0.3776834926199542 182 182 184 0.9090002388489337 16 667 21 1007
1159 0.8708414443625047 0.007535667723841896 -0.38188167213699464 31 33 28 0.6708012160994108 16 807 21 1284 19 497 25 1530
1160 0.8708414443625047 0.007535667723841896 -0.38188167213699464 31 33 28 0.6708012160994108 16 808 21 1285 19 498 25 1531
1161 0.8595325651257665 0.001396211624259921 -0.3769692107076349 41 33 38 0.46489519380648725 16 848 21 1335
1162 0.8595325651257665 0.001396211624259921 -0.3769692107076349 41 33 38 0.46489519380648725 16 849 21 1336
1163 0.9264243506716697 -0.059538561587453236 -0.37508235319142896 179 179 181 0.6561386529781181 16 1127 21 1781
1164 0.9518355371673802 -0.07953509325055791 -0.37719306619677684 171 174 173 0.8194137288612278 16 1172 21 1835 25 2272
1165 0.9518355371673802 -0.07953509325055791 -0.37719306619677684 171 174 173 0.8194137288612278 16 1173 21 1836 25 2273
1166 0.9434694685088874 0.09207147219568576 -0.34735607141841024 193 201 202 1.2096628929203879 16 298 23 1102
1167 0.9321343124236612 0.07987314202709365 -0.34653380010358453 35 43 42 1.1083735478623478 16 363 23 1203
1168 0.8307258456980897 0.13091765086880064 -0.38147838104958265 159 155 156 1.3903033419055593 16 141 24 110
1169 0.8307258456980897 0.13091765086880064 -0.38147838104958265 159 155 156 1.3903033419055593 16 142 24 111
1170 0.8306477362920712 0.11607933823566242 -0.3812403191451216 184 182 184 1.4511245791656984 16 204 24 130
1171 0.8306477362920712 0.11607933823566242 -0.3812403191451216 184 182 184 1.4511245791656984 16 205 24 131
1172 0.8946102333035255 0.10606651961386422 -0.38376771665601694 182 185 184 1.024559017428399 16 259 24 173
1173 0.8325034717300482 0.08255383275941953 -0.38208495568553547 144 137 134 1.5154516545474808 16 346 24 215
1174 0.9690327469758634 0.09215957983215094 -0.38400397450360624 47 51 48 0.7087470022023089 16 375 24 307
1175 0.939283838080788 0.08666618635060773 -0.3800675210842675 35 38 37 1.2440119385586514 16 380 24 301 26 627
1176 0.8310540152469946 0.06911794317790675 -0.38303942391635715 186 186 188 1.552147668757751 16 425 24 302
1177 0.9953545931010458 0.07558780196868287 -0.3846349604278461 72 73 73 0.7456543643994327 16 481 24 435
1178 0.8297394950898546 0.052086919739302975 -0.3853223553547809 181 184 185 1.6334421221179825 16 543 24 443
1179 0.9633322884409726 0.029352610354183836 -0.38563996955147345 37 45 44 0.9052802703746795 16 701 24 701
1180 0.8605353862732519 0.005433930601158389 -0.38689172056558874 178 181 182 1.435132231286887 16 816 24 837
1181 0.9887746021305479 0.002271442658418833 -0.3861742457742419 66 68 69 0.906693570444629 16 833 24 903
1182 0.8310164915971755 -0.012784492456327455 -0.3878410707295479 121 120 122 1.858876916817347 16 927 24 965
1183 0.964408233515028 -0.018469196310209525 -0.38583602640314674 178 185 182 1.4680264968423096 16 932 24 1033 26 1191 29 949
1184 0.832365365980493 -0.03544695194817221 -0.389238896248543 85 79 84 1.8314661659191966 16 1050 24 1143
1185 0.832365365980493 -0.03544695194817221 -0.389238896248543 85 79 84 1.8314661659191966 16 1051 24 1142
1186 0.8333817015085266 -0.03843029581729939 -0.3894233061173124 97 93 98 1.8093190263060166 16 1069 24 1169
1187 0.9744995684298362 -0.09934287406607172 -0.3899730525230939 38 41 43 0.9112278205563762 16 1202 24 1369
1188 0.8917059310589919 -0.09997957518385502 -0.39306610985225593 26 26 26 1.0860501787734735 16 1213 24 1382
1189 0.8318450673956822 0.0662642308015765 -0.3856952151066868 176 176 176 0.8397782911414733 16 448 25 1004
1190 0.8881263646488937 0.028454425151393972 -0.3840284141276883 27 30 29 0.5058931897992691 16 691 25 1441
1191 0.8881263646488937 0.028454425151393972 -0.3840284141276883 27 30 29 0.5058931897992691 16 692 25 1442
1192 0.8332763278353655 0.02252805053366314 -0.38413894082980177 169 170 170 0.6909478856426948 16 729 25 1318
1193 0.8320713021233617 0.002757361880636008 -0.3836536606674793 163 168 177 0.6219668826029094 16 836 25 1428
1194 0.8320713021233617 0.002757361880636008 -0.3836536606674793 163 168 177 0.6219668826029094 16 837 25 1429
1195 0.9713824878324568 -0.011012359928397135 -0.3801105045927368 173 179 177 0.15939753096291964 16 893 25 1948
1196 0.8319250569187838 -0.008488119378219713 -0.3834824237891656 101 104 104 0.5768441237873566 16 902 25 1508
1197 0.932261178438916 -0.05178722686272884 -0.3821221659515752 159 160 156 0.42112150323045905 16 1089 25 2132 17 1115 18 914
1198 0.9812503767056833 -0.06438292870778868 -0.3790890126000444 38 44 44 0.01801570442163211 16 1123 25 2254
1199 0.8955149681631834 0.06800452801542359 -0.3809804664625711 21 25 20 1.139413420276229 17 470 18 232 24 385 25 1242 27 462
1200 0.9958071100167194 0.06763292464717231 -0.38023881125738196 178 183 181 0.261110383979206 17 530 18 316
1201 0.8947873575000034 0.04342203950145758 -0.3824974495271053 169 172 175 0.08172880229819247 17 599 18 384
1202 0.9018786588121868 0.031877996182178285 -0.382558826857041 164 170 172 0.0812083554410313 17 651 18 446
1203 0.8873789406480317 0.02827438822109614 -0.38238094462806915 24 25 21 0.006388592015060087 17 661 18 450
1204 1.0716787205806135 0.03622675071563555 -0.3801183173631154 120 126 124 0.09552648820418805 17 708 18 539
1205 0.9863252716545584 0.0025196889067916712 -0.3822749407952162 60 65 70 0.19822222288143518 17 848 18 662
1206 0.9863252716545584 0.0025196889067916712 -0.3822749407952162 60 65 70 0.19822222288143518 17 849 18 663
1207 0.8317452408758853 -0.010566140034220604 -0.3828912413700796 182 187 189 0.5709469153109772 17 885 18 666
1208 0.8317452408758853 -0.010566140034220604 -0.3828912413700796 182 187 189 0.5709469153109772 17 886 18 667
1209 0.8916164324210637 -0.019602193819256743 -0.38180613189196927 33 26 24 0.06268078094685674 17 943 18 751
1210 0.8916164324210637 -0.019602193819256743 -0.38180613189196927 33 26 24 0.06268078094685674 17 944 18 752
1211 0.9328765598868053 -0.051798880870915075 -0.383667344012199 154 162 161 0.05069022916676436 17 1114 18 913
1212 0.9997834591548964 -0.064296522470015 -0.38011645672521743 55 61 63 0.15903701100166767 17 1156 18 980
1213 0.9997834591548964 -0.064296522470015 -0.38011645672521743 55 61 63 0.15903701100166767 17 1157 18 981
1214 0.9216295012850901 -0.06322389421503677 -0.38341507994623675 22 25 24 0.010761179604958232 17 1162 18 976
1215 0.8333729700851066 0.09041957833692807 -0.3856344189734213 198 197 199 0.39231479948766473 17 306 19 85
1216 0.9581635326269073 0.09473546942698563 -0.3827903261100753 48 39 31 0.26695207624606243 17 377 19 122
1217 0.8633559494507308 0.0745780271708857 -0.38424879350830504 184 187 188 0.23646952462220872 17 408 19 155
1218 0.8633559494507308 0.0745780271708857 -0.38424879350830504 184 187 188 0.23646952462220872 17 409 19 156
1219 0.8563356105677162 0.05960954471698399 -0.3846864651279738 35 34 34 0.24005410300150828 17 484 19 220
1220 0.8311854529059424 0.05590989807791654 -0.384846602298723 126 124 123 0.44848030589733423 17 488 19 222
1221 0.8311854529059424 0.05590989807791654 -0.384846602298723 126 124 123 0.44848030589733423 17 489 19 224
1222 0.8318589674203897 0.04809886286653225 -0.3848461635507311 193 192 194 0.4425239726306529 17 533 19 268
1223 0.8318246569782515 0.04851205112305666 -0.3859122126211732 193 192 194 1.8895278650690375 17 534 19 269 24 474
1224 0.9150697147855867 0.05065221847014188 -0.3829813687647597 24 27 30 0.12302767174152002 17 570 19 302
1225 0.9150697147855867 0.05065221847014188 -0.3829813687647597 24 27 30 0.12302767174152002 17 571 19 303
1226 0.8751162519468976 0.015754960579553015 -0.3828595892621303 22 23 19 0.10402910346796565 17 747 19 457
1227 0.8751162519468976 0.015754960579553015 -0.3828595892621303 22 23 19 0.10402910346796565 17 748 19 458
1228 0.9367190252703332 0.016106380706691584 -0.3814320151590577 38 41 42 0.266782795231554 17 768 19 478
1229 0.9303064184703683 0.009850612794759062 -0.3813420503459797 177 180 179 0.21571403386746618 17 790 19 504
1230 0.9303064184703683 0.009850612794759062 -0.3813420503459797 177 180 179 0.21571403386746618 17 791 19 506
1231 0.9303064184703683 0.009850612794759062 -0.3813420503459797 177 180 179 0.21571403386746618 17 792 19 507
1232 0.8315700929335196 -0.0306154256524163 -0.3814352551342876 176 179 182 0.6190050968592213 17 1028 19 731
1233 0.9653793125920662 -0.08539581611118345 -0.37721136849765763 35 41 41 0.3063362107229213 17 1219 19 969
1234 0.9653793125920662 -0.08539581611118345 -0.37721136849765763 35 41 41 0.3063362107229213 17 1220 19 970
1235 0.9526003296705579 0.0934365563591792 -0.3842414144357443 29 32 33 0.54282253213942 17 386 24 284
1236 0.9526003296705579 0.0934365563591792 -0.3842414144357443 29 32 33 0.54282253213942 17 387 24 285
1237 0.9489221390533467 0.0841687746238368 -0.3876545911563148 28 34 36 0.5944288242481405 17 437 24 350
1238 0.9852399076293166 0.07513425078723987 -0.38162704878072384 44 50 50 0.5061629029302427 17 494 24 430
1239 0.8911346754762224 0.040138023231653684 -0.38522328642951703 170 173 174 0.9871823825394624 17 614 24 598
1240 0.9486409748812076 -0.015071535224999844 -0.37842462898583523 46 54 55 0.7778964690989613 17 924 24 1006 25 1923
1241 0.965265914725482 -0.01624992214862571 -0.37880283811012183 35 41 43 0.7500567371215544 17 931 24 1021
1242 0.965265914725482 -0.01624992214862571 -0.37880283811012183 35 41 43 0.7500567371215544 17 932 24 1022
1243 0.9488064688196305 -0.08600764018759818 -0.3707713987507821 188 189 190 1.0510971365182156 17 1227 24 1364
1244 0.9012011277239873 0.10441910187792172 -0.38190723451217756 181 180 180 0.07347514481392894 17 297 25 1013
1245 0.9012011277239873 0.10441910187792172 -0.38190723451217756 181 180 180 0.07347514481392894 17 298 25 1014
1246 0.829629198404542 0.047578101608624176 -0.38384509229410047 175 179 174 1.1616578520916345 17 529 25 1146
1247 0.9530970411677527 0.03238654019350289 -0.3801768910919331 56 62 62 0.15105403671352358 17 670 25 1613
1248 0.9530970411677527 0.03238654019350289 -0.3801768910919331 56 62 62 0.15105403671352358 17 671 25 1614
1249 0.8311583388697795 -0.02780773038810854 -0.3804995329271093 120 124 124 0.008980168828219478 17 999 25 1651
1250 0.8311583388697795 -0.02780773038810854 -0.3804995329271093 120 124 124 0.008980168828219478 17 1000 25 1652
1251 0.8717277903441931 -0.05351226629821133 -0.3813205980711594 158 164 164 0.06152070700052628 17 1129 25 1967
1252 0.9534562321634349 -0.09363502181781659 -0.3782508951385307 28 36 37 0.1567966332175415 17 1236 25 2291
1253 0.8675420163241867 0.06610149661687263 -0.38280204384864536 44 42 45 1.437471081238671 18 217 21 780
1254 0.9259816324041898 0.07547919204570876 -0.3831749214177161 185 185 184 1.8049134763401444 18 228 21 828 22 620
1255 0.9639209756537611 0.031582397188608384 -0.37935262632951644 193 200 199 0.018772962060219573 18 484 21 1191
1256 0.9270129203389241 -0.02466049753621903 -0.37987501443527194 26 32 30 1.102062440062122 18 782 21 1603 24 1069
1257 0.8311479508274032 0.07108128656487485 -0.38442043341245286 142 141 144 0.8671020312798089 19 150 21 661
1258 0.9971676075359178 0.027571326532339895 -0.3778199483596702 70 73 74 0.5217784669416876 19 440 21 1275
1259 0.9293308097989648 0.0011012798486346852 -0.3801416907479794 49 44 47 0.6056624437686654 19 562 21 1403
1260 0.9023089774931584 0.09625511659978446 -0.3855032692763721 193 196 197 0.3544924562364574 19 96 22 463
1261 0.9023089774931584 0.09625511659978446 -0.3855032692763721 193 196 197 0.3544924562364574 19 97 22 464
1262 0.9932905477919021 0.07251543256265335 -0.3829748618880458 180 180 180 0.9945943079349613 19 240 22 650
1263 0.9932905477919021 0.07251543256265335 -0.3829748618880458 180 180 180 0.9945943079349613 19 241 22 651
1264 0.9256077347921653 -0.05691647437838226 -0.3798448901272305 38 38 40 0.1201922022431119 19 875 22 1375
1265 0.9637802198923076 -0.08826776540975292 -0.378356449008569 44 47 48 0.5062613401767735 19 976 22 1456
1266 0.8908132421551062 -0.09145522654136475 -0.37963980176889944 170 171 171 0.2613445378279873 19 987 22 1493
1267 0.8312975871607522 0.06961551317358972 -0.38387440026396397 176 175 173 0.29023253152213807 19 157 25 972
1268 0.831085067803279 0.031080961711536542 -0.3833093812206026 118 118 114 0.26641916430199863 19 343 25 1250
1269 0.8310747708496776 0.030977481813126453 -0.38296079010895184 125 125 125 0.3434929856247486 19 344 25 1251 28 930
1270 0.8296999442339437 0.02058055421237004 -0.3821140618793408 170 174 173 0.26192050473808653 19 406 25 1313
1271 0.8318950332482477 -0.004742267198335616 -0.3824153506217474 159 165 165 0.2294402156807748 19 566 25 1482
1272 0.9598677403617889 -0.018174952623730055 -0.37888041217129587 168 175 175 0.24266174400486712 19 674 25 1960
1273 0.9521495188005313 -0.029991589771698492 -0.3789876996944935 167 173 171 0.21819018825254372 19 752 25 2037
1274 0.859889462125706 -0.061475562194577595 -0.3810235003486154 145 153 150 0.06451476111782688 19 899 25 1995
1275 0.8945551413327224 -0.07695164981300114 -0.3801156618958411 16 19 18 0.06235671537190958 19 953 25 2200
1276 0.8877585031590421 -0.07691522699491257 -0.3806206899115623 18 21 20 0.038234858858622926 19 955 25 2191
1277 0.9042488753108003 -0.07794158203438191 -0.3796712643019168 18 22 17 0.09703198444818328 19 956 25 2213
1278 0.8841426369125015 0.0973898162211601 -0.35993575231970004 43 32 25 0.11350914923056253 21 585 22 395
1279 0.9482024357670832 0.0955449101991118 -0.3606273245431839 59 58 60 0.7135576088601855 21 683 22 438
1280 0.9568062517652894 0.044043732135198174 -0.36756259061115537 42 51 50 1.0912176870452717 21 1072 22 809
1281 0.9558466697485706 0.03847521598433392 -0.3684246067869682 188 196 195 0.8284576295627838 21 1116 22 845
1282 0.9613624112679008 0.027881210775316006 -0.36986115668299374 48 55 49 0.8000752068589166 21 1236 22 912
1283 0.8898136695221671 -0.026462911171836086 -0.37060435609045933 186 186 186 0.43558172239388765 21 1606 22 1291
1284 0.8846449910591788 -0.03180511501638018 -0.3708499897458693 29 30 26 0.48490892980726374 21 1635 22 1316
1285 0.8846449910591788 -0.03180511501638018 -0.3708499897458693 29 30 26 0.48490892980726374 21 1636 22 1315
1286 0.901117464807109 0.0885353151006437 -0.37569536518533697 36 39 40 1.756684427198862 21 665 24 240
1287 0.979581892956091 0.0599883616988937 -0.37710420426888447 65 76 76 0.6806834272926012 21 1012 24 516
1288 0.9084854714435301 0.024444191485100453 -0.3800168736988509 185 191 189 1.5300562350970481 21 1164 24 699
1289 1.0681125971366099 0.02321857272756471 -0.38011429248857365 124 120 121 0.044947040885205874 21 1379 24 786
1290 0.9289460084822616 -0.0023250201148395985 -0.3796699697188959 42 45 44 1.2179068405367715 21 1440 24 914
1291 0.997910154805302 -0.011593585802063102 -0.3748185025891051 66 73 78 0.768879115674277 21 1572 24 991 25 2033
1292 0.9645173550915829 -0.022698377810934714 -0.37994199536021356 199 202 202 0.8313846008457296 21 1611 24 1061
1293 0.9326775275674835 -0.05235958652586569 -0.38343948299737285 179 179 179 1.116574605756253 21 1735 24 1231
1294 0.9226860742715313 -0.05830480045794286 -0.3829153253159942 175 175 175 1.2158445769428787 21 1770 24 1263
1295 0.8741647020319481 -0.06483250797679914 -0.3787093429899331 24 27 26 1.8786798602923687 21 1793 24 1311
1296 0.9941431346353311 0.06570951768635219 -0.3885649015587239 189 196 190 0.6533636738548952 22 707 24 501
1297 0.9941431346353311 0.06570951768635219 -0.3885649015587239 189 196 190 0.6533636738548952 22 708 24 502
1298 0.9076952790521495 0.048294656130542395 -0.38821172199597215 30 31 30 0.4747410425769484 22 810 24 557
1299 0.9644371201935471 0.03639827823195852 -0.3872274103009841 43 49 49 0.5068028137308298 22 866 24 659
1300 0.9684883564917435 0.0331549408023092 -0.3872907541631613 185 196 192 0.5686243161889073 22 885 24 684
1301 0.9493783464166494 0.0257767954972402 -0.3872074112870109 187 195 193 0.5250276205174783 22 935 24 714
1302 0.9431773681963126 0.02042813989391839 -0.3872638813072044 182 188 187 0.5513633699280256 22 974 24 762
1303 0.9431773681963126 0.02042813989391839 -0.3872638813072044 182 188 187 0.5513633699280256 22 975 24 763
1304 0.8763480877234255 0.016591167316429376 -0.3889531636349383 29 29 29 0.7501278528038033 22 1030 24 754
1305 0.8763480877234255 0.016591167316429376 -0.3889531636349383 29 29 29 0.7501278528038033 22 1031 24 755
1306 0.8960820236999965 -0.01868322269547324 -0.38670667504529666 167 173 173 0.37753512471446476 22 1251 24 1030
1307 0.9229035481717194 0.06413356816819714 -0.3833296017019044 47 50 45 0.9265823495262193 22 704 25 1344
1308 0.9266548552113955 0.06341276440479944 -0.38372628003686265 173 176 171 0.8599645075268966 22 711 25 1360
1309 0.9580684598792784 0.04450696809556093 -0.38307539965291043 172 175 176 0.41407624059588793 22 819 25 1560
1310 0.8953786705813795 0.035971508989718605 -0.3834200135168312 167 175 169 0.9183964966242487 22 877 25 1420
1311 0.8981147852074651 -0.019137433094244607 -0.3818683118072914 156 164 161 0.5607160821280536 22 1254 25 1834
1312 0.9888942141955235 -0.05672488549433122 -0.3791357100006645 174 178 174 0.10114563423152752 22 1336 25 2238
1313 0.9884097639520023 -0.06036618582766655 -0.378960431161209 48 46 53 0.7397197169667492 22 1344 25 2251 27 1215
1314 0.9680344585045505 -0.09532863727088446 -0.3788559797506513 33 39 41 0.02339521219700368 22 1469 25 2297
1315 0.9576539518804807 0.10202379480078434 -0.3661302074857782 52 52 53 0.01436486130660757 23 1082 24 212
1316 0.9518516349242018 0.08753282349054992 -0.3652465859349679 195 201 201 0.009471408657433072 23 1191 24 278
1317 0.9660281873098687 0.07554801058445057 -0.364485308426006 195 201 199 0.029696803787770426 23 1260 24 380
1318 0.9222990488508667 0.0722191017443794 -0.3676012005186951 38 42 45 0.031570291057836146 23 1317 24 361
1319 0.9912378222305703 0.04655663697653217 -0.36757597729473207 61 71 74 0.04878620109766082 23 1476 24 599
1320 0.9912378222305703 0.04655663697653217 -0.36757597729473207 61 71 74 0.04878620109766082 23 1477 24 600
1321 0.8563159146067226 0.010442122074466563 -0.3697471098874493 190 190 192 0.03439738510250493 23 1877 24 778
1322 0.8670414506111265 0.00630482488666566 -0.37055975918915657 50 46 44 0.43585817342652144 23 1898 24 815 27 790
1323 0.8670414506111265 0.00630482488666566 -0.37055975918915657 50 46 44 0.43585817342652144 23 1899 24 816 27 791
1324 0.9818156939542366 -0.05658664831371646 -0.3643247998383797 186 189 188 1.3352417207009686 23 2084 24 1247 26 1365
1325 0.9598328837617703 -0.03334722758486585 -0.3693429615920101 46 47 51 1.059754718689427 23 2024 25 2099
1326 0.8864408805154775 -0.0226127523092315 -0.37185734244854635 184 184 184 0.37170103330423115 23 2044 25 1838
1327 0.9694640456581453 -0.04155844311836547 -0.3688148817238376 201 201 201 1.2268356088502796 23 2047 25 2177 24 1176
1328 0.9731227912247092 -0.05566197567771658 -0.3688099689913247 43 43 48 1.1106730680276644 23 2087 25 2233
1329 0.9665112114802318 0.10559082704670213 -0.3660369869912701 51 59 58 1.0358201269119414 23 1065 26 546
1330 0.9665112114802318 0.10559082704670213 -0.3660369869912701 51 59 58 1.0358201269119414 23 1066 26 547
1331 0.9006987641412737 0.04386350249902563 -0.3707685647967024 34 35 34 0.01800627956914783 23 1565 26 795
1332 0.8301556985767937 0.08537168965660424 -0.37787247384741457 127 127 123 1.9903873562437364 24 186 25 838
1333 0.8292641779821487 0.06839857837170975 -0.3773884014750839 127 122 119 1.8532342871332574 24 290 25 964
1334 0.8936535766677267 0.06654920019460424 -0.3770277765395833 22 25 24 1.2441856438229513 24 386 25 1243 27 463
1335 0.9316134003174368 0.012537961646391512 -0.3772160973646625 170 173 172 1.1576612267470006 24 810 25 1700 27 859
1336 0.9775811077464164 0.008456859991669318 -0.37562317373794485 63 71 72 0.239916327575273 24 859 25 1869
1337 0.8297633246346754 -0.013469770272957702 -0.37282366940061795 151 150 152 0.775878539876263 24 971 25 1546
1338 0.9464490436819086 -0.015114508515483814 -0.3752221073469073 46 54 55 0.24600152319787463 24 1005 25 1922
1339 0.9847369825239319 -0.06349138737148012 -0.3743907346445044 41 44 47 0.9222047471688126 24 1283 25 2261
1340 0.9588110987842929 -0.07781037855742286 -0.3813277631751544 29 36 40 1.9878584367163523 24 1334 25 2267 26 1407 28 1504
1341 0.9334133097719028 0.08245016240019482 -0.36992154937104216 33 40 34 0.22577758182980226 24 300 26 626
1342 0.9711701988080311 0.08724443671493028 -0.3807104641006467 192 193 189 1.4260900045412956 24 333 26 667 28 529
1343 0.9711701988080311 0.08724443671493028 -0.3807104641006467 192 193 189 1.4260900045412956 24 334 26 668 28 530
1344 0.8308629804413287 0.05189267420590752 -0.37426973608317454 120 116 113 0.5438845702611992 24 424 26 613
1345 0.8304428469242757 0.035345565210612995 -0.37380784587845023 122 119 120 0.5264722094216806 24 571 26 719
1346 0.8304428469242757 0.035345565210612995 -0.37380784587845023 122 119 120 0.5264722094216806 24 572 26 720
1347 0.9769334280677114 -1.1508098982055576e-05 -0.3616845398155876 184 190 188 0.38240881566001156 24 907 26 1130
1348 0.8300731368555414 -0.017547619452328293 -0.374241617878712 173 173 176 1.0114189110847414 24 1008 26 1052
1349 0.8300731368555414 -0.017547619452328293 -0.374241617878712 173 173 176 1.0114189110847414 24 1009 26 1053
1350 0.9720589098597431 -0.044885487219424924 -0.3668021516314885 45 50 53 0.6960551025779541 24 1199 26 1321
1351 0.97321077093432 -0.06316924178523502 -0.36808242593676777 40 46 48 0.7462422407974991 24 1287 26 1380
1352 0.8294976950055527 0.09145652569597032 -0.3740596332384545 151 143 141 0.4950280518304508 24 163 27 276
1353 0.8282117222182322 0.06866092477842692 -0.3740708124102956 191 191 193 0.8422927608447784 24 277 27 350
1354 0.8830239674258852 0.026054958911136083 -0.37058191398354995 29 32 31 0.39169153908414006 24 665 27 685
1355 0.8830239674258852 0.026054958911136083 -0.37058191398354995 29 32 31 0.39169153908414006 24 666 27 686
1356 0.9291595543325744 0.014041939464854252 -0.36755025006319725 38 41 40 0.20623236678675175 24 781 27 845
1357 0.8913465317480312 0.004960292279264047 -0.36890792794568655 16 22 20 0.3936568631376664 24 844 27 846
1358 0.8692102047403273 -0.047185218704996236 -0.37061818319347245 23 24 24 0.6288602058515105 24 1219 27 1092
1359 0.8692102047403273 -0.047185218704996236 -0.37061818319347245 23 24 24 0.6288602058515105 24 1220 27 1093
1360 0.8633889426346201 -0.06212601131919981 -0.3716390830398945 20 23 22 0.44475932215414715 24 1304 27 1161
1361 0.8633889426346201 -0.06212601131919981 -0.3716390830398945 20 23 22 0.44475932215414715 24 1305 27 1160
1362 0.9427107537996238 -0.06887279944040446 -0.3833565066916272 169 172 171 1.900633674916782 24 1308 27 1222 25 2223 29 1143
1363 0.9427107537996238 -0.06887279944040446 -0.3833565066916272 169 172 171 1.900633674916782 24 1309 27 1223 25 2224 29 1144
1364 0.9331266776340985 -0.07130710369597118 -0.3673461781378243 27 30 29 0.3898204785824188 24 1330 27 1246
1365 0.9331266776340985 -0.07130710369597118 -0.3673461781378243 27 30 29 0.3898204785824188 24 1331 27 1247
1366 0.8911690766912604 -0.08201926783666662 -0.36942173240924236 19 22 18 0.5221902421050526 24 1366 27 1260
1367 0.8304674799528707 0.1264060968604121 -0.3900526970172709 185 181 182 0.5606534037563169 25 548 26 324
1368 0.8765973954282844 0.11038811531602506 -0.3817435422248992 26 32 31 0.6282220198523021 25 867 26 427
1369 0.9013117347558489 0.09411387222496567 -0.3822246382642401 180 178 175 0.6203426989758918 25 1088 26 527
1370 0.9013117347558489 0.09411387222496567 -0.3822246382642401 180 178 175 0.6203426989758918 25 1089 26 528
1371 0.8467343597362087 0.0591677304316038 -0.38814360689031235 177 180 179 0.3466273150462513 25 1134 26 616
1372 0.9638434695234739 -0.02207543365895904 -0.3840734076083511 54 54 58 0.9417519463803098 25 1985 26 1206
1373 0.9638434695234739 -0.02207543365895904 -0.3840734076083511 54 54 58 0.9417519463803098 25 1986 26 1207
1374 0.9431974538554385 0.08858709308897575 -0.38573231799664326 36 42 40 0.595300464295027 25 1269 27 449
1375 0.9193615667293684 0.05809716657089527 -0.38981405102409933 173 176 175 0.716582428829057 25 1368 27 573
1376 0.9685072193479379 0.030782642926510926 -0.3913049915159651 49 56 60 0.47798210743418684 25 1674 27 797
1377 1.004670678432908 0.00031414619702154666 -0.38722702708056783 71 79 80 0.26279878295248993 25 1947 27 984
1378 0.9683711657220136 -0.03399454879089615 -0.3956637856441369 42 50 51 0.07433755482030745 25 2081 27 1094
1379 0.8325175696626662 0.13245332868810336 -0.38961611044810746 178 176 178 0.0371700484348058 25 494 28 270
1380 0.8319168431633044 0.0807184638980967 -0.38465174742660374 177 177 173 0.22847417530831848 25 890 28 536
1381 0.8319887177750535 0.07181505196589848 -0.3841525518758111 184 184 180 0.27226491028945277 25 962 28 602
1382 0.8724308191464029 0.07500625369405023 -0.3836954154847087 23 26 25 0.3386418209752762 25 1111 28 584
1383 0.8724308191464029 0.07500625369405023 -0.3836954154847087 23 26 25 0.3386418209752762 25 1112 28 586
1384 0.8323189263684615 0.02439391121637317 -0.3826659533401964 142 142 142 0.43159518709853517 25 1296 28 997
1385 0.8319406642177347 -0.0003682339328498264 -0.38271102279016006 94 97 95 0.4712363474865608 25 1453 28 1197
1386 0.8319406642177347 -0.0003682339328498264 -0.38271102279016006 94 97 95 0.4712363474865608 25 1454 28 1198
1387 0.8672249179799704 0.0008971871915243056 -0.38176083245547854 31 31 25 0.6621725382596754 25 1566 28 1177
1388 0.8672249179799704 0.0008971871915243056 -0.38176083245547854 31 31 25 0.6621725382596754 25 1567 28 1178
1389 0.8320329137592917 -0.017494417168758682 -0.38219379685008464 165 169 168 0.5175182759512355 25 1579 28 1280
1390 0.831282115418965 -0.020493198274372758 -0.38185241707669293 106 108 109 0.527171939891533 25 1599 28 1294
1391 0.8306745851164182 -0.029586110697268006 -0.38143980301410807 129 131 130 0.5416480232001718 25 1669 28 1336
1392 0.8306745851164182 -0.029586110697268006 -0.38143980301410807 129 131 130 0.5416480232001718 25 1670 28 1337
1393 0.8325265361898709 -0.03487040866478574 -0.38199293040855153 73 72 72 0.5558004181050326 25 1737 28 1372
1394 0.936523505733949 -0.05477950322231435 -0.38290613507863974 159 167 164 0.353723364760748 25 2156 28 1428 29 1091
1395 0.936523505733949 -0.05477950322231435 -0.38290613507863974 159 167 164 0.353723364760748 25 2157 28 1429 29 1092
1396 0.8323242676339133 0.07143501553447762 -0.3845704509772469 181 184 190 0.2743174246682786 26 519 28 610 29 593
1397 0.9725325337930074 0.11198757742839965 -0.3875265958198406 71 74 77 0.29887093294374634 26 548 28 359
1398 0.9643097136344179 0.10482931440990716 -0.3869692750924669 68 64 65 0.21353535560190964 26 575 28 403
1399 0.8723748222717818 0.06657688877096415 -0.384857584458585 176 184 185 0.026724017400574302 26 620 28 665
1400 0.985756789587474 0.08002864411916306 -0.3866238679899192 79 79 81 0.27252697778755713 26 745 28 593
1401 0.985756789587474 0.08002864411916306 -0.3866238679899192 79 79 81 0.27252697778755713 26 746 28 594
1402 0.9753107058434181 0.05178681856071431 -0.38584036225913776 191 191 191 0.21854492169195197 26 858 28 780
1403 0.902904586051203 0.031824070582053644 -0.38470047711267513 175 181 179 0.04303550665112105 26 859 28 926
1404 0.9496705925395057 -0.005960486410273291 -0.38485772350430586 38 46 45 0.09967332053020143 26 1123 28 1204
1405 0.9496705925395057 -0.005960486410273291 -0.38485772350430586 38 46 45 0.09967332053020143 26 1124 28 1205
1406 0.8642145615304128 0.10111695496762543 -0.38472906906899723 23 26 25 0.19327943199868586 26 448 29 473
1407 0.8642145615304128 0.10111695496762543 -0.38472906906899723 23 26 25 0.19327943199868586 26 449 29 474
1408 0.9939454787122278 0.06744802228883025 -0.3826395906811149 79 78 85 0.36942145987634023 26 815 29 642 31 1045
1409 0.9668875478479937 0.032194957696990184 -0.38321549670847443 175 183 182 0.19284249077746551 26 947 29 762
1410 0.8998228137995209 -0.019684773295371782 -0.38483798119423346 161 172 170 0.17932530547967165 26 1141 29 963
1411 0.9554363886258328 -0.03053542682383712 -0.38323704759718086 174 183 182 0.2901222794128465 26 1237 29 996
1412 0.9839321592053796 -0.057678124138262225 -0.38201925942179 43 49 49 0.7522590328258146 26 1351 29 1088
1413 0.8914928622007237 0.09398634432026555 -0.38324102291429485 185 188 187 0.23157082298235152 27 347 28 448
1414 0.8331060580151698 0.05640588586705406 -0.38370091117962957 112 109 107 0.5080046461797897 27 421 28 725
1415 0.8548316476863344 0.02580637121830588 -0.3847800385633586 25 31 29 0.1443971908164999 27 654 28 984
1416 0.940862520520498 0.025109361237355618 -0.38164101372567677 45 55 55 0.11459767638684243 27 787 28 981
1417 0.947188870032682 0.024980673911940837 -0.3813665168008545 187 190 189 0.16516997928904606 27 799 28 983
1418 0.9197758778475373 0.015935404374770392 -0.3820970872362423 35 43 44 0.2520461282103064 27 816 28 1049
1419 0.8548098872071912 -0.013430892676958827 -0.3839480484102717 22 26 25 0.35045183342678665 27 898 28 1259
1420 0.956011569482671 -0.020432801966224833 -0.38040097476162815 191 192 193 0.33718166960376084 27 1036 28 1265
1421 0.864784140060235 -0.06144465275924028 -0.3830223237996347 29 25 26 0.4766999203082088 27 1153 28 1485
1422 0.9226707588230699 -0.05776907556351819 -0.38089819336888764 180 186 186 0.24401164509270135 27 1168 28 1451
1423 0.9237335665587744 -0.06059234272456553 -0.3812010979774615 35 29 34 0.3221008534557018 27 1182 28 1460 29 1124
1424 0.923607650630187 -0.06056196557074421 -0.38097991888362936 44 38 45 0.3871130076202359 27 1183 28 1461
1425 0.8886767939086425 -0.07742477727171648 -0.3814815797076801 23 26 29 0.2618764633865457 27 1236 28 1525
1426 0.8914680736634865 0.10102880206699345 -0.3845851651205742 25 28 27 0.2391087841161737 27 329 29 478
1427 0.8335661996235587 0.0543789565077978 -0.384886174236598 120 117 114 0.44159577527491123 27 435 29 692 30 1032
1428 0.8327899842823715 0.026609895612228835 -0.3837358848379039 176 180 180 0.2775182679648569 27 604 29 791
1429 0.9613509377470119 -0.022135955285006358 -0.37967381788423205 54 53 60 0.07863762574629535 27 1042 29 959
1430 0.9151708604977725 -0.042492926204567336 -0.37880413615921815 169 175 175 0.03181655044454748 27 1102 29 1057
1431 0.8669067711888437 -0.05574176537257744 -0.3824355939548219 158 164 164 0.0423947089891736 27 1124 29 1122
1432 0.9029969767804878 0.04115987856317498 -0.3835240343409707 28 34 32 0.11837512631886313 27 643 30 1113
1433 0.8930384875894904 0.03529080975726872 -0.3831606229503151 194 197 199 0.13908607223066016 27 662 30 1148 31 1435
1434 0.8335106827080228 -0.004506112504167587 -0.38430688624989545 118 117 117 0.21322575151170767 27 808 30 1465
1435 0.8335106827080228 -0.004506112504167587 -0.38430688624989545 118 117 117 0.21322575151170767 27 809 30 1466
1436 0.934389621184014 0.012548308346847165 -0.3813823216296677 178 184 183 0.30207685614109364 27 860 30 1291
1437 0.934389621184014 0.012548308346847165 -0.3813823216296677 178 184 183 0.30207685614109364 27 861 30 1292
1438 0.9294155336418433 0.00384535646153795 -0.38021634884946437 173 185 183 0.3040853926965823 27 895 30 1366
1439 0.9294155336418433 0.00384535646153795 -0.38021634884946437 173 185 183 0.3040853926965823 27 896 30 1367
