# 3D point list with one line of data per point:
#   POINT3D_ID, X, Y, Z, R, G, B, ERROR, TRACK[] as (IMAGE_ID, POINT2D_IDX)
# Number of points: 432
204 0.8914917080822966 -0.02895166624205369 -0.38215968430279634 163 169 171 0.4296805958258136 4 2331 30 1591
205 0.9066972521820514 0.10948430928077733 -0.3841864871343215 42 41 43 0.2090193427764719 4 1240 31 832
206 0.9583105538050942 0.09438426774155731 -0.38150863524252027 43 33 25 0.026870480895842676 4 1356 31 892
207 0.8855433720569438 0.019054765119133003 -0.3834944150648573 34 37 38 0.16289193795976187 4 1969 31 1549 6 1348
208 0.8855359235090552 0.019072820569753773 -0.38341978238780844 34 37 38 0.1584492148476985 4 1970 31 1550
209 0.8645080048614204 0.0036222630268048493 -0.3841595579229967 192 195 196 0.12913491345696346 4 2103 31 1700
210 0.8645080048614204 0.0036222630268048493 -0.3841595579229967 192 195 196 0.12913491345696346 4 2104 31 1698
211 0.8645080048614204 0.0036222630268048493 -0.3841595579229967 192 195 196 0.12913491345696346 4 2105 31 1699
212 0.944633751909656 0.11478203812975536 -0.3954533340598161 39 47 48 0.08220619631042785 5 1224 6 656
213 0.9520148691913641 0.08372642248886936 -0.3910275810047921 41 47 46 0.08504599938658482 5 1425 6 885
214 1.0104429995981044 0.05128377007768015 -0.39166838454237035 59 69 76 0.09132832636610531 5 1681 6 1156
215 1.0941372687611408 0.018095838208968602 -0.39463095698469036 139 147 146 0.36290237770142403 5 1878 6 1377 8 1149
216 0.8817818256115526 -0.07622011437981754 -0.38975324889054924 25 25 27 0.1620379128176001 5 2446 6 2057
217 1.1047557086446855 0.08349411827164333 -0.39614750334180876 112 115 114 0.0009721374028670434 5 1480 7 866
218 0.8615691979575636 0.06667236562486921 -0.3867983807562488 47 32 23 0.8318374232452425 5 1535 7 693 30 957 31 1243
219 1.1080887639870314 0.11565214802137826 -0.39540307989319695 132 140 139 0.1521943370359806 5 1294 8 533
220 1.1025641185761934 0.07755892930722876 -0.3933918580475602 112 117 118 0.07967861016411892 5 1516 8 789
221 0.8941015265574872 0.046486944326909405 -0.3961541287207242 29 32 35 0.2605258997720037 5 1708 8 837
222 0.8552374987918149 0.09004285747571103 -0.3859301190745358 29 35 35 0.48187302398531245 5 1333 29 516
223 0.8336491711137556 0.05537943066271864 -0.38647047926555783 114 114 114 1.184537020847486 5 1625 29 693 30 1033 24 424 26 613
224 0.8335080430492027 -0.022873698473816876 -0.38684744672736693 120 122 121 0.5127547404229104 5 2231 29 989 31 1990
225 0.829891426713951 0.12574399745887438 -0.3864894311636168 195 195 197 0.038369519508994976 5 1099 30 548
226 0.8295915505607597 0.12059506075017709 -0.38461296850846655 195 195 195 0.047108588962116796 5 1119 30 575
227 0.8328497921786379 0.0392507379552693 -0.3868453196474086 182 184 187 0.08772485625026406 5 1753 30 1138
228 1.083771295785169 0.027565056928403966 -0.38359169502872087 145 151 151 0.1671045779944994 5 1821 30 1162 31 1218
229 0.8306993874657291 0.024456472117510952 -0.3874684026828339 178 184 186 0.14258850831506226 5 1879 30 1251
230 0.8854920227889377 0.01954063884347442 -0.3839304604315514 25 28 29 0.04562966299705569 5 1902 30 1265
231 0.8333853108983922 -0.03408921159580708 -0.38696874378759555 176 176 180 0.06103802026884725 5 2300 30 1655
232 0.8897112392303257 0.03122353345684017 -0.3835207695671621 83 65 63 0.21120716548792004 5 1809 31 1466
233 0.8562606303620767 0.0263444625780426 -0.3937115111975612 34 39 39 0.06766310050460259 6 1284 7 1081
234 0.8896778748224303 0.019865465260023356 -0.39617624076340496 36 38 44 0.05052738994060181 6 1349 7 1152
235 0.8896771993897119 -0.012364263363967388 -0.3966774943242887 199 202 205 0.2965350333539253 6 1595 7 1388 9 1158
236 1.0913171670227397 0.11273834480481604 -0.3986163002885742 133 140 134 0.03164666198106919 6 788 8 540
237 1.0798707241916246 0.10426982003592315 -0.39357713496689817 196 199 196 0.01477351458215448 6 835 8 564
238 0.9563410584204587 0.08589044429112813 -0.3996497896612738 44 51 54 0.2164607483744651 6 886 8 566
239 1.0949532937010422 0.008545030862686827 -0.3983175640642901 111 114 113 0.024298016074898895 6 1435 8 1215
240 0.9055370748581476 0.007189106496972102 -0.4037963193119632 25 31 31 0.1836010308857003 6 1442 8 1156
241 1.0994325321236857 -0.022611785349251526 -0.39636899753913046 100 103 102 0.03867280817757205 6 1625 8 1373
242 1.0994325321236857 -0.022611785349251526 -0.39636899753913046 100 103 102 0.03867280817757205 6 1626 8 1374
243 0.9086417852542231 -0.08548236060420496 -0.3963469962136801 44 44 40 0.05497862608042393 6 2077 8 1809
244 1.1087674275648907 0.08188863580108134 -0.3977907981074324 138 147 143 0.07280509651369671 6 1036 9 643
245 0.861664604032943 -0.0010745388965518275 -0.3969132055625731 35 38 41 0.0649193663579342 6 1513 9 1047
246 1.081822964647726 -0.005133048374913876 -0.39583793363037606 193 198 196 0.040730039085245036 6 1523 9 1183
247 1.1040610224449454 -0.013484405433416159 -0.39607932598899787 142 149 148 0.018030267831613038 6 1562 9 1237
248 0.890748690100081 0.031698016632832206 -0.3874397862174101 94 86 80 0.24068546502060237 6 1247 30 1176
249 0.9292926382119874 -0.05432993862174751 -0.38065664571464836 166 169 169 0.8048211504200239 6 1881 30 1699 27 1164 28 1431
250 0.9830884036328459 -0.06486463108300224 -0.3807870319275545 32 35 36 1.3609188338018696 6 1935 30 1718
251 0.8798318515558781 0.019411694741709243 -0.38524855516390033 190 196 198 0.32526941880146565 6 1341 31 1556 30 1266
252 0.883896187285438 0.09153358020804035 -0.39888748336930074 31 32 29 0.035287749045621174 7 552 9 308
253 1.0963306342617845 0.09765347654584366 -0.398660535591775 122 126 127 0.09294662127302653 7 729 9 529
254 0.863472607838993 0.06591851440438587 -0.39834144346433886 201 202 206 0.1203994656010415 7 736 9 466
255 1.0970962389776309 0.04735918259570007 -0.4028132549653912 156 162 163 0.03980004914821872 7 1073 9 888
256 0.9742014859227414 0.03372570514729868 -0.39579672947953853 190 200 203 0.031368258873357355 7 1096 9 872
257 0.88421050930859 0.02064170802475336 -0.39920726191966566 197 200 203 0.012290800815732937 7 1149 9 894
258 1.1042298637274848 0.03298966299239874 -0.40081527011951795 151 160 159 0.032504185223553264 7 1157 9 987
259 0.9556705942141062 0.021117524032671184 -0.39769340005988296 46 51 54 0.009739471722942018 7 1176 9 962
260 1.1142946042529456 0.027304638855895694 -0.39786153009954645 128 136 135 0.035088279293830904 7 1203 9 1021
261 1.1125605122814441 0.01478811353279751 -0.39730363395343793 95 102 103 0.05109551351730196 7 1265 9 1094
262 1.105579364413392 -0.0014949925757442163 -0.4000194823900957 154 162 159 0.019625043048164297 7 1359 9 1177
263 0.8904050858430662 -0.012073381721730853 -0.3988561603258499 192 194 200 0.004752018409795131 7 1387 9 1157
264 0.961282763549314 -0.01735646548355375 -0.39656249625824036 198 205 209 0.02154775672331876 7 1428 9 1213
265 1.1092105148611515 -0.01723957921066645 -0.4008335332937236 141 149 150 5.508929937083378e-05 7 1431 9 1266
266 1.0090875693826438 -0.0647186153812787 -0.39646796840975035 187 198 196 0.006465855036061974 7 1709 9 1522
267 1.0090875693826438 -0.0647186153812787 -0.39646796840975035 187 198 196 0.006465855036061974 7 1710 9 1523
268 0.8764431363393619 0.047088427776593784 -0.37624337940573876 33 33 35 0.40586519245003283 7 913 10 467
269 0.8764431363393619 0.047088427776593784 -0.37624337940573876 33 33 35 0.40586519245003283 7 914 10 468
270 0.9032820546811232 0.04375612833201618 -0.374435386142254 41 38 42 0.1432575918744933 7 971 10 493
271 0.9573905190766537 -0.05646184760958213 -0.37624888905895226 39 47 46 0.2702789152345468 7 1666 10 1056
272 0.9605944224020031 0.029247968017108553 -0.37189217584829987 202 202 204 0.05298594180902464 7 1093 11 1301
273 0.947365975006765 0.02716801200023089 -0.3726323187613906 49 55 57 0.28572792485955817 7 1108 11 1328
274 0.9428627248399735 0.02262166086219878 -0.3730199780620803 203 203 203 0.2884188837570367 7 1140 11 1390
275 0.8678653523147334 0.10423354306226609 -0.39239792207463087 26 31 30 0.4670203810958629 7 455 31 940
276 0.8709298854450314 0.061603899723450255 -0.38801149681060193 33 39 39 0.9005832087048135 7 782 31 1277
277 0.8813050248029938 -0.039448248240511685 -0.38969747092406676 32 35 36 0.18928340387129766 8 1488 9 1339
278 0.8872975793246038 -0.03961881740763283 -0.3898378661751426 189 195 197 0.16383555693384483 8 1489 9 1341
279 0.8870787450870321 -0.07136400201418198 -0.38750811351126385 30 35 36 0.2103666724305423 8 1728 9 1586
280 0.9497130326761092 0.0358007500879607 -0.35909898517423583 48 51 50 0.10271484798938364 8 934 10 532
281 0.9360707063151682 0.013268301265040073 -0.35940887371955205 40 48 50 0.005786310491626994 8 1073 10 644
282 0.9360707063151682 0.013268301265040073 -0.35940887371955205 40 48 50 0.005786310491626994 8 1074 10 645
283 0.949733100973478 -0.028740152327544247 -0.35953702737007337 51 59 60 0.029374969184031374 8 1391 10 903
284 0.9609183739036743 -0.07427965518324375 -0.3596365373241747 188 194 194 0.0509557020209999 8 1733 10 1158
285 0.8788585653142914 0.049221897371516825 -0.3649615073319786 34 37 38 0.6496632989014192 8 711 11 920
286 0.8793035626984366 0.013771558871359791 -0.36598339923903417 35 37 43 0.5790937648626485 8 1045 11 1425
287 0.8793035626984366 0.013771558871359791 -0.36598339923903417 35 37 43 0.5790937648626485 8 1046 11 1426
288 0.8659386358437744 0.05517760175957708 -0.37122036576709305 30 30 32 0.10940842322706609 8 634 12 293
289 0.8746930924289005 0.05042077161565319 -0.37051888184481396 184 187 188 0.16270692156806407 8 698 12 326
290 0.8744799442336355 0.044103303121739976 -0.37008651592474096 32 31 33 0.08742458159732974 8 779 12 365
291 0.8744799442336355 0.044103303121739976 -0.37008651592474096 32 31 33 0.08742458159732974 8 780 12 366
292 0.9398577069996388 -0.009884220302299816 -0.36676814257294216 34 42 41 0.17002644744829784 8 1263 12 663
293 0.8311691854930777 0.11380069051166844 -0.38037012053959235 191 187 187 0.03489064111200843 10 113 13 536
294 0.8318798683609016 0.04422791727718753 -0.38173517996862166 137 133 134 0.5896547236694191 10 470 13 817 19 290
295 0.8310784490823975 0.04207903603178081 -0.3790213131148798 171 174 177 0.3859849448948224 10 477 13 823
296 0.9633235023695602 -0.0901617462173923 -0.3759253033354671 38 36 38 0.5844995436373708 10 1230 13 1471
297 0.8898338894575647 -0.09290498427620177 -0.3755291266981022 149 153 148 0.6441928013421185 10 1242 13 1492
298 0.8287457633321308 0.08985487683857822 -0.38099226208677456 186 186 186 0.5649977137569259 11 418 13 584
299 0.9144222834734187 0.08659304156205763 -0.37911986468666187 26 32 30 0.5988115114045146 11 525 13 633 16 368
300 0.8311591033150211 -0.022055807349869457 -0.3778676505137293 152 162 161 0.46548187934590785 11 1963 13 1193
301 0.829206856051051 0.07694878973426006 -0.3821173031828406 181 187 187 0.3276291955335646 11 579 14 392
302 0.8457633668815505 0.05909869122384861 -0.384662194204578 179 185 183 0.5169586585067188 11 859 14 523
303 0.8888936273149569 0.030807565665971415 -0.38333748443809784 41 33 26 1.1190200686144232 11 1268 14 677
304 0.8888936273149569 0.030807565665971415 -0.38333748443809784 41 33 26 1.1190200686144232 11 1269 14 678
305 0.8335659752896706 0.11072690500828175 -0.3925538695518097 136 128 131 1.1935754749335348 12 90 13 550
306 0.9100038688485433 0.08183726041810685 -0.38489425840544694 28 31 32 0.1264684713678941 12 204 13 654 16 396
307 0.9100038688485433 0.08183726041810685 -0.38489425840544694 28 31 32 0.1264684713678941 12 205 13 655 16 397
308 1.002766683420016 -0.03672092758495262 -0.38005717222230934 61 71 74 1.1330406004113833 12 828 13 1260 16 1000
309 0.902730846093509 -0.09568902720216918 -0.3770875392097357 17 22 20 0.3058281927854902 12 1031 13 1493
310 0.956599512682314 0.043814682948588396 -0.3849223409940123 184 188 189 0.4925054684918365 12 429 14 609
311 0.956599512682314 0.043814682948588396 -0.3849223409940123 184 188 189 0.4925054684918365 12 432 14 612
312 0.8317162217417474 0.07245520298095716 -0.38524206708664643 187 187 187 0.3971142001164324 12 186 15 667 18 153
313 0.8293545790139785 0.047889813580792834 -0.3835695198934782 179 182 185 0.8495164407532887 12 341 15 828 17 529
314 0.8333388493462497 -0.032982417825757226 -0.38525434110958523 89 81 86 0.3882202751522809 12 786 15 1266
315 0.9857144352341108 0.0806804871533635 -0.3877753986960247 61 69 70 0.21183464696002088 13 705 14 419
316 0.8290862702871376 0.047541053463228115 -0.3815552754952985 176 182 182 0.06118271120029015 13 792 14 589
317 0.8328754960136051 0.047888072895058545 -0.38373773113983156 173 175 174 0.018063765021130624 13 796 14 588
318 0.8328453164820087 0.009181114048065483 -0.3831380556501135 160 160 160 0.6477556803107641 13 1020 14 798 19 477
319 0.8314051643838979 -0.012319657553155717 -0.38365205672586955 166 167 163 0.8733448761195078 13 1139 14 915 19 610
320 0.8326497385585208 -0.01521785706887211 -0.3863696574617237 162 168 166 0.24852387706589896 13 1149 14 930
321 0.8318786000504319 -0.016097599579279677 -0.3835557918631798 160 163 164 1.0267204573890156 13 1160 14 941 19 624
322 0.8322022225425708 -0.02364620265196971 -0.3869722117495814 128 128 128 0.36106473426618607 13 1208 14 974
323 0.8334372425552237 -0.028804932556874482 -0.3877428437368911 99 98 98 0.3321436868694092 13 1244 14 994 16 1013
324 0.8297446055292851 -0.030617744001632436 -0.38708261620629997 165 168 167 0.6021295167154264 13 1255 14 1003 16 1022
325 0.8676132096248321 -0.05805305214670183 -0.3908205682908762 161 161 161 0.4958090381127898 13 1362 14 1093
326 0.940087472318378 -0.06577753339611458 -0.39042758124743604 22 25 24 1.8388824534447317 13 1378 14 1095
327 0.8310819666250754 0.06191770304736891 -0.3820700921231537 189 187 188 0.07241627335575705 13 719 15 739
328 0.8531432270823173 0.0490722279647055 -0.3834900618299439 28 31 32 0.5118653133325438 13 801 15 820 19 279
329 0.8313654899699143 0.04313142513833198 -0.38317533329699816 171 174 177 0.27765222405510126 13 824 15 848 21 890
330 0.8333723718097185 -0.012711242910463648 -0.3832661294423749 168 168 170 1.181389356477328 13 1142 15 1161 19 611
331 0.8330099602288081 -0.0260272850165659 -0.3883233598163395 160 160 160 0.28920420000723507 13 1224 15 1230
332 0.8326435519135362 0.0980855811661363 -0.38292238756232666 190 188 190 0.12903989473451866 13 562 16 256
333 0.8319340677310657 0.03709104097881196 -0.38180134535899396 114 113 112 0.2687387644236441 13 860 16 627 25 1218
334 0.832474388381175 0.03613416282314195 -0.38155497286506784 177 176 178 0.0009426652544312376 13 864 16 636
335 0.832600954319734 0.02810385997828118 -0.3828754984791808 107 103 106 0.4568544746030271 13 909 16 680 25 1281 15 933
336 0.8305674005746689 0.025482806918220295 -0.38234004879573935 143 144 146 0.017196997645601793 13 924 16 699
337 0.9870837565893048 0.01375969561498884 -0.38735810571221146 48 61 60 0.3564119931440219 13 1019 16 774
338 0.8926422791840916 -0.030012560973188593 -0.388418403671531 157 164 162 0.6089841006516655 13 1242 16 995
339 0.9300247174520414 -0.06420248102720062 -0.38839219967087146 149 155 149 0.9883629967618255 13 1374 16 1132
340 0.9300247174520414 -0.06420248102720062 -0.38839219967087146 149 155 149 0.9883629967618255 13 1375 16 1133
341 0.8841088516340879 0.0822675954002052 -0.3846437765200307 21 27 29 0.13793684006753573 13 640 18 158
342 0.8783065100291222 -0.07508852813340479 -0.379760225033442 17 17 17 0.014693369206250669 13 1439 18 1019
343 0.9151211746747369 0.11194304802225787 -0.3811172063770346 27 33 35 0.01898811131242816 13 556 19 64
344 0.8308185831831968 0.07955120055067569 -0.3831749555139918 182 182 182 0.0690591227705911 13 624 19 119
345 0.8291577808526762 -0.02378775381853212 -0.3811498602670687 159 167 168 0.3202657196133346 13 1210 19 677
346 0.8328061588684309 -0.025494113255471403 -0.3801397816117842 110 116 118 0.2505326290881725 13 1222 19 683
347 0.8292661569987408 -0.02604723209894528 -0.3787554050684332 155 166 166 0.30986916413247295 13 1225 19 684
348 0.9050992098230554 -0.03503031528534137 -0.3779132975241075 18 24 22 0.49986848924428007 13 1266 19 777
349 0.9344315067410153 0.010071357893324256 -0.38819904072214495 179 185 183 0.6373173070562153 13 1031 22 1038
350 0.93295730107145 0.009925025619502566 -0.38483461972773014 173 179 177 0.8249219786271145 13 1032 22 1039 25 1719
351 0.93295730107145 0.009925025619502566 -0.38483461972773014 173 179 177 0.8249219786271145 13 1033 22 1040 25 1718
352 0.85859566076664 0.061395391871020985 -0.37960552429631667 198 198 200 0.08958751979945263 13 731 23 1483
353 0.8316876964859201 0.06231707040737297 -0.3817374900255481 121 120 116 0.6918822581211163 13 710 25 1032
354 0.8838812113734591 0.024284223458240158 -0.3819228519741668 167 175 172 0.18209243302603745 13 951 25 1462
355 0.9418536898737006 0.024601780313825705 -0.38256733590803205 47 55 54 0.4401813053114981 13 967 25 1625
356 0.8309030137042063 0.004638138019388371 -0.3801143114125698 163 170 173 0.06726587060079485 13 1045 25 1416
357 0.8317381383156419 0.06297349414355112 -0.38485460952331285 171 170 174 0.06458211088673638 14 500 16 476
358 0.831568816224177 0.03273622248127673 -0.3844161358952727 189 189 189 0.21517066297554238 14 667 16 653 17 619 18 389
359 0.8321065505161478 0.020621911556348873 -0.38600361077133666 107 106 110 0.04523563239911834 14 743 16 740
360 0.8307696985290519 0.014720283957776529 -0.384896732554519 122 123 125 0.2821774433557501 14 771 16 765 17 737
361 0.8310378815750837 0.0032834234600224287 -0.38566507698622987 115 114 114 0.3434205896268586 14 837 16 831 24 839
362 0.8300027101695305 -0.00022425766430663233 -0.38662858749677587 168 173 175 0.2765886834100972 14 856 16 855
363 0.8331840004548786 -0.017090090056817886 -0.3877294299238952 166 166 164 0.21634072927891726 14 943 16 947
364 0.8308187951434105 -0.02055227527428268 -0.3838660540606429 122 126 129 0.8039697734249098 14 964 16 968 19 653
365 0.8332754371585834 -0.024072213802570214 -0.3878517021969964 107 106 108 0.27552876746759436 14 976 16 981
366 0.8332754371585834 -0.024072213802570214 -0.3878517021969964 107 106 108 0.27552876746759436 14 977 16 982
367 0.8977699443082018 -0.03266684250326246 -0.38943415045160684 155 161 159 1.6883590222166598 14 986 16 1007 24 1112
368 0.8977699443082018 -0.03266684250326246 -0.38943415045160684 155 161 159 1.6883590222166598 14 987 16 1008 24 1113
369 0.9454765645441071 -0.04495374678890422 -0.3907261735485169 170 173 172 0.8568413696056382 14 1028 16 1054
370 0.8333694734287057 -0.036561215262034416 -0.38722928635311393 116 116 118 0.6624807715996276 14 1037 16 1056 17 1061 24 1153
371 0.8333694734287057 -0.036561215262034416 -0.38722928635311393 116 116 118 0.6624807715996276 14 1038 16 1057 17 1062 24 1154
372 0.8315325903150916 -0.037218486357881705 -0.38383693179334577 111 110 112 1.0436850504973079 14 1045 16 1062 17 1080 19 784
373 0.9421131798666923 -0.06292549763558579 -0.3942981921371345 19 25 22 0.7631586401357231 14 1082 16 1119
374 0.8869661645917418 -0.07208509782219083 -0.39196486346363435 20 24 19 0.259712287389515 14 1132 16 1164
375 0.8633101826887314 0.07485238596294451 -0.3840917698664362 184 187 188 0.949796586085946 14 418 17 410 23 1381
376 0.8789463763114512 -0.006461285069183445 -0.38527903573050165 160 166 164 0.47516813422872395 14 881 17 864
377 0.833131357194794 -0.014444203573051545 -0.38530317622950844 111 110 110 0.102568270687544 14 924 17 907
378 0.832884566539786 -0.029110010582500952 -0.3864897836290463 168 164 165 0.13471880533268538 14 996 17 1005
379 0.8304615954750382 -0.030138627769436363 -0.3863778768716783 132 132 133 0.22477984933047226 14 1000 17 1012
380 0.8304615954750382 -0.030138627769436363 -0.3863778768716783 132 132 133 0.22477984933047226 14 1001 17 1013
381 1.0089154850893627 -0.0017947609258477926 -0.3953984730487007 54 60 62 0.5495642398292601 14 822 23 1790
382 0.9082513180945869 -0.018673146042041937 -0.39382588859535267 28 31 32 0.521992816646342 14 919 23 2009
383 0.9947875721618207 -0.06639577131050638 -0.39653763499705524 199 199 201 0.7230844828475035 14 1073 23 2100
384 0.8330906683825837 0.1320450248445594 -0.3854293037921718 195 195 195 0.303052121176487 15 416 16 150
385 0.8311901724424484 0.09647567752616686 -0.3836880664201285 128 125 120 0.18104715361717214 15 532 16 267
386 0.8325977184826501 0.08982469447680491 -0.38226389512935355 189 189 191 0.14949921701608992 15 558 16 291
387 0.8522317698034007 0.08673837445140282 -0.3792947156421368 25 29 28 0.1801551510287293 15 578 16 325
388 0.8307678590227592 0.08355934180147169 -0.38289435373541636 191 192 194 0.6018609910720197 15 590 16 336 25 864
389 0.8294966823011273 0.08050083586602444 -0.3844004469759562 185 188 189 0.09529661688501812 15 618 16 360
390 0.9425723357535907 0.05098729169647817 -0.38560726738837175 32 38 36 0.5094242508720876 15 821 16 581
391 0.8312315049802048 0.047765391539052 -0.383286670523667 181 181 183 0.08002006514728408 15 829 16 563 24 474
392 0.8307974277418391 0.02428670788912754 -0.38418891147343875 115 116 117 0.019965544930625828 15 957 16 709
393 0.8307974277418391 0.02428670788912754 -0.38418891147343875 115 116 117 0.019965544930625828 15 958 16 710
394 0.8330332031377491 0.02170757040635992 -0.38505574974991136 173 175 176 0.07598128765942117 15 971 16 737
395 0.9110134676017159 0.019588325879852 -0.3856355514182302 25 25 25 0.4864913310492608 15 972 16 746
396 0.832377140899205 0.0055379454970434176 -0.38602802488127236 128 127 131 0.038142381651174666 15 1072 16 812
397 0.831295601688206 0.005059679670550389 -0.3829831409449127 174 176 178 0.6428505168732734 15 1076 16 820 19 493 24 819
398 0.8680649424509892 0.0004267846611438329 -0.3852804625317416 25 25 25 0.34669368040248755 15 1092 16 851
399 0.8310921814178514 -0.013279706957941511 -0.387135422331134 107 107 107 0.31917976587250113 15 1168 16 927 24 965
400 0.8539955252857321 -0.03882447956277948 -0.3892596073915867 20 23 22 0.17319050017795531 15 1277 16 1060
401 0.9705118395416015 -0.09777189024970306 -0.38349141575793866 41 47 47 1.7974853290599881 15 1405 16 1202 17 1237
402 0.8288148149357686 0.06855049774539214 -0.3836636959351197 186 188 188 0.06870206609541599 15 695 17 418
403 0.8338089447351394 0.010118529125643497 -0.3838025046508382 172 175 176 0.020781205256955725 15 1035 17 761
404 0.829926723975821 -0.0034745150543408487 -0.38552963793961414 127 127 129 0.3149500145807199 15 1117 17 843 24 895
405 0.831085775022365 -0.010108435969825162 -0.3843775452104777 108 108 107 0.6120836423192607 15 1148 17 882 25 1520
406 0.8301352110356924 -0.01267616591429235 -0.3858071695176164 165 167 169 0.11108895153691983 15 1158 17 890 18 677
407 0.8326840976929256 -0.025818531020099185 -0.3863983761456868 170 176 178 0.4858526647320904 15 1232 17 978 16 994
408 0.8316026957096184 -0.025661606901200378 -0.3856721022694766 160 160 159 0.343431446852452 15 1233 17 976 18 763
409 0.8317548924604817 0.04080063624697392 -0.38519749663911934 129 128 131 0.12534074095219427 15 858 18 322
410 0.86006473101604 0.011793567704297497 -0.38490921783027626 167 173 173 0.3439135305699415 15 1021 18 549
411 0.8331365545892514 -0.016773247272855653 -0.38525931707035915 164 164 164 0.0025986023466835293 15 1184 18 710
412 0.9977124961697881 0.03829160150049155 -0.3882104262370831 57 65 64 0.015469132029203896 15 875 23 1560
413 0.9433024289092106 0.025246687253119317 -0.38769824305360057 32 40 37 0.0036501220804474816 15 943 23 1677
414 0.9192443239019709 -0.013267777043900952 -0.39183718579629667 34 34 34 0.24406286394186735 15 1131 23 1967
415 0.9592815181876779 -0.035721428886636854 -0.39238517170566417 44 44 57 0.2724082365488293 15 1215 23 2036
416 0.9567019650214927 -0.036813158317583056 -0.39388231436751237 41 44 47 0.2758499404695698 15 1220 23 2038
417 0.9899367704615156 -0.06949093746181344 -0.39379317588148866 41 44 47 0.29990550397153476 15 1321 23 2113
418 0.9862769329536278 -0.07871107534392963 -0.3934330608722235 37 40 43 0.27625385787979473 15 1348 23 2137
419 0.9174901864332774 0.11235563409288099 -0.3837317031199863 31 34 35 0.8089239979037756 16 246 17 286 18 98
420 1.0037767678994234 0.05019069591165397 -0.38206784134800215 58 69 69 0.29478742745984454 16 599 17 615 18 421
421 0.8317472249425932 0.04006538577093015 -0.3834433766522055 176 176 178 0.09369480918715527 16 610 17 582
422 0.8319190637302486 0.04035429253377909 -0.3849423799166563 176 176 178 0.4253852484335447 16 611 17 583 18 325
423 1.0022958292467965 0.025349994067546306 -0.3797624419767104 66 77 77 0.17388096403577613 16 732 17 738
424 0.9723005280135323 0.024693524355575418 -0.3811195778698112 181 187 185 0.030864200755264696 16 734 17 730
425 0.9103506181088251 0.01943375700672526 -0.3834468576806246 21 24 23 0.06775610670426649 16 747 17 740
426 0.8846108750271239 0.018969085830477187 -0.38407031294926225 23 26 27 0.13531823001807075 16 748 17 732
427 0.9543463156982179 -0.03099307205105572 -0.3822157417684994 176 184 183 0.12154661898756379 16 989 17 1016
428 0.8325081361519178 -0.025815767651245897 -0.3843959216731739 170 176 178 0.17394140523870666 16 993 17 977 18 765
429 1.003082005742756 -0.03731736692317593 -0.3805488165823529 48 54 54 0.01760203158513404 16 1002 17 1053
430 0.8309296105552741 -0.028294862112193914 -0.3827934124807935 108 108 110 0.7301424441784048 16 1015 17 1000 25 1652
431 0.9161467424925814 -0.0437582559737669 -0.3832833625799576 157 160 159 0.23713481520906224 16 1064 17 1097
432 0.8313195174823435 -0.038847726016467035 -0.38531083109368425 88 87 89 0.027760075546638324 16 1071 17 1085
433 0.8955830325078269 -0.08317797678819278 -0.3835105687971285 23 23 19 0.2951168281716196 16 1194 17 1224
434 0.8771065638254827 0.11274881197582712 -0.3873060978466667 26 29 28 0.02110257887490503 16 233 18 85
435 0.8316359862802726 0.0362396482959193 -0.3849382365272361 117 113 114 0.31942935295536756 16 637 18 362
436 1.000872580080691 0.034230155158217035 -0.37951509893729723 58 69 69 0.3543058140056838 16 675 18 494
437 0.8321123130620872 0.02437604356695017 -0.38479628387286235 116 112 115 0.25262414603023226 16 706 18 435
438 0.8321071499412586 0.02445267168864135 -0.38498726906097747 116 112 115 0.3043527819583073 16 707 18 436 24 653
439 0.8328985351017946 0.009133039640580314 -0.3846806536878386 169 167 170 0.2725690798555605 16 793 18 544
440 0.8330903423116897 -0.013749385813300883 -0.38461573843653585 162 165 164 0.2891214321089933 16 930 18 687 24 975
441 0.8312739698693783 -0.004895351448981024 -0.382194679206409 179 179 176 0.23865644000559583 16 886 19 566 25 1482
442 0.8318749915019932 0.11025341564382762 -0.3822372279776753 190 185 188 0.3136360007075981 16 220 20 539
443 0.9924147055911112 0.07601263864903306 -0.3801929627273122 65 73 74 0.0142769338013324 16 473 20 1154
444 0.8313715737698871 0.024817873836873665 -0.38278445045776294 176 176 178 0.17102149438302192 16 702 20 1122 24 650
445 0.8312640996561735 0.03403277459480027 -0.3832815180808565 178 178 180 0.05800570651668913 16 647 24 593
446 0.831844986482918 0.0273772437568116 -0.38386528045988727 174 174 178 0.0749857253023461 16 688 24 633
447 0.8319147022887146 0.024294635600243728 -0.38365265830152273 116 112 115 0.13317718829617198 16 708 24 654
448 0.8309125156001482 0.012985026748749564 -0.38428342111472213 112 111 114 0.30487338922785406 16 770 24 752
449 0.8309125156001482 0.012985026748749564 -0.38428342111472213 112 111 114 0.30487338922785406 16 771 24 753
450 0.8308136673921573 0.009594819156082785 -0.37774137009301695 175 175 177 1.0092679611598137 16 787 24 776 27 711
451 0.8324240123919219 0.008259075031348892 -0.3844728930887676 101 95 99 0.19568267218924196 16 801 24 791
452 0.8314774053706386 0.0024217764561691325 -0.38279168378990286 177 176 178 0.49802312667826726 16 836 24 847 17 805 25 1428
453 0.8322729781877566 -0.010410710564456563 -0.3859586559592014 106 105 107 0.2504291933355388 16 911 24 952
454 0.8321337114267354 -0.02204459537891694 -0.3876207608374939 161 164 165 0.5048841819343128 16 973 24 1044
455 0.8636417223883633 -0.025592410096515573 -0.3862422556325739 18 21 20 1.40026731866005 16 980 24 1067
456 0.8334881121401078 -0.03531831245900777 -0.38843725756037045 121 117 120 0.2198803859367798 16 1044 24 1137
457 0.8330014616985799 0.0706932310113434 -0.3845470033163113 125 121 122 0.5329836427488275 16 421 25 980
458 0.8780069034914367 0.01879722225400172 -0.38126005925064943 167 170 169 0.19382352960490698 16 745 25 1478
459 0.831754518968731 0.001766525582698368 -0.3812914467244317 108 110 118 0.22181862321102008 16 842 25 1434
460 0.831754518968731 0.001766525582698368 -0.3812914467244317 108 110 118 0.22181862321102008 16 843 25 1435
461 0.8312101874458313 -0.0026023917216752485 -0.3819595888681124 161 172 172 0.35243356332286035 16 869 25 1470 24 887
462 0.8968757755903591 -0.023136665665806407 -0.3801717629523587 154 165 162 0.1829719919130283 16 965 25 1853
463 0.8317621972229964 -0.023221834780650114 -0.38197463878268034 135 132 133 0.04293447480456407 16 978 25 1612
464 0.8291403504298286 -0.023121729380349426 -0.38128284610028473 167 170 171 0.10148059694087937 16 979 25 1607
465 0.9595351854304534 -0.056729055505287625 -0.3809984452979459 29 35 33 0.6228430445302752 16 1094 25 2202
466 0.9155950121679716 0.11231618796175176 -0.38160839160055515 33 36 35 1.0850741233555496 17 282 18 96 25 1022
467 0.879291683369837 0.08842504045292514 -0.3859805003721567 27 27 27 0.2037575489758348 17 350 18 134
468 0.879291683369837 0.08842504045292514 -0.3859805003721567 27 27 27 0.2037575489758348 17 351 18 135
469 1.0805988677626897 0.03888141451101824 -0.38476351422578015 119 123 118 0.8758571914829288 17 699 18 529
470 1.070604558420433 0.034800295681418 -0.3782813878376171 120 126 124 0.7455233164176234 17 708 18 539
471 1.071357757193553 0.02285858317808824 -0.3822165610033785 114 117 116 0.937949788366895 17 771 18 598
472 0.8325725535427384 0.0048255632786270135 -0.3852526807574264 132 129 126 0.08609749183886652 17 787 18 570
473 0.9889047707214265 -0.0022169244752744946 -0.38028323597724933 55 59 59 0.4272104253801157 17 859 18 686
474 0.9107962989116983 -0.043520896843565825 -0.3838592400774619 20 23 22 0.272632854902779 17 1094 18 878
475 0.9821159527958778 -0.06574843465122374 -0.38032034239977874 41 49 49 0.6460648899804451 17 1161 18 983
476 0.9513203576468815 -0.07830843838468333 -0.38183731102714025 29 34 36 0.6788155346265199 17 1199 18 1024
477 0.8327500405009362 0.10614350708605769 -0.38342800794379406 146 142 143 0.20428813534207602 17 269 19 54
478 0.8308837323374104 0.10086579972191517 -0.3835683571508221 199 194 194 0.12023186897726865 17 275 19 61
479 0.8309744922281049 0.06498301730022818 -0.3809104649701566 184 184 183 0.2912590607888259 17 429 19 181 25 1005
480 0.8834472846922328 0.055043666915485616 -0.37976727741470134 24 27 26 0.18850430118091024 17 524 19 257
481 0.9145139713591828 0.049713450808312444 -0.3802940819751446 28 31 32 1.3921647192190834 17 571 19 303 24 531
482 0.8743255263499704 0.014731598951751194 -0.37985214524237754 22 23 19 0.08338666178830524 17 747 19 457
483 0.8743255263499704 0.014731598951751194 -0.37985214524237754 22 23 19 0.08338666178830524 17 748 19 458
484 0.9140612521956025 -0.01237412844431268 -0.3789422957617628 24 30 30 0.0224777495591692 17 898 19 621
485 0.9140612521956025 -0.01237412844431268 -0.3789422957617628 24 30 30 0.0224777495591692 17 899 19 622
486 0.9527191161091266 -0.030917041573429418 -0.3792433818109274 170 177 175 0.4682032949047103 17 1019 19 752 25 2037 21 1641
487 0.9083898042279254 -0.03828930257013023 -0.37847280486357077 167 177 170 0.04102747723759541 17 1076 19 799
488 0.9595361504915492 -0.09274748118839779 -0.3778180772076044 32 37 39 0.4601609848098138 17 1232 19 984
489 0.8318877543873215 0.07994182791567006 -0.38341592814811654 129 128 130 0.0891738730650436 17 342 20 711
490 0.831279146410932 0.06214689195499684 -0.3833559089789171 202 202 206 0.09170407129256615 17 451 20 854
491 0.9777221351128593 0.02454779550009774 -0.37951464087330755 74 82 80 0.05110168353409816 17 734 20 1486
492 0.9777221351128593 0.02454779550009774 -0.37951464087330755 74 82 80 0.05110168353409816 17 735 20 1487
493 0.8312291160327887 0.07122472325133257 -0.38074713318565756 192 190 193 0.2481166065994116 17 394 24 283 27 354
494 0.8318599341808659 0.029628389364124815 -0.3835897144230592 183 183 185 0.42200681987506283 17 633 24 615 21 1017
495 0.8291921114225288 0.0709372206419167 -0.3807950543012983 178 180 177 0.15239521790279248 17 391 25 953
496 0.8309639656735399 -0.02833160768280941 -0.38282095865181404 120 124 124 0.8584552398737684 17 999 25 1651
497 0.8311420365768607 -0.03117859969655391 -0.38289437768020385 156 163 160 0.88056799373554 17 1028 25 1686
498 0.8308049106582182 -0.035474905556145006 -0.3836891757721583 174 180 179 0.7164100089921571 17 1059 25 1729
499 0.8291490600471905 0.07641305145079177 -0.3869626048004636 202 202 204 0.23388725370158 18 138 20 737
500 0.8599064241634968 0.004539922167823348 -0.38244576204921926 192 192 193 0.07987962166339053 18 586 20 1347
501 0.8328977520801519 0.0803612285825724 -0.38239338458130595 200 200 202 0.12134176612082871 19 113 20 709
502 0.9990346301002645 0.013643427560369863 -0.38061862853919143 68 74 72 0.22312604908299138 19 509 20 1593
503 0.904975917591751 -0.017382111138042153 -0.38336154666200345 28 31 30 0.47141213659095954 19 651 20 1640
504 0.9528938538782212 -0.030830675598029884 -0.3795896057655693 200 200 202 0.2121245024392674 19 753 20 1818
505 0.8297711505875521 0.07184743256029935 -0.38203014740937496 197 197 198 0.21875256531477835 19 142 21 652
506 0.9297518597867144 -0.055069049526986755 -0.3832184864413084 166 174 171 0.9283604219511631 19 857 22 1366
507 0.8281721088395152 0.07415840452404564 -0.3809656995570782 183 183 179 0.043504640760066195 19 131 25 930
508 0.8290806333907088 0.06980682535900506 -0.38043222756628065 181 182 179 0.04721641351042759 19 149 25 961
509 0.8305163226506099 0.06890465125408096 -0.3805588279724794 176 175 173 0.13667840726455283 19 157 25 972
510 0.8290573829496685 0.020455684623377428 -0.3809409646557918 170 174 173 0.03785098408780108 19 406 25 1313
511 0.8312597300161501 0.00871727606611317 -0.38145796859905795 161 169 169 0.0017453012935000202 19 476 25 1395
512 0.830612320687655 0.008022890962721173 -0.3819063922531152 109 114 116 0.051684633942850985 19 479 25 1397
513 0.8306411042398952 0.0006245973078452826 -0.38204271807046836 117 123 125 0.15422477886821304 19 527 25 1438
514 0.8307553036637502 -0.0183895987996527 -0.38180778782034025 110 113 112 0.1781144829777724 19 643 25 1580
515 0.9524971287174895 -0.03353192639590965 -0.37912500185410974 45 44 46 0.21883372564968176 19 775 25 2064
516 0.9374313326230244 0.07756618315715048 -0.3883629875274966 198 204 204 0.3009023489289507 20 1006 23 1318
517 0.879552645318246 0.050501356589609935 -0.38730667134848407 29 32 33 0.33630077046910395 20 1045 23 1564
518 0.9094728291581281 -0.007044375347477158 -0.3826810121993249 32 35 34 0.23601438724341373 20 1573 23 1950
519 0.9481534389398106 -0.006133347115307828 -0.3815632437680894 41 47 47 0.0715075590766097 20 1633 23 1882
520 0.9704751851713851 -0.006696537706218254 -0.3790662865698989 56 59 62 0.2846356035989617 20 1683 23 1855
521 0.9087649772282357 -0.03842899975625992 -0.3809783868181127 184 187 186 0.6064574988159083 20 1801 23 2082
522 0.8311096884541957 0.07219880531787676 -0.38436689215939635 203 203 205 0.39614496144765116 21 657 24 286
523 0.8332061173213517 0.04336698826595434 -0.3792541277464977 199 199 201 0.48833844356385725 21 887 24 505
524 1.091214791807711 0.07502243814882502 -0.38587446183860147 121 127 125 0.01725199949748152 21 1052 24 515
525 1.0986299525230991 0.05615246993208311 -0.386146233971322 109 112 111 0.4400920490788262 21 1155 24 613
526 0.994712184433871 0.028105914183323973 -0.38453896320711595 71 82 81 1.6667549330931615 21 1261 24 713
527 1.0878624317994043 0.0391864829835835 -0.3862886845979695 130 132 134 1.0752526858603826 21 1280 24 697
528 1.088469885123244 0.03112241604570728 -0.3855957363145376 107 107 107 1.3273131837699006 21 1337 24 747
529 0.8786649893604647 0.024782420891588268 -0.38366102295849186 25 31 29 0.7588062326395301 22 968 24 687
530 0.8551046652865713 -0.038879200402802495 -0.39286907472764027 23 26 25 0.2069538518295388 22 1343 24 1167
531 0.8818200162969974 -0.04553184734661803 -0.3936021104716002 169 169 169 0.31402670549141404 22 1356 24 1195
532 0.8669160129196611 -0.062060028446761756 -0.3964150945956575 166 166 166 0.057577587436154945 22 1424 24 1286
533 0.9147478907340012 0.10834927066483613 -0.3750987638194937 32 35 36 0.42368648676703735 23 1077 24 171
534 0.9924939008611705 0.08289655332372789 -0.3643662944409468 65 73 72 1.875769571156521 23 1211 24 360
535 0.8874285406377292 -0.017549229165969064 -0.37628087489325257 30 30 30 0.6850052363250245 23 2025 24 1013
536 0.9665454307500695 0.027445667883993885 -0.3774255950795474 59 69 71 0.02468708312213985 23 1634 25 1697
537 0.8718591080527832 0.07435198697163006 -0.3809188764331548 29 35 37 0.4516515779580283 23 1365 26 565
538 0.9918393927765558 -0.011720213695005364 -0.3651130675256895 63 69 71 0.5288884239314295 23 1860 26 1197
539 0.9518777872756733 -0.022339147457383825 -0.36985607824894995 198 201 200 0.6420035455626789 23 1990 26 1204
540 0.8313941579790765 0.10972171536912205 -0.3827482025359584 148 145 142 0.359704835387699 24 139 25 672
541 0.8313941579790765 0.10972171536912205 -0.3827482025359584 148 145 142 0.359704835387699 24 140 25 673
542 0.8321697582876401 0.08343832741800485 -0.38576182728571584 181 181 180 0.2544424344344459 24 218 25 878
543 0.8320302536087418 0.0628361975152959 -0.3834707686648471 121 120 116 0.399448681485916 24 357 25 1030
544 0.8320302536087418 0.0628361975152959 -0.3834707686648471 121 120 116 0.399448681485916 24 358 25 1031
545 0.8294222184861586 -0.0035421470332035504 -0.37735304818928866 155 162 165 0.004451017132163493 24 891 25 1471
546 0.8298103718831195 -0.01596853861213864 -0.37788738594677584 133 132 135 0.24394677623891725 24 993 25 1564
547 0.8298103718831195 -0.01596853861213864 -0.37788738594677584 133 132 135 0.24394677623891725 24 994 25 1565
548 0.8312922111482737 0.03630093389829138 -0.37783147568260844 122 119 120 0.24864448531744518 24 571 26 719
549 0.8326756992945861 0.03768702201334022 -0.38405339654089293 117 117 117 1.3261293170323865 24 572 26 720 28 872
550 0.8837629308694356 0.08042953200093059 -0.38038765765230864 29 32 33 0.23330774331621396 24 280 27 387
551 0.761949708975417 0.099765308832602 -0.3879863598944632 21 19 18 0.0821342379286352 25 309 26 311
552 0.7620072481055963 0.07904518944602276 -0.3909880288058764 32 28 30 0.1157217588737922 25 561 26 388
553 0.83252310432786 0.12181972841532529 -0.3876413060020694 182 178 179 0.07850584017038646 25 592 26 344
554 0.83252310432786 0.12181972841532529 -0.3876413060020694 182 178 179 0.07850584017038646 25 593 26 343
555 0.8316504317958622 0.10858404363641021 -0.38549973366170087 182 178 179 0.011520528843780981 25 691 26 379
556 0.8337121926531492 0.10754579331570106 -0.3867894482454546 136 134 130 0.2696564292714356 25 717 26 385 28 336 29 452
557 0.7718180148609608 0.09816788471813248 -0.3820236305449574 21 20 14 0.33271015168917656 25 378 27 192
558 0.7669548305175545 0.06721332781352403 -0.3821719476259822 25 25 21 0.01848594997796566 25 668 27 285
559 0.7681028893388204 0.06424203108881867 -0.383276226627039 55 58 53 0.019255597321629743 25 707 27 294
560 0.765693014119236 0.08175720684177006 -0.39437468509088025 31 31 27 0.4134495510805385 25 571 28 520 26 389
561 0.8331551761722358 0.12398834865319794 -0.38714690616762787 128 122 124 0.3488091812658483 25 574 28 292
562 0.7713786691592981 0.07642443890685303 -0.39385825661039053 39 40 39 0.20286650864003206 25 647 28 567
563 0.7628396393392304 0.06999842792108005 -0.3929994147060778 52 59 53 0.2755413885394678 25 650 28 615
564 0.7646834403210804 0.04094017230877145 -0.39244580486470937 41 38 33 0.607352738413679 25 903 28 845
565 0.7644106425441833 0.03580526141316528 -0.3919980738888717 33 30 27 0.7651570866042682 25 945 28 909
566 0.76659482876247 0.02379237788601561 -0.3914506471376764 56 56 50 0.9457912306207711 25 1050 28 1005
567 0.8312044786318039 0.05983748674968987 -0.38558296172090323 143 142 142 0.25775840277755047 25 1054 28 707
568 0.7675644477817793 0.01982541730016253 -0.390295979533162 26 26 23 0.9267429503652272 25 1082 28 1045
569 0.8301688317674645 0.05301816397038389 -0.3848611167892389 176 176 177 0.4503634849911219 25 1094 28 758
570 0.8800576833575877 0.056887151893541224 -0.3868018000534801 173 176 175 0.13809772825390246 25 1256 28 737
571 0.9177022129501182 0.051789278404897596 -0.3864107500530346 31 37 37 0.07545425903406272 25 1398 28 772
572 0.8859955636385977 0.020205940302262745 -0.387217167147364 24 27 26 0.4771879251270093 25 1493 28 1032
573 0.8346440781240914 -0.014763507226448794 -0.3842935113270009 164 170 170 1.2364016740237398 25 1569 28 1266
574 0.9859155277850294 0.04361788801576929 -0.38522378435686977 56 67 66 0.46883024780407995 25 1630 28 833
575 0.8313458954817181 -0.03000513077090846 -0.3874577008009716 129 131 130 1.570130997167897 25 1670 28 1337
576 0.8828522769827731 -0.07672008488466807 -0.3923177299430515 17 18 14 1.3934261882539631 25 2150 28 1516
577 0.8332335271412072 0.12414464925552052 -0.3875327760985226 146 140 142 0.26415099008201315 26 335 28 293 29 414
578 0.7667385906414929 0.08233764466200677 -0.3894776803988206 53 54 50 0.07743018190713717 26 382 28 493
579 0.8326728505344428 0.10661571799191656 -0.38751601268377217 190 192 194 0.23486997411765306 26 387 28 338 29 456
580 0.775995646224511 0.07643268048220557 -0.39338959984957017 53 52 52 0.12564369929934585 26 424 28 568
581 0.767802988493276 0.07319506579442668 -0.39345889510751253 55 59 54 0.1859844702581221 26 426 28 588
582 0.8322882980302969 0.0906067890853785 -0.3867740587068821 125 125 128 0.1190238138206888 26 446 28 452
583 0.7753171485694559 0.06679330702563475 -0.3916461750925276 20 20 16 0.03563255097614493 26 461 28 645
584 0.7684456079608881 0.06136903662272677 -0.3946937507669532 58 57 55 0.25479215430719365 26 478 28 695
585 0.7690718870593205 0.05803290538008779 -0.3919207139362458 61 61 59 0.08609177474858204 26 497 28 716
586 0.7690718870593205 0.05803290538008779 -0.3919207139362458 61 61 59 0.08609177474858204 26 498 28 717
587 0.7696924268228688 0.053581739145182924 -0.3941790829523326 64 65 61 0.1998051000882071 26 513 28 755
588 0.8617093467872072 0.0753321733213234 -0.38626094183730775 38 31 24 0.09996588059191165 26 545 28 592 29 578
589 0.7677386346040792 0.04145445439237724 -0.39202977479102624 47 48 44 0.04402131028121819 26 566 28 844
590 0.8726909500057453 0.06741646095333642 -0.3854596493458452 176 184 185 0.05134082763430658 26 620 28 665
591 0.8326523382358306 0.03673033653722476 -0.3862776788311721 107 112 119 0.014005405115357226 26 732 28 895
592 0.8332979217960241 0.024821645399370824 -0.38606232628327736 113 113 114 0.04520154166660304 26 809 28 998
593 0.8326210313208662 0.005470290213141809 -0.38539134066706204 176 182 183 0.01041478783239695 26 907 28 1156
594 0.9316949501560934 0.009562723715328871 -0.38343648848489725 188 191 192 0.06956414610776396 26 1033 28 1092
595 0.8330693943336952 -0.01730787154366643 -0.38638039354445736 171 176 178 0.44176260974790715 26 1051 28 1279 31 1949
596 0.9862289015268698 0.005629182075222988 -0.38090678632270414 187 190 191 0.23398170797121454 26 1101 28 1114
597 0.8336822823104898 -0.03898996194839885 -0.3859614612691118 169 173 174 0.13643746784185065 26 1169 28 1395
598 0.8328059537938631 0.04689460483655531 -0.3870468908151114 137 140 139 0.04076179157261279 26 661 29 723
599 0.8734931350329527 0.0130886702495575 -0.38443710979458756 21 24 23 0.4711621140422847 26 924 29 841 28 1081
600 0.8329296258598478 -0.030885497455543188 -0.3867842664254515 165 171 169 0.17181805289889593 26 1128 29 1030 28 1345
601 0.9528266357892452 -0.016104425168896666 -0.3806661834672821 85 93 97 0.25258323549683365 26 1173 29 946
602 0.9163568635341599 0.11297452282241638 -0.3822313093775827 40 43 44 0.2598927901879255 27 313 28 334
603 0.9162050439589275 0.08238193547308897 -0.38290937844369316 186 189 188 0.2181789598547066 27 432 28 559
604 0.9254883617271757 0.06719853189829329 -0.3822828893816716 187 191 190 0.24101165819198753 27 529 28 677
605 0.8329026055133799 0.020528213472162965 -0.3848417630821144 152 150 149 0.30402189534504304 27 647 28 1035
606 0.8341689535108094 0.0207812714917903 -0.3851106761598864 177 174 172 0.34213873503936504 27 650 28 1033
607 0.8537967109583269 0.025170759058196414 -0.3837832030103166 27 33 31 0.40591332466838015 27 660 28 995
608 0.8963564057787775 0.03624395129288677 -0.3834765803578287 175 180 179 0.21590855938332104 27 664 28 899 30 1145
609 0.8667478396367235 0.014041405850425815 -0.38366178207277485 25 28 27 0.2297999254878344 27 733 28 1074
610 0.9866872217781025 0.03814138297316818 -0.38073658075992795 75 83 82 0.17456052037171593 27 776 28 873
611 0.9415980944000433 0.02027990784868451 -0.3815366475204462 184 190 188 0.30259099140006435 27 823 28 1016
612 0.9735111058616812 -0.006048839984408945 -0.3806437237985687 54 62 63 0.10335788587322423 27 987 28 1203
613 0.8547672139802522 -0.07483753350654178 -0.38407660522651454 20 23 22 0.3341213368072382 27 1200 28 1530
614 0.8649848762903587 -0.08844962688151475 -0.38196269063124405 17 20 19 0.06369446771078861 27 1258 28 1552
615 0.8649848762903587 -0.08844962688151475 -0.38196269063124405 17 20 19 0.06369446771078861 27 1259 28 1553
616 0.8768789011217364 0.11169233277576618 -0.3835455784819774 28 32 32 0.32437759435819996 27 284 29 447
617 0.8336463133040909 -0.0285452393177764 -0.3842738480940134 168 171 173 0.03893241570616458 27 951 29 1021
618 0.9406532120380501 -0.011444436513536126 -0.3797798815861457 39 45 47 0.011816220707469897 27 982 29 931
619 0.9351804423407232 -0.049058571635700765 -0.3804219632578027 172 183 183 0.10606982475743651 27 1148 29 1075
620 0.9351804423407232 -0.049058571635700765 -0.3804219632578027 172 183 183 0.10606982475743651 27 1149 29 1076
621 0.8326859495303006 0.10097385219146297 -0.38706469039942343 181 180 179 0.22576826842962902 27 270 30 680 29 472
622 0.9346000444415932 0.012978601056693522 -0.3811090871989293 178 184 183 0.10659481143399373 27 860 30 1291
623 0.9346000444415932 0.012978601056693522 -0.3811090871989293 178 184 183 0.10659481143399373 27 861 30 1292
624 0.8354589725576845 -0.02787944107045511 -0.3848024616523764 165 164 163 0.05802351938713882 27 950 30 1616
625 0.834303265776786 0.08038474923177127 -0.38890369722287055 181 184 185 0.06904625144457743 28 556 29 549
626 0.8348529743163022 0.07353491858832921 -0.38851180009263103 186 188 187 0.0975105184155874 28 605 29 591
627 0.8348529743163022 0.07353491858832921 -0.38851180009263103 186 188 187 0.0975105184155874 28 606 29 592
628 0.8609644813825871 0.06356187327425872 -0.38675046761245413 177 183 183 0.07247848264529487 28 689 29 652
629 0.9720364875657616 0.057045645565163526 -0.38072920928862414 65 73 74 0.30810222075194194 28 748 29 688
630 0.830921817817892 0.021396599288756427 -0.38705494681732333 173 181 182 0.03641261438671927 28 1025 29 817
631 0.8333852244739134 0.09808221232966109 -0.38701795845373166 190 189 190 0.18240550070771847 28 392 30 697
632 0.879460974422426 0.08829539712388686 -0.3859682614668395 31 34 33 0.0959455587550334 28 488 30 771
633 0.9380832068401773 0.06018350902855826 -0.3824883884778408 47 55 54 0.4189545350754925 28 719 30 997 29 670 31 1177
634 0.832452738901981 0.03761726117069609 -0.38651842985318274 176 182 189 0.0367970027626498 28 880 30 1153
635 0.9073179161667977 0.028864689000700293 -0.3841253424143357 35 38 39 0.05225343814037339 28 949 30 1189
