# 3D point list with one line of data per point:
#   POINT3D_ID, X, Y, Z, R, G, B, ERROR, TRACK[] as (IMAGE_ID, POINT2D_IDX)
# Number of points: 433
120 1.008326052397276 0.02405899873050662 -0.38425045731530444 78 81 84 0.07826734423953051 4 1898 6 1334
121 1.008326052397276 0.02405899873050662 -0.38425045731530444 78 81 84 0.07826734423953051 4 1899 6 1335
122 1.096012225759564 0.016298197237447437 -0.39518105065969167 156 164 163 0.7653112515308674 4 1939 6 1388 8 1162
123 0.8794825805128241 0.019464100276518608 -0.3847268259020818 180 183 184 0.2742263418722793 4 1971 6 1341 30 1266 31 1556
124 0.8796338898656741 0.01948659315157001 -0.3851673581720497 180 183 184 0.2326757322948698 4 1972 6 1342 30 1267
125 0.901400160769762 0.006603498623815928 -0.3925716983891507 20 26 24 0.6450716652441483 4 2057 6 1442 8 1156
126 0.951082190898988 -0.044045527182985 -0.38611092060537505 32 37 42 0.08737441182549763 4 2372 6 1803
127 0.951082190898988 -0.044045527182985 -0.38611092060537505 32 37 42 0.08737441182549763 4 2373 6 1804
128 0.9190148534023385 -0.07005973909517639 -0.3877756469880467 168 172 170 0.10524047991451407 4 2515 6 1994
129 0.9190148534023385 -0.07005973909517639 -0.3877756469880467 168 172 170 0.10524047991451407 4 2516 6 1995
130 0.9908280968860288 -0.1527832793254399 -0.38783099163283147 35 34 34 0.008291286903015758 4 2639 6 2172
131 1.0044833608328338 -0.15870067234778798 -0.3839726289387199 32 33 35 0.0072004184530995346 4 2664 6 2193
132 0.8549878967296387 0.09050978520524464 -0.3833140990989691 30 36 34 0.2165002900979874 4 1348 7 507
133 1.1085550188485513 0.09560059985771711 -0.3912911392186756 101 106 102 0.11513569235136208 4 1423 7 760
134 1.0857633430352216 0.09008017431746518 -0.391961810328946 133 141 141 0.05293957540764519 4 1457 7 785
135 1.0857633430352216 0.09008017431746518 -0.391961810328946 133 141 141 0.05293957540764519 4 1458 7 786
136 1.0849500153010612 0.013183129197612145 -0.38100428503678885 97 101 96 1.6990762820480507 4 1967 7 1273 31 1317
137 0.911404430900188 -0.03798453835853392 -0.38489233124817185 179 182 182 0.09168907811990648 4 2367 7 1573
138 0.9928057316154969 -0.15436820799806045 -0.3907914437897151 35 34 34 0.19699546112243368 4 2638 7 2026
139 1.1020887016833467 0.09336246083708329 -0.398613979792802 152 160 159 0.022406220444534136 4 1441 8 659
140 1.1092246152009768 0.08487094035866018 -0.3974448068072888 136 144 141 0.24647134137563453 4 1517 8 741
141 1.107404385709128 0.07776176670268296 -0.3947525641661968 138 144 144 0.10851584931138739 4 1560 8 796
142 1.0837036024631694 0.0757108092012051 -0.3970015799053607 191 195 190 0.09751663552001888 4 1581 8 793
143 1.1001175128409164 0.04487507201564996 -0.39469147708143787 100 106 105 0.03442180559119092 4 1767 8 1002
144 1.1079620946370283 0.04007300391244637 -0.3965965787741631 135 141 140 0.047020558276847355 4 1792 8 1027
145 1.102260155098021 0.023972780442457944 -0.395451594259157 96 99 94 0.00518612548437067 4 1882 8 1106
146 1.0947922114035955 0.019523563436283312 -0.3972601441873044 106 110 108 0.00474706003251834 4 1918 8 1130
147 0.9014046191366001 0.006482823916760306 -0.39260935781840667 20 26 24 0.13099763081688684 4 2056 8 1155
148 1.000786635569249 -0.15745400582537752 -0.3929036301167066 33 33 33 0.02810350084947467 4 2641 8 1988
149 1.0886839630048475 0.06522417680642965 -0.39601896772077116 160 166 164 0.07732361680535804 4 1653 9 731
150 0.8304180797491729 0.04855047915761078 -0.3864358721095969 179 185 185 0.1726415457136257 4 1730 26 651
151 0.8330667615664158 0.038123898412908794 -0.38621858771495554 117 117 117 0.2049028713949458 4 1813 26 718
152 0.8354182269362984 0.010707546818998406 -0.3883750613539765 172 180 181 0.15190615082674114 4 2048 26 884
153 0.833717238155487 0.13198253320317108 -0.38523193260667066 190 189 189 0.3118378453026709 4 1064 27 177
154 0.8328623182180077 0.04523097354303821 -0.3854294440878004 127 123 123 0.2575517700539528 4 1761 27 488
155 0.8904665385942214 0.031428200344422855 -0.3857986072213879 79 75 68 0.16288410468177922 4 1856 27 676
156 0.8905361518002418 0.031500161985374475 -0.38597792541863896 85 71 63 0.23749216357727948 4 1857 27 677 28 931
157 0.8334303033120416 -0.0159171722109504 -0.38808361387347057 171 174 176 0.25243621198855726 4 2267 27 883
158 0.8789819797430198 -0.09997572732204787 -0.3860271864588556 21 24 23 0.20345095321144385 4 2618 27 1280
159 0.8328802675534169 0.06768045160569067 -0.38641350359027116 135 132 135 0.29758675894079845 4 1550 29 625 30 950 26 539
160 0.8349881382113904 -0.026155959686499045 -0.38275988698366903 178 178 180 0.1467766751630305 4 2354 29 1007
161 1.0940465863666708 0.12962373094421012 -0.3807068513604685 158 159 155 0.035383481947715616 4 1217 30 581
162 0.8321449123378061 0.08178817439042164 -0.3850480946233626 194 193 196 0.14105581072938037 4 1393 30 825
163 1.078593061284615 0.06477745966777632 -0.38152725868204435 113 113 116 0.06488322252711647 4 1646 30 955
164 0.8849348086451626 0.056442689757362205 -0.3834850524241823 25 31 31 0.3275994385254729 4 1670 30 1025 31 1296 29 680
165 0.8327096745578346 0.02126244323428227 -0.3852205983918852 129 129 133 0.18044781516335345 4 1963 30 1274
166 0.8325479044197222 0.0042675518199536975 -0.38506570427636894 144 140 145 0.2021934125531565 4 2109 30 1407
167 0.9541470901673719 -0.03272739248338447 -0.38063935905224017 43 41 48 0.2593568751777962 4 2318 30 1579 31 1805
168 0.8797704848151999 -0.037486358143554346 -0.3853536598383221 25 28 26 0.18450439408999894 4 2383 30 1648 29 1045
169 0.9000255522410867 -0.0809126537685334 -0.38205568476933016 179 182 181 0.12204779298750788 4 2577 30 1801 31 2130
170 0.9000783630323147 -0.08093003231714169 -0.3821551205325394 178 178 178 0.06911563899691164 4 2578 31 2131
171 0.9875975879453808 -0.16418935351321293 -0.3863681063533418 20 17 14 0.5885805932629268 4 2691 31 2207
172 1.0944839356091476 0.0684925074856162 -0.3935307137013118 99 101 99 0.025101623461727292 5 1583 6 1099
173 1.0901811955679777 0.05343216218810867 -0.38841971057636426 103 103 102 0.122039002528632 5 1665 6 1176
174 1.0953065051794904 0.04713587439573972 -0.38819279210492075 133 142 142 0.14716020380782627 5 1710 6 1210
175 1.0967165439983684 0.035520308856316386 -0.389784973037606 104 105 108 0.00688941167603255 5 1773 6 1275
176 1.0936713451768032 0.01817079087741719 -0.3934133736269734 139 147 146 0.7464615073911044 5 1878 6 1377 8 1149
177 1.103796925312728 0.08343991137824759 -0.3942752103289592 112 115 114 0.15233113871678625 5 1480 7 866
178 1.083554218504562 0.027402444738183117 -0.3828916577211381 137 143 144 0.741853561072473 5 1821 7 1178 30 1162 31 1218
179 0.983572586029685 -0.07599332931983915 -0.38612169189619744 33 41 43 0.39133626339354355 5 2405 7 1800
180 1.1088025153872325 0.1159631795942578 -0.3951203871031263 132 140 139 0.21128690724494503 5 1294 8 533
181 1.0825746323881091 0.09700435098915709 -0.39568755552780505 191 195 190 0.051247531314344286 5 1383 8 613
182 1.1026766059687898 0.07767058003654222 -0.3926104041147235 112 117 118 0.13035202890865805 5 1516 8 789
183 1.1114642789998483 0.06141382741399205 -0.39300129422489977 127 131 126 0.0198435188310433 5 1620 8 914
184 0.8902176919011398 0.04572070605276373 -0.38533521692323913 29 32 35 1.5732693100410984 5 1708 8 837 31 1373
185 0.8544306686963047 0.08953925936328692 -0.38322681011010323 29 35 35 0.2202683253099902 5 1333 29 516
186 0.8333882430687682 0.05537966868205989 -0.38617382705546216 109 108 110 0.21395476671850933 5 1625 29 693 30 1033 26 613
187 1.0802317110753314 0.13598069992420703 -0.385067918290777 145 144 144 0.5106972658984731 5 1170 30 559
188 0.9809284782841816 0.1114817094141975 -0.38042997905764936 35 43 44 0.23240291526962406 5 1244 30 640
189 0.8324816790040263 0.03920295075981255 -0.3859552512933837 182 184 187 0.10137580688505655 5 1753 30 1138
190 0.8303324639755594 0.0244467175805233 -0.386564700003659 185 188 191 0.0004842841863955019 5 1879 30 1251
191 0.9164722572866341 0.050618833822072884 -0.3834065138243957 29 35 37 0.2626436495105894 5 1677 31 1291
192 0.9065898719339122 0.03658263922389293 -0.3838637412524158 28 34 32 0.4213891644317238 5 1771 31 1410 30 1139
193 0.8334696125290685 -0.014551342379582366 -0.3858431861918139 190 190 192 0.23374656689514117 5 2174 31 1924
194 0.8306089197866825 -0.02265449865214983 -0.38641033543249276 193 193 197 0.291187351510958 5 2232 31 1992
195 0.8606483627374361 0.005342308622983432 -0.3839428725574599 192 195 198 0.11022934314362633 6 1453 7 1256
196 1.0844032475350334 0.10653938174567551 -0.3978252076478388 196 199 196 0.006663230129439887 6 835 8 564
197 0.9556169300743919 0.08599856673965975 -0.39774116163241674 44 51 54 0.016697989914205548 6 886 8 566
198 1.1089499925771478 0.043293417111352386 -0.40145731292768233 141 152 151 0.07662736284891802 6 1237 8 1014
199 1.098093251982691 0.009195160885868288 -0.4011224827932527 111 114 113 0.006349594267853056 6 1435 8 1215
200 1.100501780157881 -0.004648632439008089 -0.4031794818280336 114 114 110 0.12211100898296595 6 1520 8 1279
201 1.1024827318590817 -0.0222966302387975 -0.39910276836287817 100 103 102 0.0658399679076711 6 1625 8 1373
202 1.1024827318590817 -0.0222966302387975 -0.39910276836287817 100 103 102 0.0658399679076711 6 1626 8 1374
203 1.113181774143862 0.0836919538958235 -0.4015207565313686 138 147 143 0.008866133130970661 6 1036 9 643
204 0.9872601686461728 0.020679284489711607 -0.3943953025188784 195 203 202 0.2250165881999922 6 1361 9 985
205 0.8610746570116576 -0.0009744657492390483 -0.3956073698320071 35 38 41 0.20973392716167777 6 1513 9 1047
206 1.0852501931453877 -0.004664245193239918 -0.3991224449116016 193 198 196 0.016104435362016625 6 1523 9 1183
207 1.0046551755283712 0.025942089876331606 -0.38223540163458747 58 69 68 0.4971517541013212 6 1319 10 628 13 975 14 699
208 0.9978225230962103 -0.15402773610369241 -0.39053499146759385 22 25 26 0.23240703070915303 6 2164 10 1266
209 0.8898325305149973 0.031607946198159084 -0.38512950951715724 58 42 39 0.41984308291803113 6 1247 30 1176 31 1466
210 0.9819634036672502 -0.0645598065746496 -0.37897524220713197 41 45 51 0.9526502077603216 6 1935 30 1718 31 1979
211 0.9052413127533839 -0.09573898761086641 -0.3840517164210178 25 28 28 0.8837533197586614 6 2115 30 1824 27 1278 28 1556
212 0.8895102181661704 0.031419596877898366 -0.3842010223538176 83 65 63 0.07518365103196782 6 1248 31 1467
213 0.8844091126793543 0.09316879413877258 -0.40070234690662115 31 32 29 0.007161516141618846 7 552 9 308
214 1.1009430125691528 0.08346450410668663 -0.40406641256497206 162 172 172 0.01971704298256733 7 873 9 637
215 0.9764108610974835 0.035048368619032766 -0.3993096253815575 190 200 203 0.14105301985341653 7 1096 9 872
216 1.1082338612973082 0.03400664298080084 -0.4044200415484705 151 160 159 0.025117458589566738 7 1157 9 987
217 1.1185288014788064 0.028245752417746257 -0.40152905821145757 128 136 135 0.014942926797591538 7 1203 9 1021
218 1.1098404094008272 -0.000917778485514139 -0.40391796757117376 154 162 159 0.04314964528484024 7 1359 9 1177
219 0.8915804623152097 -0.011136058535468073 -0.403080252621967 192 194 200 0.012518733254732949 7 1387 9 1157
220 1.1135697486775018 -0.01689873836950484 -0.4048146713580442 145 151 151 0.003255944589791817 7 1431 9 1266
221 1.121365325561709 -0.018884354421043453 -0.40336015684273546 101 105 101 0.058760478081428806 7 1445 9 1280
222 1.012328984926643 -0.06490716453853536 -0.40104454935396433 187 198 196 0.02427908289668697 7 1709 9 1522
223 1.012328984926643 -0.06490716453853536 -0.40104454935396433 187 198 196 0.02427908289668697 7 1710 9 1523
224 0.8790702355679197 0.05016496723747535 -0.38513919391886775 33 33 35 0.34286015545844345 7 914 10 468
225 0.8625018618789281 0.07621558137702693 -0.3894880026528247 50 34 34 0.03401842726093851 7 632 11 658
226 0.9703284824672255 0.033075266709434885 -0.38865759716445397 202 202 204 0.086141349090042 7 1093 11 1301
227 0.9562327563811532 0.030855061570258968 -0.38913990867896675 49 55 57 0.11008732883384958 7 1108 11 1328
228 0.8674961678890706 0.10469732990133311 -0.3915014270470078 26 31 30 0.19241741656304256 7 455 31 940
229 0.884469168669341 0.04988417306056061 -0.3822411072454238 195 196 198 0.00423170619353463 7 920 31 1345
230 0.9611093458886671 0.034770264417825644 -0.37917333916025125 38 38 42 0.7605131877497977 7 1071 31 1332
231 0.8547269651001261 0.02690954236897084 -0.38547695541372573 39 45 47 0.06096857849380235 7 1075 31 1548
232 0.879472308196116 -0.0061100089553427755 -0.3844110663508507 190 193 194 0.34279974983427847 7 1352 31 1751
233 0.879472308196116 -0.0061100089553427755 -0.3844110663508507 190 193 194 0.34279974983427847 7 1353 31 1752
234 0.9809253931972639 -0.04605259616478042 -0.3772112740742621 42 45 51 1.513011783629801 7 1606 31 1841
235 0.8841743168247407 -0.03841219340184874 -0.39967593420080705 32 35 36 0.060390443567344354 8 1488 9 1339
236 0.8910453967208691 -0.04481602037159952 -0.4001066130785261 33 36 39 0.027273235424945072 8 1518 9 1367
237 0.8910453967208691 -0.04481602037159952 -0.4001066130785261 33 36 39 0.027273235424945072 8 1519 9 1368
238 0.9018193767035043 -0.057817202196987924 -0.393428906003516 25 31 30 0.2335584116797398 8 1612 9 1463
239 0.9427896016721349 0.01643912174163582 -0.3724361670292393 40 48 50 0.12930110477777954 8 1073 10 644
240 0.9667951001739304 -0.008665780273274122 -0.3709931652348824 53 64 64 0.19823336997706417 8 1268 10 778
241 0.9572210622161373 -0.027367751405882632 -0.3732091732597792 51 59 60 0.26097614768508315 8 1391 10 903
242 0.9915178009124253 -0.058190642368884986 -0.3701414184938413 189 195 195 0.1865051700880871 8 1592 10 1061
243 0.8860892624904315 0.018375247180267642 -0.3863392726426986 35 37 43 0.26355438153968386 8 1045 11 1425
244 0.8524995264043512 0.08547216955639962 -0.37592550309977824 32 35 34 0.1255157478690743 8 418 12 127
245 0.9610019798530378 0.0950231353832429 -0.3718665690303653 32 36 37 0.19065934949688512 8 479 12 153
246 0.9610019798530378 0.0950231353832429 -0.3718665690303653 32 36 37 0.19065934949688512 8 480 12 154
247 0.8766062335592107 0.053167412439555015 -0.376391560917946 184 187 188 0.10493944707524686 8 698 12 326
248 0.9433849553029395 -0.008421495577132081 -0.3734731545947994 34 42 41 0.027859934392356654 8 1263 12 663
249 0.8307512299552963 0.1128024576408203 -0.378239102079074 191 187 187 0.19413142904123368 10 113 13 536
250 0.8282734631320765 0.09423121050940297 -0.3768709249567511 188 189 185 0.2830395313045092 10 177 13 563
251 0.9587398811874966 -0.024084713412393863 -0.3817402806242366 152 164 160 1.6708720691534074 10 887 13 1197
252 0.8872348600276498 -0.029676082980831044 -0.3728049398230033 133 148 145 1.1480552809519615 10 909 13 1242
253 0.890915613315248 -0.09336200074393937 -0.383332566383456 149 153 148 1.7979652110945703 10 1242 13 1492 15 1413
254 0.89056467994905 0.03106883112642769 -0.3888356438404234 41 33 26 1.1863127349806173 11 1268 14 677
255 0.8321895284794761 0.01400208688996332 -0.3871247313646364 165 171 173 1.1131681615648303 11 1454 14 775
256 0.8322733685224474 0.06928359096935191 -0.38103561149744325 125 121 122 0.4948547485936178 12 201 13 670 25 980
257 0.8293450350677569 0.03473024507250072 -0.37884433428229874 166 173 174 0.3232155548380845 12 400 13 863
258 0.9544428863756932 0.0939645246099796 -0.38448745715526106 40 48 47 0.26702868302148813 12 178 14 324
259 0.9567107506668249 0.0437798262812645 -0.3846421476310924 184 188 189 0.5130677993600347 12 429 14 609
260 0.9567107506668249 0.0437798262812645 -0.3846421476310924 184 188 189 0.5130677993600347 12 432 14 612
261 0.8294314866734522 0.04807118617424143 -0.384295637041571 179 182 185 0.42974359252863464 12 341 15 828
262 0.9689267714145361 0.09186480130625448 -0.38124107415159014 30 34 29 0.3958956788254931 13 642 14 339 18 195
263 0.9265858327923789 0.07572061687657539 -0.38321951776430696 179 186 182 0.23673216144752343 13 696 14 433
264 0.8319827854629722 0.06320272853719491 -0.3845985009770096 115 115 120 0.657452006969367 13 710 14 496 25 1032
265 0.8292852620320975 0.04794803002288633 -0.3845678455882584 174 177 178 0.25941774582188504 13 792 14 589 17 529
266 0.833121350874319 0.04827207445674687 -0.38632793790425723 173 175 174 0.15936452414250393 13 796 14 588
267 1.000160435748358 0.060322728708436066 -0.3802738337954905 70 78 81 0.1877654464763918 13 803 14 533
268 0.8323201384398954 0.027845914864864454 -0.38728729180634536 175 178 179 0.05950880383746734 13 917 14 700
269 0.8534017230827116 0.02543765588998993 -0.3853584132673109 18 24 22 1.5631612249087528 13 937 14 717 19 381 17 662
270 0.8332273042738035 0.00924536455798626 -0.3869838424935482 157 157 159 1.9794969635625468 13 1020 14 798 17 770 19 477 25 1402
271 0.831938897062424 -0.015880338351189682 -0.38494341602083676 160 163 164 1.6180725016099529 13 1160 14 941 19 624 25 1570
272 0.8298870278630915 -0.030462275485125444 -0.3889878989898278 165 168 167 0.13661365042435625 13 1255 14 1003
273 0.916706417761092 -0.07494847887871077 -0.38653358473746185 18 21 21 0.9997844972971061 13 1427 14 1138 17 1194
274 0.9610511455305559 -0.08906526837310466 -0.38342479127153273 187 190 191 0.5566629974627936 13 1467 14 1164 22 1454
275 0.8316911086463826 0.058286718784848944 -0.3847680750491778 184 184 186 0.3069245758933593 13 739 15 766
276 0.8301655929151711 0.03714925661262298 -0.3815310579372675 124 121 123 0.07875174025228752 13 856 16 621
277 0.833097832025782 0.014568753950844211 -0.38585346541473714 114 114 116 0.9346990679834354 13 995 16 766 15 1007 25 1363
278 0.8308129834121676 0.00818455943433916 -0.38714618998064554 125 125 127 0.6309547035035091 13 1025 16 803 15 1056
279 0.8315406401804678 -0.01876449307980707 -0.3862889338301629 106 106 108 0.2322476972625281 13 1177 16 962
280 0.8313026285842089 0.04789322449982278 -0.3844352299481098 170 169 171 0.9229501766880671 13 793 17 533 25 1157 15 830 19 268
281 0.8296628105283239 0.04666028982532645 -0.3824996927835423 175 175 176 0.6272813769832285 13 797 17 536 25 1152
282 0.8331444367362069 -0.02923246654471713 -0.3899245554198913 168 164 165 1.4222744657311146 13 1249 17 1005 25 1667 14 996
283 0.9045709728067731 -0.034825554391255766 -0.37887484715394565 18 24 22 0.9650140607533338 13 1266 17 1048 19 777
284 0.8778060894987815 -0.013290886161846677 -0.38389007288110466 12 18 16 0.4975169654115648 13 1141 18 708
285 0.9082672483990127 0.05464518930967447 -0.3789709295688345 16 22 20 0.28633392108343036 13 785 19 273
286 0.8290629857161421 -0.023880260028651953 -0.3809646183648939 159 167 168 0.11188167297681187 13 1210 19 677
287 0.8326545562431923 -0.025576727441370642 -0.3799723177970739 110 116 118 0.13774457641139734 13 1222 19 683
288 0.8291236455783025 -0.026187981733108236 -0.378415915399505 155 166 166 0.13377219807805885 13 1225 19 684
289 0.9756569515659984 -0.03767355002037118 -0.3776170100103297 47 58 56 0.3445250234495916 13 1270 19 811
290 0.8310003010236884 0.0981786270392152 -0.38020032598725406 177 177 179 0.5165152954382464 13 557 25 758
291 0.8309914059863196 0.05357869175843245 -0.38540707585207384 120 122 121 1.1913357717404889 13 771 25 1098 28 757
292 0.8831844094598847 0.02392409594224838 -0.3808189010234134 167 175 172 0.1933229032897642 13 951 25 1462
293 0.9409791119700296 0.024637282549270185 -0.38162433121877426 47 55 54 0.22656110782968453 13 967 25 1625
294 0.8309697971730182 0.00435922148618694 -0.38124768563134087 163 170 173 0.14122277130005575 13 1045 25 1416
295 0.9798536937592085 -0.14802339024983807 -0.38183208739233127 20 23 22 0.3925932079211708 13 1576 25 2307
296 0.83196145614455 0.06347398298804517 -0.3873994574192514 171 170 174 0.3152964037108738 14 500 16 476
297 0.8318501334491211 0.04793368626347903 -0.3894173865316027 112 110 112 0.14792959543766646 14 591 16 569
298 0.9933980467812799 0.043821796653401336 -0.3789826641325682 64 77 76 1.2986889622439532 14 607 16 634
299 0.8325102884944391 0.02514400972792549 -0.3901721098591134 141 138 141 0.14462812274727327 14 723 16 704
300 0.8325260498491409 0.020849353856444618 -0.3907028012349572 107 106 110 0.09887407951976414 14 742 16 739
301 0.8325260498491409 0.020849353856444618 -0.3907028012349572 107 106 110 0.09887407951976414 14 743 16 740
302 0.8320812304734138 0.020113776078031692 -0.39093942227602935 178 179 183 0.010266465247940133 14 748 16 742
303 0.8797854288332774 -0.01226367254586992 -0.3893110287733027 21 24 21 0.01544769241812384 14 905 16 914
304 0.8797854288332774 -0.01226367254586992 -0.3893110287733027 21 24 21 0.01544769241812384 14 906 16 915
305 0.8548545755458511 -0.013869474530880041 -0.3919631241588172 21 25 22 0.06299857107617891 14 912 16 926
306 0.929531584015203 -0.025023185924483323 -0.3863276242820975 16 20 15 0.03475750040854678 14 952 16 966
307 0.832580826087153 -0.02207248716598117 -0.3908772936556386 161 164 165 0.09701782985645102 14 967 16 973
308 0.8334341621887974 -0.023953080351008377 -0.39031625500839306 107 106 108 0.00757910493382883 14 976 16 981
309 0.8334341621887974 -0.023953080351008377 -0.39031625500839306 107 106 108 0.00757910493382883 14 977 16 982
310 0.830769354228631 -0.030329746785669985 -0.3904248314000768 140 141 145 0.18637532081460126 14 1000 16 1020 17 1012
311 0.830769354228631 -0.030329746785669985 -0.3904248314000768 140 141 145 0.18637532081460126 14 1001 16 1021 17 1013
312 0.9154062855155259 -0.03762401845401235 -0.3838583369552551 20 23 22 0.2477497045377887 14 1006 16 1031
313 0.9477087378195744 -0.04315248481375473 -0.38423528592884365 25 31 33 0.20302664259094877 14 1024 16 1053
314 0.8785641038679349 -0.03781817554916179 -0.3860436442840863 23 23 23 0.1970328090045954 14 1025 16 1046
315 0.9091108055054514 -0.06851787074560012 -0.384216197106442 18 22 17 0.4832044167817149 14 1125 16 1157
316 0.8786055830080765 -0.07401414171453577 -0.38526907475443656 20 20 20 1.6147298767317817 14 1146 16 1176 25 2150
317 0.8306513330599458 0.10937253847406474 -0.37961087454205245 185 187 187 0.08394583471174766 14 225 17 259
318 0.8306513330599458 0.10937253847406474 -0.37961087454205245 185 187 187 0.08394583471174766 14 226 17 260
319 0.8316901391586494 0.018299733565735377 -0.38818095489314025 171 174 173 0.1509426527221899 14 756 17 711
320 0.8310107544920106 0.00977775398400488 -0.38886591187733294 142 141 143 0.05554843104057964 14 797 17 767
321 0.8792106839796925 -0.006450789917428241 -0.3874386042083127 160 166 164 0.23203095245381872 14 881 17 864
322 0.8334094712939469 -0.014430510961319604 -0.3885343895910603 111 110 110 1.16557246401367 14 924 17 907 25 1553
323 0.8837712525112851 0.08230841412120625 -0.38350879087309275 34 34 36 0.13679517770507765 14 379 22 562
324 0.9756170965392365 0.020005551810310974 -0.38684429826075045 47 53 55 0.43680979927038766 14 730 23 1687
325 0.9121708365739944 -0.03911110391129532 -0.3907861303490575 184 187 186 0.130576650657683 14 1009 23 2081
326 0.9181832268918856 -0.04467158365657074 -0.3900817938498373 182 182 182 0.1555150946845847 14 1039 23 2091
327 0.9181832268918856 -0.04467158365657074 -0.3900817938498373 182 182 182 0.1555150946845847 14 1040 23 2090
328 0.9921279003315218 -0.06502795872693426 -0.3927430891294325 199 199 201 0.19382033153438472 14 1073 23 2100
329 0.8310458540695614 0.09647697008991954 -0.3829474470106997 128 125 120 0.2852432726119515 15 532 16 267
330 0.8325644581344005 0.09013939846064321 -0.38278364858513264 189 189 191 0.26247558625379447 15 558 16 291
331 0.8522203968379147 0.08693591650411213 -0.379472169370971 25 29 28 0.06413755047196128 15 578 16 325
332 0.8522203968379147 0.08693591650411213 -0.379472169370971 25 29 28 0.06413755047196128 15 579 16 326
333 0.8321953286934872 0.08416655250568487 -0.3843827969165154 181 177 178 0.347613760567923 15 591 16 338
334 0.8295462365312484 0.08098511841601869 -0.3858045442897663 185 188 189 0.23673421256520863 15 618 16 360
335 0.8327367122508199 0.0669508487837531 -0.3853068800123138 186 185 187 0.21960951246212113 15 709 16 442
336 0.9405492256906836 0.05052492294444522 -0.38094075000134553 32 38 36 0.6679371672480855 15 821 16 581
337 1.0005564834054863 0.034393121378157726 -0.37830101065395133 54 62 59 0.9752701138985552 15 896 16 675 18 494
338 0.8333426002090955 0.021842130911832847 -0.3891794654652412 173 175 176 0.030191814645137822 15 971 16 737
339 0.8326950746803302 0.009174384693535697 -0.38432959419277046 194 193 195 0.9564649339674343 15 1043 16 793 18 544
340 0.8351480939874317 -0.02425152712853252 -0.38909385637764315 166 166 166 0.003525125038161041 15 1222 16 984
341 0.8316984367522412 -0.03901823110054746 -0.38954472935016704 109 109 105 0.4728882862424279 15 1290 16 1071 17 1085
342 0.8832548381670667 -0.07333965107863669 -0.3821174796671012 160 160 162 0.7704033781615306 15 1383 16 1174
343 0.8835377601506103 -0.0735694725518414 -0.38256745052566965 160 160 162 1.3988129348941332 15 1384 16 1175 25 2160
344 0.830043458493917 0.05950116003545099 -0.3845431462838504 141 141 144 0.19237036997183798 15 756 17 473
345 0.8340313019692974 0.010108226593319924 -0.3873813894251309 172 175 176 0.07967470678712185 15 1035 17 761
346 0.8301427368808675 -0.0035836590512787502 -0.3888137545342848 122 121 124 0.17701742062813208 15 1117 17 843 24 895
347 0.8312938938555811 -0.01033128337246533 -0.3881520238878594 108 108 107 1.4841528063220042 15 1148 17 882 25 1520
348 0.8328789911427756 -0.026002983633027877 -0.38941443630876915 161 165 166 0.31986772009208175 15 1232 17 978 16 994
349 0.8598195468948758 0.011939101329507098 -0.38445356955319915 167 173 173 0.36867385824216853 15 1021 18 549
350 0.8331015018877124 0.012811743874877352 -0.38469418772625347 167 164 165 0.09753333607019922 15 1023 18 508
351 0.8316752570639702 0.012825165919932135 -0.38578886294012277 138 137 143 0.08723538098472472 15 1025 18 511
352 0.8313975503013429 -0.025359962498877234 -0.38575504984070913 160 160 159 0.19440845180362112 15 1234 18 764
353 0.8947346268577967 0.03557342519181972 -0.3817143635239265 172 178 178 0.3710293850490105 15 890 22 878 19 350
354 0.9163342735285831 -0.006680914518151227 -0.38519369844868334 159 168 165 0.017416345828057376 15 1103 22 1171
355 0.9178247068999449 -0.013256120624741035 -0.3865489008590293 20 24 23 0.013157232543573346 15 1134 22 1209
356 0.9178247068999449 -0.013256120624741035 -0.3865489008590293 20 24 23 0.013157232543573346 15 1135 22 1210
357 0.9541370443497433 -0.033687225188637766 -0.3832191328486611 35 38 46 0.21536033258508816 15 1214 22 1277
358 0.9103662986485698 -0.06990737213525364 -0.3868107162266948 21 21 21 0.053444809194207105 15 1359 22 1428
359 0.8755072393571223 -0.0663851570119923 -0.38723782772215865 25 25 21 0.13722276074982576 15 1364 22 1438 24 1310
360 0.8755072393571223 -0.0663851570119923 -0.38723782772215865 25 25 21 0.13722276074982576 15 1365 22 1439 24 1311
361 0.9984238473844832 0.03459657844929409 -0.38184642215309134 55 63 62 0.33702103252415483 15 893 23 1570
362 0.9396794505433483 0.02518782652780972 -0.38022727905942866 32 40 37 0.017508003386159803 15 943 23 1677
363 0.9733974858821892 -0.006426965900796633 -0.38433046131203735 51 56 58 0.012563003161273928 15 1093 23 1856
364 0.916321370429468 -0.012258850959157764 -0.3847943988745715 34 34 34 0.0019210464505771449 15 1131 23 1967
365 0.9550962251180651 -0.03414209948349662 -0.3847927551807902 44 44 57 0.050420948536323604 15 1215 23 2036
366 0.9848944353173419 -0.06705811780102765 -0.3861170229996418 41 44 47 0.020699803704449845 15 1321 23 2113
367 0.950986523529349 -0.07172788842818573 -0.39021204686356914 30 33 34 0.242653886126621 15 1343 23 2148
368 0.9814288382012706 -0.07608220784048014 -0.3860005770832842 37 40 43 0.051983204562175464 15 1348 23 2137
369 0.8296983771613892 0.13457602992228426 -0.37546650550805055 193 189 190 0.05182878198330788 16 126 17 204
370 0.8308807979252129 0.11340544091704534 -0.37769569061643515 191 189 191 0.04974371485367057 16 212 17 247
371 1.0781814326939962 0.09091777451697404 -0.377008939502534 88 91 92 0.04148813757625255 16 437 17 481
372 1.0832841661467334 0.0510144728938716 -0.3896555440873132 103 103 104 0.22781301217508812 16 630 17 652
373 1.0759070822851666 0.04180739111013459 -0.38116164941307956 120 126 124 0.2665324087033732 16 657 17 683
374 0.910382600527247 0.019579302678940456 -0.38406876203868456 21 24 23 0.25517932854767683 16 747 17 740
375 0.954740909663685 -0.03060332036907301 -0.3848144065281924 176 184 183 0.1656484883858686 16 989 17 1016
376 0.9167498059854227 -0.04353485641082116 -0.3873934771137196 157 160 159 0.25193102541579343 16 1064 17 1097
377 0.9421056212292976 -0.07424213631105542 -0.38663501621871227 26 26 27 0.13336469195675266 16 1160 17 1191
378 0.8963183131895845 -0.08301772547465755 -0.3896362070369338 23 23 19 0.24044645984599525 16 1194 17 1224
379 0.8311434418057725 0.035217549515149556 -0.3816531819746262 117 113 114 0.22283358093603994 16 637 18 362
380 0.8316179116737179 0.023503922409218805 -0.38156205877039906 116 112 115 0.1310728816275721 16 706 18 435
381 0.8328004368357536 -0.013825010777206048 -0.3830575550561936 162 165 164 0.0012194301599020671 16 930 18 687
382 0.8308877069647954 0.10157531819728625 -0.38453622079599387 207 206 208 0.9212952675991124 16 238 19 61 21 492 25 748
383 0.8306526789118149 0.07910136986095298 -0.38268292529877757 183 189 191 0.1948170304086675 16 362 19 119
384 0.8298366668740647 0.1324405160747638 -0.37915246951603465 119 119 115 0.018377685096145013 16 138 20 504
385 0.8314240307893187 0.10984725963085537 -0.38004771212835703 190 185 188 0.259870174533726 16 220 20 539
386 0.8289347232239145 0.0765163574703667 -0.386644834725534 191 190 190 0.39914148083624323 16 384 20 737 18 138
387 0.9895258580006704 0.0751966290197951 -0.374054160093486 65 73 74 0.951306451456655 16 473 20 1154
388 0.8314237604076594 0.06104147235725324 -0.38731642050652193 183 182 183 0.09957579197906101 16 485 20 864
389 0.831759261975993 0.046725225469491545 -0.38832756047970807 125 122 121 0.22690324454565797 16 574 20 941
390 0.8323008926787507 0.021559892447474534 -0.38109021998046516 169 170 170 0.06313609196155928 16 729 25 1318
391 0.8325031989223058 -0.00852838452241228 -0.38199228269674923 104 98 101 0.0540751672225898 16 896 25 1511
392 0.8309750359476216 -0.03778238514908392 -0.38575042482456917 161 171 173 1.3411110978337226 16 1067 25 1745 28 1385
393 0.8721617565496589 0.012354978484485695 -0.37321744136562734 22 23 19 0.25973531248514414 17 747 19 457
394 0.8721617565496589 0.012354978484485695 -0.37321744136562734 22 23 19 0.25973531248514414 17 748 19 458
395 0.875116558386168 -0.01469703635874503 -0.3727465721750657 17 20 19 0.15912242477674246 17 893 19 615
396 0.9108224154647715 -0.013746074067415608 -0.3728607790416625 24 30 30 0.13376201604553595 17 898 19 621
397 0.9108224154647715 -0.013746074067415608 -0.3728607790416625 24 30 30 0.13376201604553595 17 899 19 622
398 0.9021854182504352 -0.03561794530378167 -0.3731087421159833 21 24 23 0.538612298058289 17 1047 19 776
399 0.9050583313631362 -0.038955177395507835 -0.3724743267483049 154 162 161 0.5734962401781907 17 1076 19 799
400 0.8315976848005742 0.08004353695859685 -0.38285329481033586 129 128 130 0.007133273709208478 17 342 20 711
401 0.9766938648507811 0.02442932908968804 -0.37722051843672527 74 82 80 0.017634132190673623 17 735 20 1487
402 0.9763907964340717 0.019062921847396254 -0.37784229055313995 189 195 193 0.6563938398984691 17 756 24 771 22 957 25 1800
403 0.9766509497524696 0.019061419383273926 -0.3782673612610508 189 195 193 0.5818713316917601 17 757 24 772 22 956
404 0.8313831157639041 -0.02863743844488139 -0.38868862619141586 120 124 124 1.7499346817153356 17 999 24 1087 25 1651
405 0.8309429847623884 0.06639631781144716 -0.38129845771636317 171 170 171 0.1284627730204544 17 424 25 992
406 0.8302486183123827 0.06033855024873163 -0.38127365654572937 135 135 134 0.0914536521210707 17 459 25 1039
407 0.8312696384084419 0.03976147437463837 -0.38170305644721253 148 149 150 0.8685768012879391 17 577 25 1201
408 0.8327636918117046 -0.03959823193125984 -0.38784331666117516 173 176 175 1.4341606769924702 17 1087 25 1766
409 0.8315692325823851 0.03490222033062025 -0.38404200419373985 133 127 129 0.21757796397470341 18 373 21 967
410 0.8321415422658747 0.10173884070817621 -0.38490534107998886 200 203 206 0.04235828992160478 19 62 20 552
411 0.8329043521428152 0.08082437195222898 -0.3834178059973966 200 200 202 0.039343906853798426 19 113 20 709
412 0.9518351529484476 -0.030753473099697285 -0.37844064695443885 200 200 202 0.3357250533593176 19 753 20 1818
413 0.8293952933056893 0.03778980660338422 -0.3831701842963498 195 195 198 0.16116163230758418 19 316 21 933
414 0.9980771971517068 0.02762342037305492 -0.37763986461907945 70 73 74 0.08892657968847036 19 440 21 1275
415 0.8524305366568258 -0.07439333632370751 -0.3824761831250122 24 24 25 0.1413977323561454 19 947 22 1486
416 0.8777124075140414 0.08634218956238136 -0.38080287378003963 19 25 23 0.1596265833446901 19 114 25 1051
417 0.8319890203178648 0.07205152014992226 -0.38115264418394557 137 134 130 0.024647002236459832 19 138 25 957
418 0.9389925971354847 0.08582645647796791 -0.37748679408135877 30 31 30 0.43129752648185504 19 139 25 1269 27 449
419 0.830528354692609 0.06915886227423197 -0.3813592595460565 176 175 173 0.03444713424275275 19 157 25 972
420 0.9355366779412365 0.05774319888176661 -0.37745506978435395 43 49 49 0.10327108613042317 19 267 25 1411
421 0.830252530929548 0.04419389890419105 -0.3802563791036924 157 160 161 0.18045293928383357 19 282 25 1168
422 0.8288062116803118 0.019946774503172175 -0.3803193330386496 170 174 173 0.09668320842440276 19 406 25 1313
423 0.8309553962426098 0.008219879422469894 -0.38064192542340625 161 169 169 0.16623259548891284 19 476 25 1395
424 0.8303199939517046 0.007541438271912237 -0.38111528439973474 109 114 116 0.12048460470028756 19 479 25 1397
425 0.830328748312238 0.00016811426188984704 -0.3811640530261055 117 123 125 0.03618515308874793 19 527 25 1438
426 0.832472035699736 -0.017073218459491352 -0.3814256363503007 160 166 167 0.04193934033713373 19 627 25 1577
427 0.8303959569509178 -0.018723643799720874 -0.38076424002097603 110 113 112 0.033048845046354025 19 643 25 1580
428 0.9945813408817499 -0.013256162369571492 -0.3773283411145152 68 77 77 0.34777121432435865 19 646 25 2025
429 0.9523485201927947 -0.03322052831395654 -0.3801258996759023 45 44 46 0.23156198146930826 19 775 25 2064
430 0.9402647037375583 0.024430985575513847 -0.3804471183797093 36 40 36 0.20658384486497477 20 1399 22 938 25 1626
431 0.8899846946472012 -0.02273808941400453 -0.38126584496936206 184 184 184 0.3069539570150879 20 1661 23 2045
432 0.8297129049550874 0.12824548915479222 -0.38081543670800544 167 166 166 0.09026417275275354 21 349 24 115
433 0.8310099562127737 0.07253917049095482 -0.38542267938280955 203 203 205 0.18226798755339702 21 657 24 286
434 1.0877552909276211 0.10777557045407622 -0.3773768733070842 78 81 80 0.2219776979088937 21 861 24 326
435 0.8336401766957305 0.04388165114324393 -0.3832354717547699 199 199 201 0.22259764543601873 21 887 24 505
436 1.0841757142979231 0.09589855677969429 -0.3805285755361256 118 124 122 0.2672725215295506 21 910 24 392
437 1.0940144765902817 0.08744865245629899 -0.3797973144031714 74 74 76 0.17779969978032265 21 986 24 446
438 1.0833850941487893 0.08205291641369403 -0.37841489736147405 114 120 120 0.22030680351191353 21 1003 24 464
439 1.0802693787012458 0.07322835401590895 -0.3795117009093472 121 127 125 0.13881923245075603 21 1052 24 515
440 1.0813796740264245 0.05512861289167548 -0.38007330700624564 120 123 122 0.12455750379367043 21 1148 24 612
441 0.9912971604334141 0.02814305645501784 -0.38245925211948106 71 82 81 0.1721241196316484 21 1261 24 713
442 1.0778124257048622 0.0387410880545161 -0.38093502216549735 130 132 134 0.046508677015680046 21 1280 24 697
443 1.0905014086120264 0.04029130684236744 -0.38398273007250816 96 97 93 0.0295500638978503 21 1281 24 698
444 1.0780743344388684 0.03502399492993354 -0.3826350531906436 135 135 137 0.013948412780816702 21 1302 24 711
445 1.0821930960364432 0.030472457953454178 -0.3810813532996793 121 123 122 0.09927977139891046 21 1344 24 751
446 1.0768748614644517 0.02931785157207915 -0.38061519300808605 128 129 131 0.0461488985411682 21 1347 24 756
447 1.0825621843679896 0.02469480789089311 -0.3827605212960414 104 104 106 0.04481719446195229 21 1380 24 782
448 1.0847841828433618 0.022909530592129648 -0.38306401487632974 114 117 118 0.09434082625554377 21 1390 24 798
449 1.0851790026584567 0.0187985486626333 -0.3840414995840834 115 118 119 0.010766860639457705 21 1407 24 822
450 1.0770067273301427 0.017700555419074226 -0.3826173968073377 128 128 130 0.1236377379888258 21 1409 24 826
451 1.0820699696261629 0.01590993304285386 -0.37936707525775426 93 92 94 0.051565533954760816 21 1437 24 841
452 1.0858712732635123 0.012563767400026652 -0.382695933627951 98 98 98 0.016867515486089953 21 1457 24 865
453 1.0781614897544913 0.005831194863788018 -0.38511614415171214 121 124 126 0.04074645029578741 21 1493 24 902
454 1.0832046823985693 0.0031202111100448898 -0.38268454323599993 112 112 114 0.1492614998753069 21 1520 24 915
455 1.082707411588437 0.0004937617098580566 -0.3820111256157426 109 109 110 0.02527644925996029 21 1548 24 928
456 0.9894612733707009 -0.06177001830786512 -0.3829169591011238 60 48 61 0.12275572415184134 21 1783 24 1264
457 0.965757240489573 0.031788041966585454 -0.3814484357103981 185 196 192 0.007772789388711562 22 885 24 684
458 0.9898833492679737 0.02765342297563933 -0.38024853415100823 62 73 69 0.29236681404885706 22 906 24 712
459 0.8846441809230569 0.018916627369566442 -0.38484210919905865 24 27 26 0.11496333283322267 22 1002 24 729
460 0.8845002879089654 -0.006731065358581786 -0.3847242852759242 23 29 27 0.21349930012326418 22 1194 24 936
461 0.8789950115736421 -0.012364914637901243 -0.3860789918516416 23 27 22 0.07108128184742722 22 1225 24 968
462 0.9848380376004061 -0.06474799216126582 -0.3818576562201412 40 42 52 0.4426048010994764 22 1365 24 1279
463 0.9157996243631947 0.08792007098763818 -0.381441176229008 26 32 30 0.3042732361226094 22 522 25 1194
464 0.9465921088311134 0.055869183505871105 -0.3807584206977394 42 51 50 0.007018620807314244 22 753 25 1458
465 0.9560222931020438 0.028652891918841596 -0.3786008720439451 51 56 58 0.18084277326622195 22 910 25 1646
466 0.9087839702158312 -0.012157260435721802 -0.3810890142758906 162 170 167 0.11973309862805114 22 1207 25 1817
467 0.9652930937182781 0.08913924338282217 -0.3750544804757631 51 58 52 0.28954849285661 23 1205 24 308
468 1.0026418926302003 0.0498888249215934 -0.3801325573465827 62 70 71 0.18765761948746576 23 1476 24 599
469 0.9065564377869118 0.03666071784573233 -0.38560498552607414 35 38 36 0.090759004885432 23 1640 24 618
470 0.92000869387158 -0.06395986283479825 -0.3816146691605256 23 29 27 1.0034745445061355 23 2152 25 2179
471 0.8306708092425269 0.10868174556623236 -0.3796826590675307 148 145 142 0.5488585489609937 24 139 25 672
472 0.8314890238897221 0.06190242954026959 -0.3812846962403122 121 120 116 0.13987043589633766 24 357 25 1030
473 0.8314890238897221 0.06190242954026959 -0.3812846962403122 121 120 116 0.13987043589633766 24 358 25 1031
474 0.832197544791963 0.03038578053466894 -0.3800858739495228 127 134 129 0.0843574352300082 24 601 25 1253
475 0.8296918982082023 -0.00389976771153672 -0.3794291209033607 181 181 185 0.3896327797528882 24 891 25 1471
476 0.8324778892475918 -0.014166756495171642 -0.38071129933717274 175 174 178 0.24711759338329375 24 975 25 1550
477 0.8302267005406521 -0.01628107439036476 -0.38080731716570304 133 132 135 0.46697346249248844 24 993 25 1564
478 0.8302267005406521 -0.01628107439036476 -0.38080731716570304 133 132 135 0.46697346249248844 24 994 25 1565
479 0.9270840888685028 -0.054366587632283886 -0.37928665618108026 165 170 168 0.41104012532513307 24 1236 25 2138
480 0.8789489445694169 -0.07181663900159625 -0.3678521878036958 168 168 164 0.0425134230550455 24 1337 26 1366
481 0.8301572693625741 0.12593248919591382 -0.3773949538496607 188 184 187 0.997731683769487 24 119 27 180
482 0.8311026855401572 0.10381974217087281 -0.3799473099115361 191 190 192 0.24542644126908145 24 153 27 256
483 0.8822922606336085 0.05431970907588856 -0.37738883129166667 27 33 31 1.2131797214040072 24 468 27 518
484 0.762476431498019 0.07078026293015179 -0.39503085926968545 66 70 63 0.39237220710041565 25 650 26 430 28 615
485 0.8325042033941407 0.06802454154930865 -0.38635329704626864 148 149 150 0.3431557826532121 25 998 26 538 29 624 28 644
486 0.7713203097406476 0.10062548103444924 -0.38629536815616766 21 20 14 0.014501891298736469 25 378 27 192
487 0.7663156217086423 0.07020263039508513 -0.3903293382270271 25 25 21 0.2840426798306183 25 668 27 285
488 0.7675045209188004 0.06721093988304719 -0.3917017217694609 55 58 53 0.2710091705639653 25 707 27 294
489 0.7714778843654755 0.07585451667272317 -0.3948664162630299 41 44 43 0.009069991724888383 25 665 28 573
490 0.7636059365568425 0.05796625632181301 -0.3950088860225473 62 62 62 0.06867691193079574 25 774 28 720
491 0.7636059365568425 0.05796625632181301 -0.3950088860225473 62 62 62 0.06867691193079574 25 775 28 721
492 0.7685922093957143 0.058446976448821276 -0.3928747069663964 64 64 64 0.2098854758411893 25 797 28 716
493 0.7665474574656409 0.046481870994188365 -0.39518286475982095 25 25 25 0.1877503915592854 25 870 28 808
494 0.7694805662537842 0.04738154381952366 -0.3936155044039315 48 43 39 0.238739259693117 25 877 28 801
495 0.7642610182008666 0.043112577130190635 -0.39431022741343547 68 67 67 0.13867524055956792 25 880 28 830
496 0.7642610182008666 0.043112577130190635 -0.39431022741343547 68 67 67 0.13867524055956792 25 881 28 831
497 0.7658452689532831 0.04310734628039151 -0.39522320587146537 30 27 24 0.11506750777352658 25 895 28 832
498 0.7643194695564836 0.04157348638441052 -0.3959869285144155 41 38 33 0.29161073941708693 25 903 28 845
499 0.8311778019159601 0.06007737550892585 -0.38626340252829544 143 142 142 0.13350225705689725 25 1054 28 707 30 1005
500 0.8311800808798331 0.06006561672795181 -0.3861787780538327 153 155 156 0.15675531187297378 25 1055 28 708 26 583 30 1006
501 0.8302645783495446 0.05333155471943194 -0.3861361342056273 176 176 177 0.2874271768420908 25 1094 28 758
502 0.8330840368907287 0.04545949983862263 -0.3874620893243866 133 130 129 0.37209069239574744 25 1179 28 813
503 0.8321874457357087 0.037754236689949046 -0.3873673516977899 183 183 187 0.3764405431618057 25 1219 28 880 30 1153
504 0.8796983677953822 0.05684198702463113 -0.3860668433391803 173 176 175 0.0030534714047256426 25 1256 28 737
505 0.9167023681461208 0.05152879350238468 -0.3846052554551845 31 37 37 0.1366890770673975 25 1398 28 772
506 0.9644914762133746 0.06591942924685971 -0.3826367695860272 45 53 52 0.5856113773485283 25 1443 28 688
507 0.8854447423714269 0.020111721182740565 -0.3865474613081938 24 27 28 0.35312994004871495 25 1493 28 1032 29 823
508 0.8348148586509553 -0.014917905523558287 -0.38585554507605074 164 170 170 0.8006980956981303 25 1569 28 1266
509 0.9831381561428363 0.043115565034647634 -0.38173726402567715 56 67 66 0.30690698952480994 25 1630 28 833
510 0.8806115496370687 -0.006451764755484204 -0.38826140399382436 161 169 166 0.602229476968817 25 1649 28 1221
511 0.8313447378690005 -0.030103357720433967 -0.3882364655417824 129 131 130 0.9538491053161102 25 1670 28 1337
512 0.773747561152372 0.10286428124308648 -0.39139592768841897 61 62 58 0.056648047149986086 26 327 28 345
513 0.7614344415508284 0.08269536564089562 -0.39313544657134286 44 44 43 0.22152641690841918 26 380 28 508
514 0.7614344415508284 0.08269536564089562 -0.39313544657134286 44 44 43 0.22152641690841918 26 381 28 509
515 0.7623168754961158 0.08165507049114232 -0.3945277075614296 45 46 42 0.203609663375067 26 386 28 524
516 0.7710293548432993 0.07626013268867136 -0.3913375301609222 46 47 43 0.03978485847090492 26 415 28 567
517 0.8320407045636669 0.09080595247343985 -0.38638436399420273 125 125 128 0.004777761193137358 26 446 28 452
518 0.8342502690353067 0.07336225871204434 -0.38652984645432603 186 184 185 0.176446814684837 26 520 28 606 29 592
519 0.8790912030745329 0.08825174177830247 -0.38489744487110383 31 34 33 0.09892049694889668 26 526 28 487
520 0.956418558033148 0.0976764405943269 -0.38539418115227925 69 70 73 0.2155899628654653 26 603 28 455
521 0.8725597883850781 0.06752024832116155 -0.38539148296349524 176 184 185 0.02093607535443847 26 620 28 665
522 1.0005522503450415 0.0949824728635943 -0.3830379763650315 86 92 92 0.28004547969691446 26 680 28 482
523 0.8330925919192916 0.024888983549220034 -0.3865864310304509 113 113 114 0.031931427177749515 26 809 28 998
524 0.8324491202655964 0.005462048229202301 -0.38628346066249564 176 182 183 0.02917247541630879 26 907 28 1156
525 0.9947604882793261 0.042058881550345484 -0.38293230619591706 67 75 76 0.056742930865883785 26 930 28 843
526 1.0019571492745105 0.028484217743209844 -0.3814762907752885 80 88 89 0.34957833335296423 26 1016 28 947
527 0.9488065505795623 -0.005628967650009587 -0.3832334298345706 38 46 45 0.2667167331870744 26 1124 28 1205 29 910
528 0.9800638243305682 -0.011456167428213853 -0.38155183560710165 51 56 58 0.15117181308112176 26 1174 28 1223
529 0.9111895740541319 -0.0688534626801998 -0.3852916434309908 24 27 26 0.06609653617563861 26 1357 28 1493
530 0.919038502729428 -0.10075359874115616 -0.3853320547134907 28 34 34 0.5030133594374431 26 1439 28 1557
531 0.9951395824153696 -0.1589132337577523 -0.37936251374180086 27 28 24 0.7026211467815652 26 1505 28 1587
532 0.8324819632379831 0.04696940436047414 -0.3869426800298445 137 140 139 0.002662132308071561 26 661 29 723
533 0.8544224207937957 0.02569958577365385 -0.3865624070609373 23 29 27 0.03648983652433881 26 833 29 802
534 0.9529894752532256 -0.016301577827870877 -0.38151817671588395 85 93 97 0.5468276433379141 26 1173 29 946
535 0.9167622830553739 0.11337826877649516 -0.38259038442488985 40 43 44 0.19364040208284222 27 313 28 334
536 0.7745860951330021 0.02815364451877527 -0.3913572719825323 57 58 54 0.17233606464118545 27 485 28 976
537 0.9247806837661348 0.07536736581759841 -0.3900584176947086 38 44 44 0.09882497323964244 27 487 28 623
538 0.92613611335604 0.06745805091250191 -0.38351341457221744 187 191 190 0.14666672613335704 27 529 28 677
539 0.8300820808763022 0.03712451431036512 -0.38551512398819565 180 183 183 0.045843917028408676 27 538 28 888
540 0.9111101420478127 0.056936171177414674 -0.3851526208269894 33 39 39 0.19392739039862814 27 564 28 740
541 0.9111101420478127 0.056936171177414674 -0.3851526208269894 33 39 39 0.19392739039862814 27 565 28 739
542 0.8340731390700571 0.020854777136230695 -0.38632297047188524 177 174 172 0.20800539173618035 27 650 28 1033
543 0.8538571318569856 0.02523956710490783 -0.38506103682624165 27 33 31 0.31355646887344873 27 660 28 995
544 0.8324638003685769 0.002958684589178318 -0.38622510241995567 174 174 177 0.10566287512208668 27 748 28 1173
545 0.8324638003685769 0.002958684589178318 -0.38622510241995567 174 174 177 0.10566287512208668 27 749 28 1174
546 0.9978054396152207 0.04230314604009882 -0.3806352920450292 67 77 77 0.13731376732248424 27 760 28 835
547 0.9900684419436093 0.03670654315174071 -0.38339201872582185 63 71 72 0.24288011737441692 27 795 28 894
548 0.8549348437410923 -0.012481965338338048 -0.38821989651844135 23 26 25 0.2954965843417104 27 892 28 1256
549 0.943566122584345 -0.01160909581361973 -0.38563128351694387 36 42 44 0.19043920167555037 27 981 28 1231
550 0.9650774399076949 -0.025787258458197185 -0.38620833621966427 43 45 51 0.06457409940950139 27 1059 28 1281
551 0.8324391962228317 0.10641297070203629 -0.3858362321616737 190 186 187 0.16165965792418022 27 257 29 458
552 0.8323062777410719 0.10096937609375059 -0.3860484604112314 191 193 196 0.30906597522922863 27 270 29 472 30 680
