# 3D point list with one line of data per point:
#   POINT3D_ID, X, Y, Z, R, G, B, ERROR, TRACK[] as (IMAGE_ID, POINT2D_IDX)
# Number of points: 437
57 1.090021416989401 0.06500374952789847 -0.3809228121481331 141 147 145 0.07052239313037136 1 866 4 1639
58 1.0884483777476588 0.06413332805279784 -0.38293140789109803 105 104 104 0.03967606857202728 1 874 4 1648
59 1.0962504839006821 0.05560171922387817 -0.3831240385349485 130 133 132 0.04333702336127364 1 929 4 1691
60 1.1011100476195308 0.05247662568155519 -0.3815843126427958 121 125 120 0.13159078024045565 1 948 4 1709
61 1.0866620214872065 0.03863065331276839 -0.3817114887396939 144 155 155 0.015620504671068446 1 1026 4 1795
62 1.0866620214872065 0.03863065331276839 -0.3817114887396939 144 155 155 0.015620504671068446 1 1027 4 1796
63 1.0826257601339782 0.03601620549816883 -0.3820338362164419 158 166 165 0.10628467397770464 1 1039 4 1809
64 1.0980788232416883 0.03428118610860241 -0.3808985183613627 127 133 131 0.09669289754804929 1 1051 4 1826
65 1.0980788232416883 0.03428118610860241 -0.3808985183613627 127 133 131 0.09669289754804929 1 1052 4 1827
66 1.0734724355946625 0.02551558755039713 -0.3814872088774551 121 121 125 0.039995086175307525 1 1110 4 1869
67 1.0781917389366606 0.013829668295554657 -0.3823005512750697 164 172 171 0.07605901606569393 1 1175 4 1959
68 1.1035774739251432 0.009270719394538262 -0.382201855323611 94 95 88 0.05030849553049701 1 1210 4 1983
69 1.0063199788880155 -0.005142327502648779 -0.3679836756465611 196 202 201 0.04866533253026836 1 1272 4 2108
70 0.9908452567016437 -0.15368621393134796 -0.37359516280284705 35 38 37 0.0007561262848155741 1 1918 4 2672
71 0.9944575828204019 -0.15773895969156068 -0.3772254368643358 35 35 35 0.5268801523039408 1 1925 4 2676 10 1292
72 0.9293494721952618 0.1025887996145336 -0.3840229428733596 33 39 39 0.4692937368835227 1 498 5 1278 11 393
73 1.0823877325327416 0.11027052425724007 -0.3814651072653721 98 103 103 0.06682424640133859 1 571 5 1295
74 0.9249163223168568 0.06579206951191903 -0.3797968791835619 191 196 194 0.2697110255307866 1 736 5 1549 10 389 31 1139
75 1.0999869583576063 0.08278851409479238 -0.3826594128097433 131 140 138 0.010297568401555147 1 750 5 1469
76 1.0689909934911799 0.07576798778323114 -0.38092340936986663 190 194 189 0.017071294384602562 1 776 5 1504
77 1.0920842497926486 0.0692048819428171 -0.38057460399987764 109 116 116 0.010252933137710675 1 840 5 1563
78 0.8322985709686812 0.042629874670140774 -0.38153956894635566 185 191 193 0.3295710084942977 1 879 5 1720
79 1.0753443990833067 0.05855011573703271 -0.386963084938257 188 195 189 0.02157162708688175 1 906 5 1629
80 1.0985193258050407 0.05767674362247174 -0.3834658830461864 131 135 135 0.05598581676229595 1 918 5 1640
81 1.094222417491365 0.05292154023576496 -0.37651688403901395 106 109 108 0.09695762827058459 1 935 5 1656
82 1.0861281603656197 0.0517377343987726 -0.381892673966214 142 148 148 0.06513631866485536 1 947 5 1670
83 1.0951201386364933 0.04921553788576939 -0.38158421118212316 93 96 100 0.06954994856559758 1 962 5 1688
84 1.0795792712445773 0.04398172186720759 -0.38252115154747185 145 147 148 0.03660611322905554 1 987 5 1717
85 1.079574655890655 0.03330052139073642 -0.3823033913743168 164 166 166 0.063613353910352 1 1054 5 1780
86 1.0971052321542165 0.03393560021225475 -0.38241181574965344 97 97 97 0.04364887764260801 1 1056 5 1777
87 1.0949371711766407 0.028329729015523806 -0.37982488170684414 97 96 100 0.04307164866637484 1 1095 5 1805
88 1.0921504138112537 0.025493361825342693 -0.37898284756343403 143 149 149 0.07954524981086236 1 1115 5 1825
89 1.0974958233551944 0.013883804330272389 -0.38042191137818165 91 91 93 0.01797220479992816 1 1181 5 1897
90 0.964683515372472 -0.019882651195938485 -0.3784645292901008 56 58 60 0.14999614829112903 1 1377 5 2147
91 0.964683515372472 -0.019882651195938485 -0.3784645292901008 56 58 60 0.14999614829112903 1 1378 5 2148
92 0.8321157802285171 -0.028996648517362732 -0.3822640356615033 178 178 180 0.1358264260595941 1 1462 5 2271
93 0.8340052311262959 0.11396907163285587 -0.3874003565595735 204 202 202 0.06067899808808183 1 372 10 125
94 0.9538825181106856 0.09518117706553493 -0.381604351564944 58 60 65 0.15112456805134555 1 566 10 255 26 603
95 0.9256623806712507 0.06640108911300888 -0.3813902989433518 191 199 198 0.07081608018833711 1 737 10 390
96 0.8799772779474085 0.05619458568494014 -0.3851139778593096 195 198 199 0.06966836530070715 1 804 10 425
97 0.8313578877564874 0.034124072405635655 -0.3881335150674721 195 198 199 0.37870583637018673 1 955 10 526
98 0.8326229473711942 0.03183320622092202 -0.3874854343442854 150 150 152 0.24981729112171605 1 971 10 537
99 0.885891525828143 0.024838986392171473 -0.38488362153000655 189 196 195 0.08714821603199512 1 1049 10 600
100 0.9782172618258634 0.02465272243672961 -0.3788321537506462 55 66 64 0.00976194384049273 1 1085 10 624
101 0.9425329345499397 -0.037194080790081685 -0.3828622988940228 36 46 49 0.006590149988849315 1 1511 10 971
102 0.8865389228337252 -0.04365966127034903 -0.38430295849053453 31 31 35 0.1956495313948079 1 1553 10 998
103 0.999627912822689 -0.15652807074961317 -0.3793434352882935 26 25 25 0.0875866396253232 1 1917 10 1285
104 0.9825274273189236 -0.15560701971726615 -0.3803540036806712 24 27 26 0.12276281202251875 1 1921 10 1287
105 0.9177662778213538 0.08838174659871971 -0.3848814468860689 35 38 37 0.09998624005811385 1 581 11 526
106 0.8346567647578184 0.060246366390719376 -0.39112190146218745 208 211 212 0.906129818978581 1 733 11 849 28 718
107 0.9182496820572769 0.05126593230772424 -0.38684862680204296 41 44 47 0.1970253636491791 1 872 11 1023
108 0.8940813145321935 0.033527179957998046 -0.3943983924252486 96 83 73 0.04697029000194194 1 996 11 1268
109 0.8940813145321935 0.033527179957998046 -0.3943983924252486 96 83 73 0.04697029000194194 1 997 11 1269
110 0.8331975149087413 0.006580573454664071 -0.3858643666369976 158 157 160 0.019277459466337885 1 1178 11 1549
111 0.9636273621955324 -0.02541847679990215 -0.38334226919861303 57 63 67 0.19206978108032938 1 1426 11 2039
112 0.8325223802077991 0.07758915545212378 -0.383587206242944 152 149 152 0.008182035182950168 1 574 12 165
113 0.8322745188201637 0.06870309578430961 -0.38281229101435965 190 191 193 0.1301256327907032 1 639 12 207
114 0.8338842721575424 0.047248458327246695 -0.3823088914721608 188 188 189 0.000509857229243062 1 838 12 343
115 0.878718987783696 0.04908721702746474 -0.3816470555889907 32 31 33 0.10035866378995686 1 858 12 366
116 0.8303019107372188 0.0389244395908145 -0.38181958596866483 189 192 193 0.12146968085627184 1 903 12 385
117 0.9996403434805984 0.04761419172433106 -0.376100587869562 56 62 63 0.09591971856169891 1 928 12 425
118 0.9095422765938564 0.018416418176225947 -0.38059543528303974 28 34 36 0.19418545053183212 1 1109 12 527
119 0.875101152373581 -0.00025735227176181273 -0.387981314035843 27 30 31 1.4492356805953408 1 1247 12 622 28 1195
120 0.8731504024445974 -0.001773408540055128 -0.3808521334385621 27 30 31 0.11018302793324375 1 1248 12 623
121 1.0719576112205416 -0.0334188711497216 -0.37968840029754414 152 158 157 0.13639683415702977 1 1459 12 822
122 1.071568029922919 -0.03552582277039443 -0.37935803662274215 151 157 158 0.2305553143637716 1 1474 12 838
123 0.8326086173352404 -0.03265457377582295 -0.3804091138008422 132 134 136 0.05348412989560416 1 1489 12 784
124 1.0698972863797642 -0.051294861821729605 -0.379408226534267 119 123 124 0.11022807862087713 1 1562 12 876
125 1.0705840899927102 -0.05806095171042957 -0.37766890637114503 146 153 153 0.011492716251597762 1 1605 12 908
126 1.008280655709519 -0.15394982232844212 -0.38124505477996345 29 32 31 0.1339063616087142 1 1902 12 1050
127 0.9904722827325769 0.07636551851119257 -0.373778426057554 66 72 76 0.301455700227955 1 694 26 758
128 1.003709142410748 -0.0118831362445149 -0.37987688742866704 67 77 82 0.5484760190168466 1 1329 26 1196
129 0.8348949821160438 0.06331406315294177 -0.3951692741960761 184 190 192 0.5208612387355392 1 714 28 705
130 0.8347452004901489 0.05260070920670836 -0.39470277821463917 169 175 174 0.8430238517505985 1 822 28 770
131 0.8316808521682695 0.1018116800230691 -0.38177654412308454 199 200 204 0.4537768820131332 2 670 4 1231
132 0.8948215282023748 0.04275140186945318 -0.3796924021631474 180 189 189 0.08168008787992839 2 1144 4 1766
133 0.885002806550697 0.018473394143387552 -0.38110868056343117 34 37 38 0.24804542605551616 2 1323 4 1969 31 1549
134 0.8312709564092636 0.017607833275937308 -0.3783363397637425 188 188 188 0.06702330513684294 2 1330 4 1986
135 0.8939957033124752 -0.018629160629635065 -0.37647691809613515 179 182 181 0.2634311929591961 2 1575 4 2255
136 0.8312559307375028 -0.020624417764945457 -0.3799196606658821 135 133 137 0.04880503058044919 2 1616 4 2310
137 0.8322656885285157 0.09074841717321493 -0.3829583807500645 132 132 134 0.14420040429695422 2 730 5 1306 27 286
138 0.832293700378909 0.09100390045657143 -0.38434595479419736 114 114 114 1.398238214780394 2 731 5 1307 26 438 24 178
139 0.831491645750654 0.07077377512506744 -0.38351002317626065 137 137 138 0.6361407170494913 2 892 5 1475 12 191 26 522
140 0.8298720506682595 0.06810475635986878 -0.3848401799803246 192 195 196 0.30345050040783894 2 914 5 1499
141 0.8320468217302265 0.027690039420233972 -0.3817178266520587 118 117 119 0.35336236326099196 2 1246 5 1844 12 444 27 595
142 0.8548519968276335 -0.014284068591514888 -0.3805219284323389 25 25 25 0.09867187544828547 2 1558 5 2159
143 0.8346917373143204 -0.027754934339782517 -0.37956943803448784 171 168 169 0.1377406501096791 2 1669 5 2261 27 950
144 0.8883788969869097 -0.03404844676062492 -0.379739781451316 39 38 45 0.18356823121075044 2 1702 5 2269 31 1956
145 0.8331417154462437 -0.03425740668527117 -0.383307834665334 170 176 176 0.21375018047988464 2 1722 5 2300 26 1148
146 0.884363043982955 -0.04313663111443746 -0.3778403560014925 25 30 33 0.06074874486700381 2 1771 5 2324
147 0.884363043982955 -0.04313663111443746 -0.3778403560014925 25 30 33 0.06074874486700381 2 1772 5 2325
148 0.8586323754506104 -0.04841419889999154 -0.3795173101083507 27 27 27 0.13861819095191236 2 1808 5 2358
149 0.9726383081764863 0.08155942530354808 -0.3813866616786282 42 47 52 0.18637313595999494 2 882 10 331
150 0.9785240996975186 0.055609795996798925 -0.379958957418009 195 195 195 0.1468692340696434 2 1072 10 481
151 0.987784278822294 -0.14689270441601168 -0.3812506108361023 38 41 42 0.03571249630284528 2 1962 10 1257
152 0.8307020819720171 0.07573371248424085 -0.3863235603882611 193 196 199 0.511943749125384 2 859 11 604
153 0.8434581199436086 0.06596592366820975 -0.3837372573428528 193 193 193 0.08449410775036635 2 939 12 233
154 1.076421086670202 0.03023591514778771 -0.3825759963569462 145 147 147 0.026386240615678833 2 1256 12 536
155 0.9205290907424016 -0.0016106101345630488 -0.3799696983090713 29 35 35 0.08319164495194986 2 1468 12 633
156 1.0712795551838692 -0.009699174319095685 -0.3812593131579818 146 149 150 0.1943305530815989 2 1490 12 707
157 1.072946896790918 -0.020488905696387633 -0.38107479995217447 150 156 155 0.22398839277900354 2 1551 12 766
158 0.8320486552501188 -0.027996437982614267 -0.3815210190540811 134 138 141 0.037588357287288175 2 1677 12 755
159 0.8320486552501188 -0.027996437982614267 -0.3815210190540811 134 138 141 0.037588357287288175 2 1678 12 756
160 0.8309036654122471 0.0806472199389692 -0.38642774754813797 183 186 189 0.10019197633079219 2 818 26 479
161 0.8330963440474703 0.060788498524905206 -0.3875600971137087 186 192 192 0.1505285019237953 2 992 26 576
162 0.8330963440474703 0.060788498524905206 -0.3875600971137087 186 192 192 0.1505285019237953 2 993 26 577
163 0.9475264047766219 0.0503400157084617 -0.3812666533463069 182 185 184 0.2783712667942543 2 1099 26 832
164 0.8333353246916977 -0.017856621758349924 -0.38678677943226186 171 176 178 0.04996994028148094 2 1586 26 1053
165 0.8327509898195435 -0.03865190068156294 -0.3852060943561272 95 96 100 0.09407423882209327 2 1760 26 1163
166 0.8302655950614443 0.08140036642090764 -0.3831882862169847 189 188 188 0.39489620628108 2 809 27 311
167 0.9130981724388404 -0.042235717648517954 -0.3734282614049659 169 175 175 0.1085791234471653 2 1750 27 1102
168 0.9824608935928841 -0.14897413450051092 -0.37930424456354334 18 20 19 0.6082635403863266 2 1975 27 1299 31 2172
169 0.9628607025732667 0.14109003436323658 -0.39093840554253856 197 200 199 0.09668074216918371 2 595 31 631
170 0.8849213088491285 0.055547365104440236 -0.38161375114395113 34 40 42 0.2632897059383657 2 1046 31 1296
171 0.951043090049642 0.04511908055955023 -0.3810819023705858 41 38 35 0.7029668987565315 2 1135 31 1272
172 0.915932099766513 -0.012180099760284906 -0.3796612649196988 32 35 37 0.026102630671100337 2 1533 31 1714
173 0.9873709122784844 0.0020103151187651352 -0.38160205757901433 52 52 56 0.0016376041565706438 3 1465 10 738
174 0.9873709122784844 0.0020103151187651352 -0.38160205757901433 52 52 56 0.0016376041565706438 3 1466 10 739
175 1.0154367618708933 -0.05698828597180074 -0.37302246890738183 193 196 197 0.1118613586800279 3 1660 10 1062
176 0.9753942664589033 -0.15570032991962332 -0.3733209112906683 26 29 28 0.008569728174086674 3 1829 10 1293
177 0.9709550883992979 0.09195113232014494 -0.38416577917299033 62 58 61 0.08289514342175129 3 1058 11 544
178 0.9923144931926339 0.07100109747813746 -0.38364724578124176 77 70 79 0.11982856712609852 3 1175 11 833
179 0.9598489327460384 0.037150414526828095 -0.3829935083577177 56 58 59 0.357912840893108 3 1320 11 1229 26 912
180 0.9040352090560526 0.10615586870545785 -0.3860306362516432 180 183 182 0.16955279536503245 3 989 26 489
181 0.8330435996586556 0.08634549573601333 -0.38748132579163364 183 186 187 0.069141086088839 3 1055 26 462
182 0.8330435996586556 0.08634549573601333 -0.38748132579163364 183 186 187 0.069141086088839 3 1056 26 463
183 0.8740818824251513 0.07563264682349276 -0.38626687711910795 24 30 30 0.17800619284830096 3 1118 26 565
184 0.9992311642193669 0.07188328815040347 -0.3830508365249663 76 79 82 0.22356797849846927 3 1170 26 805
185 0.8345954733990559 0.06305917023665247 -0.3866980517089069 181 183 182 0.010581141265652117 3 1206 26 560
186 1.00230111426994 0.060507815965131835 -0.38285569680640646 73 80 84 0.08052556908126293 3 1232 26 851
187 0.9528984798646104 0.047320691418244444 -0.3839318786348338 47 52 57 0.011058076615963525 3 1284 26 848
188 0.9572025120050057 0.04344812734746228 -0.38375874104601915 179 185 185 0.01566431153110764 3 1299 26 873
189 0.9825697542143873 0.02582021427376745 -0.38497968047809056 60 71 69 0.021132588261444773 3 1367 26 1004
190 0.8566523913042889 0.026640721464660403 -0.3892627532417297 22 28 26 0.2743264296945148 3 1375 26 829
191 0.9693785300410483 -0.016585848306645962 -0.3830559507055476 46 56 59 0.15116558515922823 3 1538 26 1185
192 0.8347063332922631 -0.012766488647890917 -0.38443250084422503 193 193 196 0.5336053710911174 3 1553 26 1025 31 1903
193 0.891647903154406 -0.01722167613642221 -0.3859239360803781 23 29 29 0.024215260292116635 3 1557 26 1116
194 0.8345868090646299 -0.03321010506421211 -0.3861184864661525 90 91 91 0.0062035127208301235 3 1629 26 1143
195 0.8802234564472133 -0.03767669931190365 -0.3862016676213196 22 28 26 0.41275395197352593 3 1632 26 1203
196 0.8322712973954013 -0.03780529108732841 -0.38605356524824525 169 176 179 0.10327665746719626 3 1649 26 1161
197 0.9282584728639869 -0.058105556394528864 -0.3830553004070511 47 46 50 0.17142551801917238 3 1691 26 1329
198 0.9374750525044852 -0.059370891182243236 -0.38185123408446503 29 35 38 0.3322875088609769 3 1694 26 1338
199 1.0054864438663897 -0.0756096372718474 -0.3822233519769949 44 46 51 0.23000583456219895 3 1720 26 1410
200 0.8865374859580661 -0.06959727150647223 -0.38503684131661503 24 27 26 0.27584236948637364 3 1739 26 1345
201 0.8968671321762802 -0.08250655754764889 -0.3836636378654929 25 29 24 0.10424251426180499 3 1777 26 1397
202 0.9050611153642905 -0.09548048603812816 -0.3829242293290361 24 30 32 1.0245533573966688 3 1796 26 1429 31 2142
203 0.8645610680482234 -9.884826299914201e-05 -0.3824708295833334 188 191 192 0.3203243267209625 3 1498 31 1729
204 0.83262729351852 -0.00026820640402363036 -0.3833064463798236 134 131 135 0.05913425649617821 3 1508 31 1799
205 0.8310944412577015 -0.009537851655177338 -0.3837259282139862 193 193 195 0.25072490590195884 3 1546 31 1885
206 0.8795873049998985 -0.07377429809902186 -0.38132181019758193 25 31 33 0.6604741064434392 3 1751 31 2125
207 0.9940405437970188 -0.1491306612192239 -0.375943328487451 21 24 23 0.1719306077861789 3 1805 31 2161
208 0.8321475461951816 0.049501270965367 -0.3837190291698041 183 184 187 0.13086666949343434 4 1702 26 641
209 1.0019862578721954 0.049652403176567224 -0.37834564432278317 63 76 76 0.2319003007291 4 1723 26 899
210 0.8339145355109718 0.04705715569926797 -0.3833586807428632 178 184 184 0.11861274055408082 4 1731 26 657
211 0.9544675750052465 0.042456286613593415 -0.37963871068655963 179 185 185 0.2910119707695086 4 1770 26 872 31 1283
212 0.8329733944953677 0.03695610569824792 -0.3834574567207861 117 117 117 0.06633136352514304 4 1813 26 718
213 0.930157138170015 0.008753935399024667 -0.3799138365124259 179 185 185 0.32353428289035524 4 2026 26 1028
214 0.930157138170015 0.008753935399024667 -0.3799138365124259 179 185 185 0.32353428289035524 4 2028 26 1030
215 0.8350708951738082 0.009808934089610363 -0.38444252989683003 172 180 181 0.006116821067491763 4 2048 26 884
216 0.8596064438437916 0.0029024207345627927 -0.38245831755895365 170 178 177 0.15939293053101597 4 2107 26 973
217 0.8611321331644303 0.07368986165645335 -0.38243518798145065 37 32 24 0.12315548626793435 4 1481 27 380
218 0.9959857096342564 0.07044595946388216 -0.37867839434103534 48 43 43 0.32809849766636506 4 1568 27 624 31 1015
219 0.9961509213080886 0.07051961494255184 -0.37886576774896535 81 84 85 0.37034188066144635 4 1569 27 625
220 0.9959857096342564 0.07044595946388216 -0.37867839434103534 48 43 43 0.32809849766636506 4 1570 27 626 31 1016
221 0.8717245193317246 0.0656975713387078 -0.38090340861202376 178 182 183 0.14388936104990585 4 1573 27 438
222 0.924404371771522 0.0656288118474698 -0.3793465068225211 181 184 183 0.11786350466772828 4 1599 27 528
223 0.8304777119308681 0.049583342463749354 -0.3829151674570037 184 187 186 0.13380939298161434 4 1700 27 455
224 0.9056978499166708 0.027794497225715097 -0.3795101669304468 34 39 37 0.0657652647463976 4 1875 27 717
225 0.9835807212758658 0.004716756410798789 -0.37701931562186664 176 183 182 0.04875417780490191 4 2045 27 944
226 0.9247477071465567 -0.056988094568414846 -0.3754336707808358 45 45 51 0.0020918554480648384 4 2472 27 1170
227 0.934014768569727 -0.058508461408078194 -0.3747549299108707 29 35 35 0.20975959266536034 4 2477 27 1184
228 0.9257833999528698 -0.061363081195427736 -0.37659371536336717 172 180 179 0.28562395025929815 4 2493 27 1191
229 0.9400123964053145 -0.06818293460112776 -0.37672704360880765 175 181 181 0.03227818637860679 4 2505 27 1222
230 0.906492386215577 0.10871306953956461 -0.382729279315109 42 41 43 0.07473634978959713 4 1240 31 832
231 1.0939114617427583 0.08937630364422276 -0.37978174478760945 107 106 108 0.11061582651636212 4 1445 31 776
232 1.0939114617427583 0.08937630364422276 -0.37978174478760945 107 106 108 0.11061582651636212 4 1446 31 777
233 1.0895558999762063 0.034510230196897425 -0.37899012477514715 161 167 168 0.07583001055736872 4 1823 31 1145
234 0.8891035674550858 0.03041334830189788 -0.38093926538702727 83 65 63 0.09510999951458096 4 1857 31 1467
235 1.0899756070472835 0.01570314840935967 -0.37990364964038076 85 88 89 0.1384519405903916 4 1938 31 1287
236 1.09164593491836 0.013448725402399294 -0.37978472158051135 157 163 163 0.20485622168819048 4 1958 31 1302
237 1.0835980195232022 0.0125183200218309 -0.3792393566139393 94 97 100 0.0511934017024189 4 1967 31 1317
238 0.8849758614329034 0.018402501282776075 -0.3808758251144822 34 37 38 0.03890614865961061 4 1970 31 1550
239 0.8976627346666751 0.006146185988398526 -0.3814537461942582 25 28 27 0.048620269829196996 4 2056 31 1612
240 0.8976627346666751 0.006146185988398526 -0.3814537461942582 25 28 27 0.048620269829196996 4 2057 31 1613
241 0.8976627346666751 0.006146185988398526 -0.3814537461942582 25 28 27 0.048620269829196996 4 2059 31 1615
242 0.9529131808569915 -0.03314854071226399 -0.3774450535699283 37 36 42 0.09776001435052908 4 2318 31 1805
243 0.9855880136735679 -0.1489557622251519 -0.37898732551993 32 32 32 0.20566600174036753 4 2639 31 2166
244 0.8790863648737796 0.08087000315772007 -0.3828593259188953 193 198 203 0.14300299424780277 5 1400 31 1098
245 0.87323135970649 0.07467334593109846 -0.38326610534110744 32 35 36 0.040816899959145746 5 1452 31 1150
246 0.8609205696339876 0.06525911468624371 -0.3820783142094165 56 45 45 0.022069877155991343 5 1535 31 1243
247 0.937029819508038 0.05896242815924891 -0.3797420346301973 34 35 35 0.22387464606742882 5 1603 31 1176
248 0.9159015680560156 0.04947191463032858 -0.3804539831154105 29 35 37 0.2611827315413982 5 1677 31 1291
249 0.8896149968023254 0.04470064486969021 -0.38155132227992034 34 37 40 0.22960543805562827 5 1708 31 1373
250 0.8724391493879744 0.0038855013938239066 -0.3812824307873225 189 195 195 0.13910707452382526 5 2010 31 1672
251 0.8791503097298436 -0.012252712615105292 -0.38094587416540826 31 31 33 0.11893702428592619 5 2137 31 1792
252 0.8637091053699592 -0.02497775709419074 -0.3813805511803325 28 31 30 0.20414272068669426 5 2224 31 1938
253 0.8846682334140253 -0.037702353362156216 -0.3797076022645299 186 187 186 0.09615480211932668 5 2294 31 1985
254 0.8789328799727553 -0.0433379526958078 -0.3802051075928398 186 186 186 0.37864284400839227 5 2329 31 2018
255 0.9875211632381521 -0.06067310720342618 -0.3757727383395876 48 44 49 0.11636152956673182 5 2346 31 1943
256 0.9835977860389932 -0.06368850518061171 -0.3755629197779069 38 44 54 0.033572632998426666 5 2361 31 1974
257 0.9260864916683132 -0.05747616832142659 -0.3779428082272802 46 45 50 0.2051769080470873 5 2363 31 2024
258 0.9356196646144704 -0.05910709223970548 -0.37748286034075307 28 34 33 0.26306022467118323 5 2369 31 2017
259 0.8972418519982029 -0.05570015148162136 -0.37941244330166285 22 25 24 0.1031825107358031 5 2373 31 2051
260 0.8972418519982029 -0.05570015148162136 -0.37941244330166285 22 25 24 0.1031825107358031 5 2374 31 2052
261 0.8882598671093197 -0.07724598988578266 -0.37886395208351753 29 32 35 0.29057854442674536 5 2452 31 2133
262 0.8647740052272959 -0.08888717345547409 -0.380468704768426 21 25 24 0.33098104057407846 5 2488 31 2148
263 0.8647740052272959 -0.08888717345547409 -0.380468704768426 21 25 24 0.33098104057407846 5 2489 31 2149
264 0.9796465243864707 -0.14996039783159873 -0.37808022050050555 30 31 31 0.24236337786779982 5 2537 31 2178
265 0.8905364470779662 0.029569868378138645 -0.38824214570176346 58 42 39 0.08546753436465539 6 1247 7 1056
266 0.8905364470779662 0.029569868378138645 -0.38824214570176346 58 42 39 0.08546753436465539 6 1248 7 1057
267 0.8624652840616784 0.010393689480541332 -0.39146607203908207 192 194 200 0.17839522041990297 6 1404 7 1211
268 0.8625622338190271 0.0036414697359784137 -0.39087421981536924 192 195 198 0.2345696949620875 6 1453 7 1256
269 0.861736246369528 0.002057353638385697 -0.3922586010714735 188 191 194 0.2402812818864564 6 1475 7 1274
270 0.861736246369528 0.002057353638385697 -0.3922586010714735 188 191 194 0.2402812818864564 6 1476 7 1275
271 0.9202971682153606 -0.013729592124784628 -0.3921357824736636 34 35 37 0.04476100604719316 6 1584 7 1398
272 0.887853309035144 -0.013783060089531176 -0.3924039562883339 192 194 200 0.1259111491246776 6 1595 7 1388 9 1158
273 0.9026375851519483 -0.027947178388868447 -0.3918409328600353 186 191 192 0.09102810123400197 6 1695 7 1498 9 1254
274 0.9026375851519483 -0.027947178388868447 -0.3918409328600353 186 191 192 0.09102810123400197 6 1696 7 1499 9 1255
275 0.8698910051482607 -0.05869183972220197 -0.395533681584452 185 185 187 0.060231338176460994 6 1948 7 1719
276 0.9143597508381797 -0.0712916067311808 -0.39393463649085486 29 32 31 0.08385555148380835 6 2001 7 1794
277 0.8888557070875891 -0.07753473985128466 -0.39511163072155403 185 188 189 0.28451722374753313 6 2053 7 1852 9 1631
278 0.8553976440116718 0.08741035489510492 -0.38773293474121817 35 38 37 0.02182719900731464 6 702 8 418
279 1.0865172179053322 0.10582967224858125 -0.39215191681429856 153 161 159 0.13204695906478517 6 816 8 554
280 1.0758694481846816 0.10174996841311575 -0.3906471652335809 196 199 196 0.03298516733685245 6 835 8 564
281 0.8627757851118629 0.073299929736389 -0.3909532097853221 45 34 34 0.021326052787832468 6 865 8 522
282 0.9509993696769122 0.08136705447437821 -0.3908353342153831 44 51 54 0.13781611962741916 6 886 8 566
283 1.1029022295845388 0.09575606990751291 -0.39457761527513585 144 152 149 0.12263319811621398 6 915 8 633
284 0.9835292867015802 0.08204894065012455 -0.39112933491699253 196 202 204 0.13075287076630995 6 919 8 601
285 1.0930556817067405 0.09330781829945711 -0.39279284882773813 116 119 120 0.11113416847760349 6 926 8 635
286 1.0018683002641426 0.07784804806528198 -0.38999684625706466 62 64 69 0.39418298962509035 6 975 8 645
287 1.1103753053218597 0.08704999014757735 -0.3964123452851303 137 145 142 0.1497788135582975 6 998 8 719
288 1.1011823217456491 0.08213125306775168 -0.39696815853319406 153 161 158 0.10109712968594525 6 1021 8 752
289 0.8803987123117061 0.05461438874042212 -0.3889895150386578 197 200 203 0.04807535865617721 6 1064 8 699
290 0.9899530930575787 0.06342936023671521 -0.38986701109288463 74 68 69 0.12271932184825005 6 1068 8 769
291 0.9506338511527248 0.05560853193457017 -0.38860064201303796 40 49 50 0.38629866897870585 6 1094 8 795
292 1.101212100638189 0.04086151813525887 -0.3958794090479809 141 152 151 0.0333156653863508 6 1237 8 1014
293 1.0981748365518076 0.03901563242795666 -0.3971040435743407 150 161 159 0.02757511641729041 6 1251 8 1024
294 1.0981748365518076 0.03901563242795666 -0.3971040435743407 150 161 159 0.02757511641729041 6 1252 8 1025
295 1.1022551565979857 0.031384481112988964 -0.398267837156452 103 109 109 0.005620720136699446 6 1298 8 1071
296 1.1142671164983478 0.031189992122498508 -0.39717367893973415 119 123 117 0.18299601086626835 6 1302 8 1076
297 1.084995505832656 0.02879141481896509 -0.39563646954396514 168 179 177 0.029600663838213796 6 1310 8 1077
298 1.098751616050388 0.028553761767610597 -0.3943727179009349 104 107 108 0.03577614001731234 6 1314 8 1081
299 1.093579962976251 0.017605100286974814 -0.3960797950457617 154 162 159 0.06254678185145972 6 1377 8 1149
300 1.0960319995475956 0.01578153208012825 -0.3980177643023613 158 165 164 0.014120733396474055 6 1388 8 1162
301 1.098726288692485 0.014205457154001079 -0.3949151288397989 109 112 111 0.08031394165029976 6 1399 8 1171
302 0.866158202413679 0.0066072609725082105 -0.39076440817723046 49 48 57 0.16172628658796442 6 1428 8 1112
303 1.113952688001115 0.008416686404768461 -0.39595618427066614 96 96 92 0.06203654225152513 6 1431 8 1217
304 1.0913352874368827 0.007725023770703805 -0.39643065342157596 111 114 113 0.02985417648712129 6 1435 8 1215
305 0.9017853652286091 0.005273532271692317 -0.39471879749536937 25 31 31 0.04579305863853648 6 1442 8 1156
306 1.101766818315644 -0.0027178433301847005 -0.39727233291491026 157 163 163 0.03218302985372476 6 1504 8 1270
307 1.0939976107072493 -0.005727966956001792 -0.3987964865143313 114 114 110 0.07986020371354279 6 1520 8 1279
308 1.0961586682527082 -0.022954765204152853 -0.3951209997306311 100 103 102 0.09465945975984186 6 1625 8 1373
309 1.0961586682527082 -0.022954765204152853 -0.3951209997306311 100 103 102 0.09465945975984186 6 1626 8 1374
310 0.8952156119035032 -0.021471465319602177 -0.3920597966981961 47 41 40 0.03365915677859015 6 1655 8 1338
311 1.0881661900803419 -0.032222196757842964 -0.3963157622370698 142 150 151 0.26707326800883 6 1676 8 1430
312 0.9956913033558566 -0.048767533934891014 -0.3920292286635461 49 56 60 0.2088393296345451 6 1807 8 1529
313 0.8608844257722285 -0.06060621966636365 -0.3963010974340171 32 31 38 0.3921245391675552 6 1972 8 1643
314 0.870008688603453 -0.06681484473956117 -0.39521568116239236 26 26 26 0.631418510430474 6 2002 8 1704
315 0.9067840349547706 -0.08474142400657321 -0.3931845262449456 42 41 40 0.23643987034173433 6 2077 8 1809 9 1684
316 0.8744105265847428 0.07368796921187758 -0.38885130153166203 29 35 35 0.4578812394861772 6 872 9 390
317 1.0125850130517353 0.080977519012322 -0.38877585700880035 198 205 205 0.5869806950888623 6 950 9 518
318 0.8918676457400407 0.04407398016479479 -0.39059207672949964 35 38 39 0.1478429818552602 6 1145 9 645
319 0.9589864372759488 0.04223395502017737 -0.39033622353989816 196 202 203 0.4976766543621175 6 1187 9 752
320 0.9835161466405898 0.018603123988303518 -0.3906972120501642 195 203 202 0.3270049646831941 6 1361 9 985
321 1.1027648837726212 0.017206146573770623 -0.3940765681836674 136 144 141 0.02634787423465776 6 1381 9 1072
322 0.8680082038669343 0.01222504029413863 -0.390698255128024 31 34 37 0.5209963705588365 6 1385 9 925
323 1.1056375160793959 0.003552335874762175 -0.39996499954130627 98 101 102 0.061487742811294196 6 1464 9 1147
324 0.8601605710298711 -0.0028484793883447176 -0.39134193149724117 35 38 41 0.4667899769165516 6 1513 9 1047
325 1.080429045880836 -0.005791418250646708 -0.3964465072303303 193 198 196 0.041341403639882764 6 1523 9 1183
326 1.0933249778187515 -0.009033295856874474 -0.39769619362931985 103 105 111 0.028613619827108475 6 1540 9 1209
327 1.0933249778187515 -0.009033295856874474 -0.39769619362931985 103 105 111 0.028613619827108475 6 1541 9 1210
328 1.0964976919507556 -0.011756207943389784 -0.3983655072321302 153 161 160 0.04347128772170803 6 1555 9 1220
329 1.1078793428505986 -0.013623866433379539 -0.3981840741454716 132 138 138 0.017910973628404638 6 1561 9 1236
330 0.977655475103406 -0.013103470996024411 -0.3913728453003821 194 201 201 0.193158806016292 6 1569 9 1184
331 0.9417520081334508 -0.06545092182410842 -0.39355063482263636 32 35 36 0.003766465806791114 6 1950 9 1533
332 1.0036865649322357 -0.15751019410516806 -0.40194666095961484 26 26 26 0.2809215484867547 6 2164 9 1916
333 0.9951972100222128 -0.16495888247530047 -0.40000908345661107 34 33 33 0.8080624146135763 6 2209 9 1943
334 1.0948386631866847 0.0931589248453829 -0.3983583199930222 123 127 128 0.10134702879491515 7 767 9 564
335 1.1050438812144756 0.08894395041334908 -0.39561119076477125 83 88 87 0.30198610013905236 7 811 9 583
336 1.086949699268648 0.08017092735920933 -0.3971115524256445 169 177 177 0.03845950595491258 7 868 9 625
337 0.8807799456271725 0.04871513864696718 -0.3912977643770305 33 33 35 0.2716696078701661 7 913 9 597
338 0.8807799456271725 0.04871513864696718 -0.3912977643770305 33 33 35 0.2716696078701661 7 914 9 598
339 0.9505374500665795 0.055307280440873616 -0.38894081435480526 42 49 50 0.34123206203219775 7 923 9 629
340 1.0857478714212945 0.07096893829367658 -0.3949781608261925 164 172 171 0.1374836287113184 7 926 9 676
341 0.955481717731566 0.0464825778275721 -0.3917174781303607 51 50 54 0.11238188055256412 7 999 9 708
342 1.079481677766078 0.05390439933404277 -0.39472758785317624 190 195 194 0.006314680472174893 7 1018 9 801
343 1.1054693622040657 0.04721667247851313 -0.39529218630368423 112 120 119 0.06597511298691416 7 1064 9 882
344 0.9666714353279988 0.034415418770565816 -0.391174465004915 47 53 53 0.30538345428826785 7 1071 9 835
345 0.855260682704821 0.024433813156266405 -0.3873591745320469 37 40 41 0.09243724768064629 7 1075 9 772
346 0.9699047683900246 0.031046440938391765 -0.3900940225023683 190 200 203 0.14672601992994921 7 1096 9 872
347 1.095171903243186 0.03760269043922275 -0.3919066955336631 100 104 107 0.012383538513961486 7 1117 9 939
348 1.0976072191231516 0.032362746866588875 -0.3959377695961428 148 156 155 0.023842784853808818 7 1148 9 979
349 0.8813687961561475 0.017771529233355628 -0.3912882264061129 197 200 203 0.031248776299406474 7 1149 9 894
350 1.1001937229343264 0.03130826064795284 -0.39852754937012547 151 160 159 0.015901697724091637 7 1157 9 987
351 0.9516563055493305 0.01867082806839166 -0.3916912199496533 46 51 54 0.08133188235350765 7 1176 9 962
352 1.110317350535783 0.02574008245318751 -0.3958386962686913 128 136 135 0.02160984265420019 7 1203 9 1021
353 1.1147914503175067 0.02197316284923582 -0.39740017642806497 98 105 100 0.0013276718192258264 7 1220 9 1041
354 0.9885962608111041 -0.0028451952534124204 -0.39038648248290425 58 70 69 0.020427915802772163 7 1345 9 1126
355 1.1017573615914775 -0.00266748322819231 -0.39814012105829116 154 162 159 0.042440550445825065 7 1359 9 1177
356 0.887686775925213 -0.013843097119121983 -0.39198541206043114 192 194 200 0.05723505339267822 7 1387 9 1157
357 1.1055772605522718 -0.018172782926903837 -0.39925921421479565 145 151 151 0.019559282134616 7 1431 9 1266
358 1.1063868405825517 -0.019778593881103056 -0.3983060849518768 102 107 108 0.01612295514528506 7 1443 9 1275
359 1.113312021986089 -0.0200769673801474 -0.3979992759646282 101 105 101 0.07808912094519087 7 1445 9 1280
360 1.0818000126509382 -0.03129994895471046 -0.39634723556204576 136 139 138 0.005153475089150072 7 1510 9 1326
361 1.0884010330337748 -0.0321957361263866 -0.39754902069422193 176 186 189 0.0016199301069695594 7 1513 9 1333
362 1.0844651062809196 -0.03547045978079465 -0.39702971172734497 165 173 174 0.06802208845066346 7 1530 9 1353
363 1.1101939709955768 -0.04933825427164301 -0.39792483363687875 124 130 130 0.199492545389346 7 1589 9 1408
364 0.9427157136692391 -0.04900962448596909 -0.3928587804880127 48 47 51 0.0828550483269325 7 1618 9 1393
365 1.0941739335273448 -0.06232180065267912 -0.39904372283358974 88 88 91 0.003353558828931993 7 1661 9 1506
366 0.9656500192418898 -0.058451561745082634 -0.3934782625476873 35 43 42 0.28779047738988206 7 1668 9 1470
367 1.0056842454202561 -0.06508404468023343 -0.3937044118871302 187 198 196 0.05607144139488587 7 1709 9 1522
368 1.0056842454202561 -0.06508404468023343 -0.3937044118871302 187 198 196 0.05607144139488587 7 1710 9 1523
369 1.0925511402047698 -0.07049618789972092 -0.39665342611425425 87 88 90 0.06048281833572844 7 1714 9 1557
370 0.8672705577646654 -0.06443621761135403 -0.39378680041712405 37 36 41 0.07431656182883609 7 1764 9 1528
371 0.8884926355051256 -0.07749165557605646 -0.39416585961466316 185 188 189 0.20449775458833325 7 1851 9 1630
372 0.8888715946351244 -0.0457025884588862 -0.394157787033833 33 36 39 0.19961685979455274 8 1518 9 1367
373 0.8888715946351244 -0.0457025884588862 -0.394157787033833 33 36 39 0.19961685979455274 8 1519 9 1368
374 0.9207676169597853 -0.07157694503458817 -0.3935670261198357 181 187 189 0.14242986274762084 8 1721 9 1580
375 0.8885274701480216 -0.07154180037445453 -0.3933805536017713 30 35 36 0.05255920943983132 8 1729 9 1587
376 0.9147370735387348 -0.07736707110433469 -0.3938381211258745 182 188 188 0.09493060792683747 8 1757 9 1622
377 0.9682505267633025 0.09219447700893116 -0.38246084252187645 36 39 38 0.2926366528650275 13 642 14 339 18 195
378 1.0002964639142624 0.08996736863015005 -0.37943590205333755 75 86 84 0.138590147989906 13 665 14 362
379 0.9816409350478629 0.07985813097641226 -0.3825798120805065 61 69 70 0.07802345694366089 13 705 14 419
380 0.8451782434676007 0.05918517947007772 -0.38487362866739844 179 185 183 0.44186030852718416 13 740 14 523
381 0.9992908095014729 0.060824129156123084 -0.38055399694876524 70 78 81 0.06682649015950472 13 803 14 533
382 0.954635019179629 0.04371481588246055 -0.3819177652976892 181 184 183 0.6416951309272202 13 871 14 611 18 422 22 829 25 1554
383 0.9588377909286528 -0.08688120666464004 -0.3763922510114143 191 194 193 0.17061394562848087 13 1467 14 1164 22 1454
384 0.9195167152305812 -0.0011012356663683308 -0.3806366442117919 26 29 28 0.1458838080176892 13 1089 15 1084 19 572
385 0.9521281246915035 -0.029878407062338738 -0.37839569254869027 167 173 171 0.22655727755380767 13 1240 15 1203 19 755 25 2035
386 0.9392079395874142 -0.04208651864923531 -0.3779003172430782 169 170 166 0.1820525312819897 13 1301 15 1260
387 0.8680142973783552 -0.05830988707518171 -0.3812330731723723 142 150 147 0.31469068420936436 13 1380 15 1346 18 952
388 0.9021379181452504 -0.08066391147464011 -0.3738630379577281 22 22 22 0.31183953115092267 13 1466 15 1403
389 0.8298934438965551 0.12940397544184395 -0.37254832748446143 189 188 188 1.6309175137403622 13 491 16 135
390 0.8297737693479128 0.13091120686823596 -0.3763483505787648 178 176 174 1.9803223571125101 13 492 16 136 18 23
391 0.8299834244181478 0.12138944371202688 -0.3916430683140202 189 188 188 1.2895287627143313 13 535 16 203
392 0.8303070373436716 0.09305694738125232 -0.39724960115539265 186 189 189 0.056250931190160114 13 594 16 304
393 0.9148430896438785 0.08824253127075102 -0.38326832163916347 26 32 30 0.8828934151732479 13 633 16 368
394 0.9094549288877773 0.08249298085025893 -0.38616847245304525 28 31 32 0.7642929310935738 13 654 16 396
395 0.9094549288877773 0.08249298085025893 -0.38616847245304525 28 31 32 0.7642929310935738 13 655 16 397
396 0.8322405521468293 0.06520881077245456 -0.39991010725881176 183 182 183 1.1153648568553556 13 728 16 485
397 0.8322405521468293 0.06520881077245456 -0.39991010725881176 183 182 183 1.1153648568553556 13 729 16 486
398 0.9634254260316578 0.04560730615850756 -0.3789748965644254 30 41 41 0.23790445074183772 13 861 16 615
399 0.8319304487070388 0.03764143357752655 -0.3995672865752341 178 178 180 1.9028531096444334 13 878 16 647
400 0.9910539305436324 0.017572562370481392 -0.3735411112320804 52 62 65 1.7854084116254236 13 1003 16 758
401 0.9794269277578428 0.013600944632058359 -0.3763313244668562 48 61 60 1.2624253198335982 13 1019 16 774
402 0.9396721390068584 -0.011195286276418923 -0.3788493717021854 19 27 28 0.9428217996404685 13 1128 16 900
403 0.9253753812344545 0.07521604860594315 -0.382416073396805 152 163 159 0.26030497563106914 13 696 18 227
404 0.832707993288573 0.029950707708174845 -0.3820981875691767 127 127 127 0.2724072893529628 13 898 18 403
405 0.8325240062249274 0.027770515611616448 -0.38203905233946045 93 92 93 0.09547925100530343 13 909 18 415
406 0.8318285239615654 0.026952441071639008 -0.38194858521462277 164 167 168 0.2891279002685571 13 917 18 416
407 0.8307954664740906 -0.0037698650273886125 -0.3817246745623112 80 86 88 0.21153192873696344 13 1095 18 621
408 0.8778878442653714 -0.012612531818993277 -0.3836596741266671 12 18 16 0.06447173872357455 13 1141 18 708
409 0.8297157197024901 -0.029839715966941877 -0.3824965488100832 157 163 164 0.02006987155476411 13 1255 18 787
410 0.9884038343756207 -0.05260210126543826 -0.378031361226853 42 48 50 0.2821514076830113 13 1321 18 921 22 1319
411 0.8680112440161081 -0.05828409013423316 -0.38141204684121044 142 150 147 0.5622677540402063 13 1381 18 953 22 1417 15 1347
412 0.8783616077041649 -0.06820819921838563 -0.3808725379609355 142 150 149 0.17349573939977778 13 1419 18 1000
413 0.8783616077041649 -0.06820819921838563 -0.3808725379609355 142 150 149 0.17349573939977778 13 1420 18 1001
414 0.9683798176306166 -0.07674302955582805 -0.37956622176543775 26 35 36 0.019411949782258325 13 1424 18 1023
415 0.8537309419053941 -0.0751011621327117 -0.38074565274555006 16 20 15 0.3091589963247373 13 1456 18 1027
416 0.8911299007961578 -0.08072286888130056 -0.38072591968049097 159 162 165 0.40778056199810786 13 1465 18 1044 22 1481 25 2207 14 1170
417 0.9755693695637228 -0.15823397314580886 -0.3760784319218834 11 18 12 0.06985235155626116 13 1723 18 1121
418 0.8306789125494038 0.07871054824325296 -0.3832012024723186 182 182 182 0.353644111667722 13 624 19 119
419 0.8322331313167766 0.06919618882422388 -0.38195798461934827 134 130 131 0.32505644079901413 13 670 19 159 25 980
420 0.8308845638082486 0.06484928412222558 -0.38172168194437617 176 176 176 0.3332893098392175 13 691 19 180 25 1004
421 0.9233177297071276 0.06641090944970558 -0.3796761519267517 182 183 179 0.20588587458111351 13 737 19 219
422 0.8311638061520271 0.045603705390960224 -0.38235015197556804 124 126 127 0.1495135089791382 13 807 19 280
423 0.8317588777247077 0.04381300660672042 -0.3815715686693407 115 111 112 0.2504205959134312 13 817 19 290
424 0.8293821055334606 0.03698171043349221 -0.38098276772524764 178 184 184 0.22341900120925073 13 857 19 316 25 1208
425 0.9663327244151303 0.02841468509808395 -0.3779986925211666 59 69 71 0.28798103326314445 13 947 19 427 25 1697
426 0.9092299318322273 0.019704945251246844 -0.3814442302228119 15 18 17 0.087731826834637 13 981 19 452
427 0.977206424183563 0.020196463716003303 -0.3796180781291428 181 182 178 0.01068199650627572 13 992 19 472
428 0.8839624630951256 -0.005611464904674265 -0.379272982578764 11 17 15 0.0491135300683489 13 1101 19 586
429 0.8839624630951256 -0.005611464904674265 -0.379272982578764 11 17 15 0.0491135300683489 13 1102 19 587
430 0.9725128016647038 -0.0072702147888917025 -0.3785292414816126 55 58 57 0.25954021668035787 13 1115 19 613
431 0.9725128016647038 -0.0072702147888917025 -0.3785292414816126 55 58 57 0.25954021668035787 13 1116 19 614
432 0.833060941089221 -0.0129550773230366 -0.37894500708280676 156 162 164 0.0797133222059256 13 1142 19 611
433 0.9601428531920049 -0.024807031480093084 -0.37958351109213784 40 46 48 0.029253408767977208 13 1206 19 716
434 0.8295017811718733 -0.023051927626394342 -0.38151302410734245 170 178 177 0.4747629093942676 13 1210 19 677 25 1607
435 0.833025688255727 -0.02483889056549824 -0.3800376597761369 110 116 118 0.12433093189372169 13 1222 19 683
436 0.8294927142554165 -0.02541279844850764 -0.37848446525590457 155 166 166 0.11520490831434958 13 1225 19 684
437 0.8783023850257868 0.08751611073181428 -0.38489360032531633 30 31 27 0.16527206041435596 13 617 22 514
438 0.963957247471415 0.03220245926672997 -0.379426967869782 146 161 158 0.042215604005318486 13 933 22 886
439 0.9147267703970632 -0.03679063534316744 -0.3795993072171836 27 31 26 0.1476431742326395 13 1282 22 1308
440 0.9894714946560558 -0.14076042334483235 -0.3721746052730724 40 28 37 0.11763997263414055 13 1545 22 1511
441 0.9976195690143433 -0.1585752254748314 -0.3763850975131398 15 14 16 0.2559083318084316 13 1675 22 1565
442 0.8828632415112809 0.024249862988843095 -0.3801687620201224 167 175 172 0.058939596314680036 13 951 25 1462
443 0.9405768004775241 0.025152310545448458 -0.3814413790514128 47 55 54 0.08912120275810453 13 967 25 1625
444 0.933406755367335 0.013183394146279752 -0.3799780817071004 170 173 172 0.034835251426261996 13 1012 25 1699
445 0.9813918517308204 -0.1476951892326327 -0.37934250053362817 20 23 22 0.2639208408472677 13 1576 25 2307
446 0.9987812183334288 -0.15580230016515714 -0.3788435310471044 22 19 21 0.246782307265529 13 1637 25 2353
447 1.0052233074549286 -0.15767108730983403 -0.38008670803231953 20 26 24 0.7201186088223864 13 1645 25 2357
448 0.9531706209486887 -0.029900090176477354 -0.3800912367679912 183 186 185 0.0005824739415909304 14 972 17 1020
449 0.9673344880839775 -0.03312537243882994 -0.3787834423781162 39 41 44 0.29572377631082786 14 978 17 1040 19 782
450 0.8839627804865844 0.08821775110796709 -0.3862840127127209 195 195 197 0.13691020822057073 14 335 22 512
451 0.9104359510111152 0.08875849197790289 -0.387060671803775 181 187 184 0.023420624354595423 14 346 22 524
452 0.8842459193074872 0.0830613255516582 -0.38761162917099334 34 34 36 0.004740342417866497 14 379 22 562
453 0.9607870359944578 0.0378115666507457 -0.38713089971612263 41 47 47 0.10357675238279458 14 637 22 856
454 0.9568515866821979 0.03236936041158179 -0.38067085304729303 179 179 179 0.515245502266612 14 665 22 893 19 398
455 0.9803874503154497 0.025702482274142277 -0.384309946123397 54 62 61 0.043839334015992826 14 702 22 923
456 0.9382025760060602 0.01635800133317061 -0.38467967933233727 33 36 39 0.0425924347655809 14 753 22 998
457 0.9317478457031994 0.009644883976015307 -0.38609150852218127 169 174 174 0.05000335340044588 14 785 22 1047
458 0.8713610017864114 0.004486844468053768 -0.3822842776593479 176 181 183 0.5872617959454961 14 820 22 1116 17 807 19 524 25 1556
459 0.9767371811130293 -0.03655423359186874 -0.37793152071383296 33 39 39 0.10696648082790158 14 989 22 1282
460 1.0736907381055858 0.0710056397678915 -0.3835790422684383 123 123 123 0.6149352897547891 15 751 17 564
461 0.9631512323289488 -0.019077875575223696 -0.3781960565013873 40 41 41 0.3778747516416665 15 1152 17 948 22 1214
462 0.9521303027880682 -0.029929344570811832 -0.37836156806742166 184 187 186 0.15131783229492732 15 1200 17 1017
463 0.9147033741446514 0.08177004839256972 -0.3826987205695449 182 188 188 0.0014273794696695995 15 641 22 571
464 0.9352932360980903 0.05918513259171932 -0.37888585149958676 34 41 35 0.10276529712753969 15 770 22 727
465 0.8944358664477592 0.0357374593656638 -0.38152583366934845 172 178 178 0.3705677818670663 15 890 22 878 19 350
466 0.9757674708382436 -0.005615246782019763 -0.37662796865892056 184 190 189 0.007623916299110276 15 1094 22 1114
467 0.9757674708382436 -0.005615246782019763 -0.37662796865892056 184 190 189 0.007623916299110276 15 1095 22 1115
468 0.9137383257773005 -0.0057687068962614324 -0.3782644754958521 159 168 165 0.2514415803321725 15 1103 22 1171
469 0.9137383257773005 -0.0057687068962614324 -0.3782644754958521 159 168 165 0.2514415803321725 15 1104 22 1172
470 0.8882625872650488 -0.016479979652019937 -0.3800266581911355 23 26 25 0.16770966441180635 15 1159 22 1246
471 0.9508952726583783 -0.03200637862812502 -0.37606869487085226 35 38 46 0.08917895812794882 15 1214 22 1277
472 0.9687478206252337 -0.04113465010446455 -0.3749251429896844 29 35 36 0.027972876157639968 15 1250 22 1300
473 0.9237407056606701 -0.04881145374741661 -0.3760498277636265 24 27 26 0.23796399561827436 15 1294 22 1347
474 0.9237407056606701 -0.04881145374741661 -0.3760498277636265 24 27 26 0.23796399561827436 15 1295 22 1348
475 0.8706169162506652 -0.05673480911207636 -0.3801112089765686 26 25 25 0.06846490255513278 15 1340 22 1412
476 0.8706169162506652 -0.05673480911207636 -0.3801112089765686 26 25 25 0.06846490255513278 15 1341 22 1413
477 0.9465583665980439 -0.06841673907021732 -0.3797412192602725 21 27 25 0.2665693508591244 15 1342 22 1404
478 0.9158214148533783 -0.07425421602391753 -0.381206359977959 20 23 26 0.13431786392769696 15 1373 22 1441
479 0.876031369689808 0.11204917876785621 -0.3867678640601717 26 29 28 0.3476572197960859 16 233 17 272 25 869
480 1.0620122718180525 0.08395333083233314 -0.3685025399654634 88 91 92 1.8707515090566977 16 437 17 481
481 1.059536493278977 0.07874201882005313 -0.36887463800033443 119 123 122 1.9934378842889837 16 467 17 503
482 1.0615723551923304 0.0685484619606847 -0.36941681022227174 119 125 125 0.7486552865517735 16 523 17 551
483 0.9891624554386405 0.04759842958027097 -0.3758993206069139 59 70 69 0.4363850399722519 16 604 17 618
484 1.0660698462581548 0.0452153852129087 -0.3761436812103279 103 103 104 0.1885290988516331 16 630 17 652
485 1.0624177375306891 0.03804039274682251 -0.37056790452225125 120 126 124 0.7238092731207263 16 657 17 683
486 0.9563593894064175 0.02941981153474133 -0.37989804722098436 36 39 41 0.37364253015416476 16 697 17 696
487 0.9110286736813233 0.020658314050431677 -0.38635147006562987 21 24 23 0.22860483405768972 16 747 17 740
488 0.8851268939970868 0.020607031874174748 -0.38688772728683074 23 29 29 1.428481238303617 16 748 17 732 19 443
489 0.913445351286728 -0.0424626232916211 -0.3762732550866591 154 160 158 0.5597391794412812 16 1064 17 1097
490 0.8903425528218913 -0.07909984921794178 -0.3675475970939566 24 28 23 0.26747799529642396 16 1194 17 1224
491 0.8493464598611135 0.08181100835382335 -0.39077145164248694 187 187 187 0.8880588514473827 16 376 19 130
492 0.9783358049991064 0.07743844533498782 -0.37834432558129427 40 40 41 0.9382985784113358 16 452 19 206
493 0.9949177708511563 0.026191174469848418 -0.37657907000293017 58 61 62 1.2848879000581117 16 721 19 450
