# 3D point list with one line of data per point:
#   POINT3D_ID, X, Y, Z, R, G, B, ERROR, TRACK[] as (IMAGE_ID, POINT2D_IDX)
# Number of points: 428
354 1.1128200174045368 0.11163672135021267 -0.39719055557089666 128 136 133 0.08214468084303227 5 1325 6 825
355 1.0816608147050426 0.1019700699813077 -0.3851318349781756 141 147 146 0.08899623315366988 5 1348 6 849
356 1.0777041442791395 0.09936571073654675 -0.3886256708453244 191 195 190 0.038601910541696795 5 1362 6 881
357 1.0955312481917174 0.08925337119760669 -0.38753091783254584 146 152 153 0.09730648900484525 5 1436 6 978
358 1.0908032227760605 0.08005033060953538 -0.38590196229338325 122 129 133 0.1570134810900371 5 1496 6 1034 9 635
359 1.0912683633618223 0.06820583989097287 -0.388715233260733 99 101 99 0.020919339429258204 5 1583 6 1099
360 1.087054066266426 0.05324195964563474 -0.3837086235223457 103 103 102 0.10297680861265351 5 1665 6 1176
361 1.0921051297469284 0.04699553102553354 -0.38344171858940745 133 142 142 0.12658314839614257 5 1710 6 1210
362 1.093480535625144 0.03546885945723261 -0.38499493189727885 104 105 108 0.01743393262026722 5 1773 6 1275
363 1.085646171932865 0.01833659309266079 -0.38339211566342696 139 147 146 0.2196173043580099 5 1878 6 1377 8 1149
364 1.0988965151770835 0.08279127057552498 -0.3877666733133251 112 115 114 0.15805888825427866 5 1480 7 866
365 1.085901081087584 0.02747653659265229 -0.38383293108384725 147 153 153 0.6659939682900616 5 1821 7 1178 30 1162 31 1218
366 0.9905401080402328 -0.06164448005171741 -0.38030610004585663 54 49 55 0.27234972429125714 5 2346 7 1701 29 1097 31 1943 28 1435
367 0.9809104316087157 -0.07520512096463762 -0.3808739919574138 33 41 43 0.28658850991351376 5 2405 7 1800
368 1.0994387337919957 0.11378014851323026 -0.38404846099903445 132 140 139 0.19792275848942048 5 1294 8 533
369 1.0743300178777708 0.09535202266302648 -0.3851250167722226 191 195 190 0.05440937566399537 5 1383 8 613
370 1.0939618795414692 0.07649846042392669 -0.382126379345961 112 117 118 0.14307448372355758 5 1516 8 789
371 1.1025507746825605 0.06063935410044418 -0.3825222755035353 127 131 126 0.049265966232745075 5 1620 8 914
372 0.8896871591324762 0.04556909862108025 -0.3836893843463363 29 32 35 0.11465650819554057 5 1708 8 837 31 1373
373 1.0843567834834296 0.030206410658860164 -0.3868795322584819 161 164 163 0.0913962940482565 5 1804 8 1078 9 994
374 1.1066292499390271 0.05751146753102581 -0.386519357446289 125 133 131 0.41371439249090874 5 1646 9 823 6 1159
375 0.8541775213976995 0.08961947750309968 -0.38394635570028796 29 35 35 0.5128049764771319 5 1333 29 516
376 0.8327909211890739 0.054991378858939996 -0.38522006027538896 122 121 121 0.10284060955555036 5 1625 29 693 30 1033 26 613
377 1.004102760893914 -0.07572726515815281 -0.379688693458444 33 38 43 0.4160706347918887 5 2392 29 1146 27 1265
378 0.8556398404180182 0.1704873277247111 -0.39183605588772263 31 32 28 0.22115002454730132 5 651 30 333
379 1.0844724953582665 0.1379070227327422 -0.38829503040081215 145 144 144 0.24863732759923063 5 1170 30 559
380 0.981618601371577 0.11194577378206895 -0.38069946173686553 35 43 44 0.24072518643455246 5 1244 30 640
381 0.8319142441304982 0.03881454420074448 -0.38517854598478285 182 184 187 0.08112545282198222 5 1753 30 1138
382 0.8297642094246918 0.02400553927855112 -0.3856963809658812 178 184 186 0.013785299749913585 5 1879 30 1251
383 0.8307135056877897 -0.030423455458767724 -0.3851803786943467 153 152 154 0.3774662955785544 5 2280 30 1636 25 1669 28 1336
384 0.9164991599075331 0.05050378042485599 -0.3830521549958372 29 35 37 0.08729066879876869 5 1677 31 1291
385 0.9064088293460565 0.03631600387325064 -0.3831618498805507 28 34 32 0.538562563864747 5 1771 31 1410 30 1139
386 0.8328401503748416 -0.015006233652828962 -0.3841304099478163 190 190 192 0.34827104897618605 5 2174 31 1924
387 0.8324282009983226 -0.023349814936059064 -0.3846491694100473 120 122 121 0.316288550714302 5 2231 31 1990 28 1303 29 989
388 0.829966102368986 -0.02312274626728412 -0.3846368304320641 193 193 197 0.362199428029686 5 2232 31 1992
389 1.0813691362660285 0.14108251139221262 -0.3860965708716014 96 95 97 0.014736268645854471 6 625 7 468
390 1.0979816334588732 0.13541165300627525 -0.38600638085489847 112 117 117 0.17175448223871817 6 660 7 510
391 1.1081769756687778 0.13801052459515875 -0.3900460254046911 125 130 126 0.08443299944040539 6 661 7 515
392 1.0850507318238833 0.11705478781471682 -0.3893590161922976 112 113 109 0.04612975237446672 6 755 7 601
393 1.0958420018552724 0.10552940675633636 -0.39101874341363374 151 158 158 0.1842262203818962 6 840 7 672
394 1.0997971451608195 0.10335257553301977 -0.3834849682359604 136 142 140 0.10433043919350457 6 855 7 680
395 1.0758343655975828 0.09111219661241694 -0.38669500638138776 195 199 196 0.2000847779117494 6 938 7 768
396 1.087284922542473 0.09181482580096025 -0.38806190633439164 165 173 174 0.11464694725912128 6 944 7 777
397 0.9820353304672688 0.07826845179485296 -0.3794458115516906 64 69 76 0.2521796575552869 6 955 7 745 31 974
398 0.8740986263057131 0.061455947919589096 -0.38412674035712674 30 33 36 0.28634465658949215 6 1028 7 793 9 507 31 1268
399 0.9172721863333116 0.05075150543900022 -0.38430340547838926 34 40 43 0.030913734570749512 6 1123 7 946
400 0.9172721863333116 0.05075150543900022 -0.38430340547838926 34 40 43 0.030913734570749512 6 1124 7 947
401 0.8529717531729897 0.025291501306195313 -0.38183766119041934 34 39 39 0.13152163329985964 6 1284 7 1081
402 0.973988212955799 0.020229439194430553 -0.38133284147929164 58 58 61 0.0787826183483031 6 1360 7 1188
403 0.860071831215384 0.005086783512984453 -0.38228592827446617 192 195 198 0.02885530676276002 6 1453 7 1256
404 1.0060159760235527 -0.01194497585959959 -0.3825500418421233 65 72 76 0.09899942055011396 6 1567 7 1404
405 0.9168201022253074 -0.01226492125045138 -0.3819427145344376 34 35 37 0.047736422233502156 6 1584 7 1398
406 0.88522010559174 -0.012293212347611104 -0.3836193072496158 192 194 200 0.11414222789197967 6 1595 7 1388 9 1158
407 1.07737858947414 -0.026945305999768885 -0.3850111398804564 147 153 153 0.2566418286550343 6 1657 7 1495 9 1317
408 0.9473085744596864 -0.06844923824038902 -0.3780407627664024 41 47 49 0.11905707710144232 6 1977 7 1778
409 0.9312536644000297 -0.13350811284982364 -0.40861892340717676 181 181 183 0.19873241494213237 6 2155 7 1993
410 0.9815819167710306 -0.1583752101218586 -0.3809892193329391 28 28 28 0.10824634961965869 6 2212 7 2073
411 1.096415848762389 0.12336447962690927 -0.3852698525968406 156 156 150 0.3256179984312886 6 712 8 488 30 606
412 0.8790549414540604 0.08820145403549161 -0.3850094466442152 37 36 36 0.3826354836965428 6 762 8 462 10 250 13 618 19 115
413 0.9168499416573244 0.0888428869470909 -0.38310079832253596 34 40 40 0.0991307450342127 6 794 8 498 9 368
414 1.0714025025208729 0.10237847706295039 -0.38175425070889885 196 199 196 0.08454064848194488 6 835 8 564
415 0.9488174722587442 0.0829418152982859 -0.38405472864551726 44 51 54 0.022636458032359898 6 886 8 566
416 1.094580842426957 0.08232171110975485 -0.3861335491928268 150 153 154 0.2761665700225279 6 1021 8 752 30 840
417 1.095392980009811 0.041693478382014745 -0.3856934596985209 141 152 151 0.03170045377925746 6 1237 8 1014
418 1.0853739887628395 0.00888568556200024 -0.3858556306656019 111 114 113 0.10583365659987438 6 1435 8 1215
419 1.0876942839296753 -0.004434375506361314 -0.3878427495411905 114 114 110 0.016134232093986664 6 1520 8 1279
420 1.0982279284874727 -0.01567217053456098 -0.38501570769455656 108 116 120 0.11828499063428737 6 1578 8 1337 9 1252
421 1.0896627384572897 -0.02143853323277226 -0.3839913085854816 100 103 102 0.17117231761999968 6 1625 8 1373
422 1.0896627384572897 -0.02143853323277226 -0.3839913085854816 100 103 102 0.17117231761999968 6 1626 8 1374
423 1.0939668621051575 -0.02994186917849555 -0.3859946886211278 131 139 140 0.17561737534023272 6 1672 8 1416 9 1332
424 1.1015022902416147 0.08113370964849742 -0.3878814775037303 138 147 143 0.08788621788426776 6 1036 9 643
425 0.9799428222675185 0.019863755239643077 -0.3816252898550375 195 203 202 0.13955036502717183 6 1361 9 985
426 0.8579339425108495 -0.001384317173488378 -0.3834872260157062 35 38 41 0.018826118987721647 6 1513 9 1047
427 1.0742059701704965 -0.004482055975227526 -0.38529951811484686 193 198 196 0.0550627283418536 6 1523 9 1183
428 1.003822616322793 0.025831675806076735 -0.3796806059104338 67 80 79 0.591840745575143 6 1319 10 628 13 975 14 699
429 0.9954795422205052 -0.15252859532944568 -0.3855246950261781 22 25 26 0.2735722133150735 6 2164 10 1266
430 0.968290903027642 0.08044096917133292 -0.3740851129244702 46 52 54 0.13977209756120373 6 909 29 561
431 0.9557672642566234 0.043525854431157585 -0.3817609090986525 183 186 185 0.18915261702942066 6 1188 29 733 28 821
432 0.8844281360210728 -0.006478674587418934 -0.3812492109130541 19 25 23 0.07871650819832898 6 1553 29 921
433 1.0871051438099242 0.16757840432413768 -0.38762628333550186 81 76 72 0.24817255698942722 6 555 30 451
434 1.0893365575815972 0.14456000719767081 -0.38869034489058923 98 97 99 0.42052293720888184 6 619 30 533
435 0.8895501217330526 0.031393398586596795 -0.38441788051914594 58 42 39 0.2848261217344302 6 1247 30 1176 31 1466
436 0.9829919160879774 -0.06556169728315182 -0.3796926921920438 41 45 51 0.3064498045232651 6 1935 30 1718 31 1979
437 0.9048908315506716 -0.09630173508152766 -0.3825741469086305 25 28 28 0.5377907845961406 6 2115 30 1824 27 1278 28 1556
438 1.0413706608483075 0.14255838852333946 -0.397614589815743 199 203 198 0.385398739139802 6 609 31 611
439 0.8894856317257728 0.03141965892250833 -0.38440611904042843 83 65 63 0.17896745462692165 6 1248 31 1467
440 1.0982344877329753 0.2848577787176026 -0.385118247065518 35 31 24 0.0019656159709196446 7 211 9 124
441 1.0990991852808303 0.2397335137502225 -0.3922333849053131 29 29 23 0.13879613652287284 7 271 9 202
442 0.8792536708844251 0.08819884763675341 -0.3846741349053285 31 32 29 0.059079639877895544 7 552 9 308
443 1.0869328403789498 0.07958170030210376 -0.387374463803235 162 172 172 0.04069256280398221 7 873 9 637
444 0.9666669537655111 0.032281816379897785 -0.38154776642183313 190 200 203 0.08056583023513897 7 1096 9 872
445 1.0933119787251075 0.031970036175586046 -0.3870686956843537 151 160 159 0.04098979836324758 7 1157 9 987
446 0.9470954485988875 0.019512529968092752 -0.3803925666904637 46 51 54 0.4904988307632584 7 1176 9 962 31 1446
447 1.1030799432462521 0.026457740791694447 -0.38420733800855095 128 136 135 0.042877652282865754 7 1203 9 1021
448 1.0945667593521455 -0.0015034343027932134 -0.3863072773030724 154 162 159 0.11008324720003577 7 1359 9 1177
449 0.8853899457295827 -0.012231286091395758 -0.3840645003212656 192 194 200 0.06129687278535845 7 1387 9 1157
450 1.0981284634523776 -0.016764366384513993 -0.38716481175873135 145 151 151 0.10006670755512119 7 1431 9 1266
451 1.105580174354043 -0.018641458539450036 -0.3857679873765768 101 105 101 0.16512838575044372 7 1445 9 1280
452 1.0866283322631611 -0.060132210556193354 -0.38653194794142887 88 88 91 0.07709948409145655 7 1661 9 1506
453 1.000553673012055 -0.06294390972452064 -0.38247072214446687 187 198 196 0.06908374525749145 7 1709 9 1522
454 1.000553673012055 -0.06294390972452064 -0.38247072214446687 187 198 196 0.06908374525749145 7 1710 9 1523
455 1.0849939636189994 -0.06814903574999608 -0.38412463490480603 87 88 90 0.012835543853478426 7 1714 9 1557
456 1.0095652544445715 -0.1592759386867627 -0.3870889548504957 30 33 34 0.12011062353235503 7 2038 9 1929
457 0.8797695367436235 0.051094279745962284 -0.38780854904561257 33 33 35 0.3834569134439885 7 914 10 468
458 0.8614090810392255 0.07559263671931547 -0.3862168792022304 50 34 34 0.09462618672407141 7 632 11 658
459 0.9664781554779613 0.03225623279129662 -0.3813941427083253 202 202 204 0.12145905682036595 7 1093 11 1301
460 0.952802543259393 0.030080896699475182 -0.38221542656148 49 55 57 0.2970122041886848 7 1108 11 1328
461 1.090383458430231 0.24728897508243958 -0.38004881949398883 39 36 31 0.04226749433304511 7 254 31 401
462 0.8674668701517501 0.10564150203339168 -0.3925784608741645 26 31 30 0.5381766915256819 7 455 31 940
463 0.8843731004406507 0.050052753865520896 -0.38221538648875114 195 196 198 0.2661972404956915 7 920 31 1345
464 0.9622465034023925 0.035229416641897035 -0.38066370401213623 38 38 42 0.03034421606939836 7 1071 31 1332
465 0.8543013642712998 0.02671863896763288 -0.384467204466641 39 45 47 0.05567020033417619 7 1075 31 1548
466 0.879100903892356 -0.0064059023671995405 -0.3832114984644458 190 193 194 0.05506185007804203 7 1352 31 1751
467 0.879100903892356 -0.0064059023671995405 -0.3832114984644458 190 193 194 0.05506185007804203 7 1353 31 1752
468 0.9822631838252764 -0.0467238375094501 -0.3786258674518524 42 45 51 0.15677213143655322 7 1606 31 1841
469 1.1040568359523428 0.2602898287038479 -0.3906722819831313 58 50 42 0.010902736689105231 8 237 9 184
470 1.0870132544459647 0.12953981614098975 -0.385456490538753 93 93 93 0.040851223801052404 8 451 9 344
471 0.9429302271964198 0.08321009977476147 -0.3841476483758197 199 202 203 0.18245286898740962 8 558 9 435
472 0.9429302271964198 0.08321009977476147 -0.3841476483758197 199 202 203 0.18245286898740962 8 559 9 436
473 1.100873343987807 0.09763514856605073 -0.38868624786443984 137 143 143 0.03863428744394556 8 632 9 543
474 1.1085697131493017 0.09718862430881625 -0.3891858842455622 107 107 102 0.035556428491574886 8 644 9 562
475 1.1035494442803306 0.09118447505432296 -0.38622442046504135 130 136 134 0.08055906548006231 8 676 9 577
476 0.9808061704201009 0.052247058510511146 -0.3841467110546066 61 67 71 0.14240099152616692 8 875 9 705
477 1.081959290980986 0.060767514291674915 -0.3836051710165534 147 153 149 0.0920502682930297 8 899 9 760
478 1.1036022803639705 0.014873987039117423 -0.38595101730834414 101 107 105 0.03639624548758376 8 1180 9 1093
479 1.0927259305391852 0.013682345195501324 -0.3855454581122781 156 163 161 0.004667180125402874 8 1190 9 1096
480 0.9862136143508758 0.0049211732431417845 -0.38064974334907625 190 203 202 0.06426344550086785 8 1203 9 1085
481 0.9862136143508758 0.0049211732431417845 -0.38064974334907625 190 203 202 0.06426344550086785 8 1205 9 1087
482 1.0962572806974862 -0.011243464524140072 -0.38435277332897505 107 114 117 0.10460187308657554 8 1313 9 1225
483 1.1052939100499661 -0.016383659459708225 -0.3838548302180497 120 127 123 0.11804804052366172 8 1342 9 1261
484 1.0783790640762387 -0.019824926487419764 -0.38437979494735003 111 114 115 0.06559404860341443 8 1359 9 1276
485 1.0783790640762387 -0.019824926487419764 -0.38437979494735003 111 114 115 0.06559404860341443 8 1360 9 1277
486 1.0870656725496783 -0.025196667148807503 -0.3873837883498738 107 109 110 0.0208043972833361 8 1395 9 1309
487 1.1024446696801438 -0.025175162261992706 -0.3855357094527711 137 145 144 0.017943484936996938 8 1396 9 1315
488 1.088352778224954 -0.030797447465337774 -0.38232016895771875 124 127 128 0.10837153617982734 8 1434 9 1336
489 1.0990065317105842 -0.031428937821551824 -0.3851628735996839 110 113 114 0.04876601510436588 8 1439 9 1344
490 1.094091348781351 -0.03276216191131644 -0.38188255832291224 153 159 159 0.016833468705832494 8 1448 9 1352
491 1.100301469821615 -0.03929419380013291 -0.38603522386211053 107 107 109 0.05493239816984093 8 1484 9 1371
492 0.8791481442588476 -0.03792869252039903 -0.38325388097127444 32 35 36 0.11905112930294015 8 1488 9 1339
493 1.1028369641432694 -0.047338087267499274 -0.3862094550646427 133 140 141 0.22202594208967064 8 1517 9 1409
494 0.8857125015628216 -0.04403924683277886 -0.38356574916263775 33 36 39 0.00729422026955631 8 1518 9 1367
495 0.8857125015628216 -0.04403924683277886 -0.38356574916263775 33 36 39 0.00729422026955631 8 1519 9 1368
496 1.0916103729875082 -0.04864605973953708 -0.3858075831320925 118 118 120 0.15458405602432113 8 1528 9 1417
497 1.1022896333349494 -0.05135652391737412 -0.38159650740179535 127 133 133 0.22223353700374157 8 1541 9 1431
498 1.087381570339196 -0.051975136193625225 -0.3872871038921167 95 97 99 0.08936076420051663 8 1546 9 1439
499 1.087381570339196 -0.051975136193625225 -0.3872871038921167 95 97 99 0.08936076420051663 8 1547 9 1440
500 1.0738478318215927 -0.05202206626191767 -0.3832151880538282 117 117 119 0.01788798023952499 8 1548 9 1437
501 0.8958061229874776 -0.05647534865515731 -0.3765049849854018 25 31 30 0.18291064136842913 8 1612 9 1463
502 0.943434771688035 -0.07501905538923694 -0.38343960766125307 38 38 43 0.00547549335553044 8 1741 9 1618
503 0.943434771688035 -0.07501905538923694 -0.38343960766125307 38 38 43 0.00547549335553044 8 1742 9 1619
504 0.9954537218329648 -0.1535542509781144 -0.3834212140141881 37 38 34 0.1597359112059569 8 1989 9 1921
505 1.0026658467649598 -0.15968471512638524 -0.38351018787708707 26 26 24 0.033672733542151286 8 2011 9 1938
506 0.9487353980457255 0.019758962394670752 -0.38327615682176114 40 48 50 0.0911487681613941 8 1073 10 644
507 0.9726664547227605 -0.006436363970249312 -0.38001510594882715 53 64 64 0.15044548470173044 8 1268 10 778
508 0.9624635609047177 -0.025842811277789663 -0.3816094770152182 51 59 60 0.12181784442001922 8 1391 10 903
509 0.9966252462419153 -0.05740629823726399 -0.37660157626011187 189 195 195 0.0021472417257994265 8 1592 10 1061
510 0.8862929004661101 0.05814486057383851 -0.3871375642447136 34 37 38 0.4783949352724196 8 711 11 920 9 548
511 0.8864667280174728 0.01965525955909256 -0.3872855391812134 35 37 43 0.0125524221571134 8 1045 11 1425
512 1.06942980506416 0.2419900834969394 -0.36496680306058105 31 32 28 0.5417353341579366 8 231 12 27
513 1.0855386318085432 0.23913635053319465 -0.370226876744789 35 35 31 0.49257106958828845 8 242 12 36
514 0.854674798630935 0.0912371304873353 -0.3868215600791575 32 35 34 0.13359083708352187 8 418 12 127
515 0.9666697733787738 0.10100523384156633 -0.381106316606518 32 36 37 0.08696174996270432 8 479 12 153
516 0.9666697733787738 0.10100523384156633 -0.381106316606518 32 36 37 0.08696174996270432 8 480 12 154
517 0.8794112164959322 0.05730252692912005 -0.3859962142069461 184 187 188 0.15847380619689333 8 698 12 326
518 0.947977488779139 -0.006385282417731417 -0.3816015306522971 34 42 41 0.0005168585842923473 8 1263 12 663
519 1.0771239330544204 0.2117958939928312 -0.38247431340288707 28 27 27 0.4579175811544019 9 221 12 52
520 0.864182939409644 0.07047871497315501 -0.3895645053955775 186 189 189 0.1953370606267291 9 427 12 240
521 0.864182939409644 0.07047871497315501 -0.3895645053955775 186 189 189 0.1953370606267291 9 428 12 241
522 0.9615013408716462 0.07053189707420925 -0.38490720279964785 28 34 32 0.007677157397363436 9 550 12 310
523 1.0802811556811727 0.08004688392894699 -0.3780941173260868 83 79 80 0.3506009590661598 9 615 12 332
524 0.9187958034892213 0.05264775292673127 -0.3888707352696768 33 36 37 0.20595115789699447 9 639 12 384
525 0.9582649665475537 0.044842776575648564 -0.3861397140407735 184 187 186 0.2240168089952142 9 752 12 428
526 0.9737771418027621 0.025425997652428377 -0.38197051681256566 182 188 186 0.09709381601116358 9 937 12 520
527 1.0799852882229104 0.2760892985525081 -0.37068737857320816 96 93 79 0.2547193616512406 10 17 12 12
528 1.075574930181683 0.24601849709492501 -0.36859528658756796 23 21 15 0.3684675509411151 10 36 12 28
529 0.8317015929693653 0.08412802744954247 -0.3859712969103401 157 153 155 0.007158018437851489 10 239 12 138
530 0.8561477017912946 0.05938249950880231 -0.38359741123396696 41 41 37 0.3377888794148321 10 393 12 289 13 744
531 0.947934930725632 0.0566862657514843 -0.38253013187209184 36 42 40 0.11168545652304182 10 459 12 374 13 800
532 0.831494165909333 0.04036956337997795 -0.382740579905765 139 138 142 0.07823639037782039 10 488 12 381
533 0.8314687796948451 0.11632896693303325 -0.38538157918181815 191 187 187 0.188774684394335 10 113 13 536
534 0.8287794987981986 0.09672041590242908 -0.382356443760865 188 189 185 0.23907892770952918 10 177 13 563
535 0.9579967971674401 -0.02422332097407489 -0.377982914344154 152 164 160 0.13395416194215876 10 887 13 1197
536 0.888695207078444 -0.029503599764224626 -0.3748575375838066 133 148 145 0.3113895611859758 10 909 13 1242
537 0.8909835262807991 -0.0934369610466268 -0.37919723097558067 159 162 163 0.3413801475323002 10 1242 13 1492 15 1413
538 0.8332530961276383 0.13122268794802344 -0.3845014668010471 195 193 194 0.3498540877449537 11 166 12 69
539 0.8313221465893048 0.1062778085411038 -0.38585866465840823 191 190 192 0.026012381720917726 11 289 12 91
540 0.8323482868355294 0.0025918664426369375 -0.37947779218874983 185 187 187 0.1391231966544673 11 1585 12 566
541 0.82944382902818 0.0018166070153347949 -0.3825164578095012 184 190 190 0.08274325877610776 11 1616 12 577
542 0.8897331533602804 0.0308102692724716 -0.3849454249346228 41 33 26 0.30486016719183934 11 1268 14 677
543 0.8319697563556947 0.013726301771230765 -0.38428270632776895 165 171 173 0.6642241832096248 11 1454 14 775
544 0.8326653533644964 0.07076041797199424 -0.38463801206236603 138 133 131 0.3379125133175439 12 201 13 670 25 980
545 0.8299212842471231 0.036350429075500366 -0.3840330982669389 166 173 174 0.24861928587025056 12 400 13 863
546 1.0032483634212572 -0.1584775652565227 -0.3765200020047756 28 30 29 0.22860788771196736 12 1060 13 1645
547 0.9537411796391017 0.09366162413633657 -0.38284387004522036 40 48 47 0.12326997515433347 12 178 14 324
548 0.9565258478333625 0.04367886175403105 -0.38308269279948626 184 188 189 0.10122705285432912 12 429 14 609
549 0.9565258478333625 0.04367886175403105 -0.38308269279948626 184 188 189 0.10122705285432912 12 432 14 612
550 0.8294623645493343 0.04818659593685956 -0.3851777224528919 179 182 185 0.12650152247116103 12 341 15 828
551 1.0675422317363357 0.20509919349875777 -0.37238333182395567 35 32 25 0.04357003998074739 12 47 18 24
552 0.8768440448511277 0.11243512287551388 -0.38590929496075493 26 29 28 0.32603210129714555 12 95 18 85 16 233 24 155
553 0.8319624409594065 0.07385518204490388 -0.3872743775742031 182 180 178 0.013558313639239237 12 185 18 152
554 0.8314262245756109 0.0700151082627334 -0.38539342893863415 189 188 188 0.09926533553131658 12 206 18 166
555 0.8313317152941805 -0.0026792692694898377 -0.38410077591667496 183 183 187 0.10734397357354675 12 616 18 614
556 0.8332620085745546 -0.02119916944638497 -0.3832005944866761 105 104 106 0.11734368031451475 12 706 18 729 13 1190
557 0.9695867201115986 0.09218167121677676 -0.3820646706809657 55 63 62 0.16417847020415616 13 642 14 339 18 195
558 0.9272356105715571 0.07600093059200759 -0.3840802216977939 179 186 182 0.10028356999541697 13 696 14 433
559 0.8319374720200026 0.06340844665885131 -0.3851636380236636 121 120 116 0.1245702776063921 13 710 14 496 25 1032
560 0.8292146038829956 0.047761425686430874 -0.38303774323085465 176 182 182 0.12709834202995815 13 792 14 589 17 529
561 0.8330445562547502 0.048078685704862484 -0.38512634578706834 173 175 174 0.012804569333619857 13 796 14 588
562 1.0012781481247164 0.06059984767632968 -0.38081762619550746 70 78 81 0.21745588493222373 13 803 14 533
563 0.8321775200314235 0.02755529280259367 -0.38497077129453894 175 178 179 0.14053080791765293 13 917 14 700
564 0.8533365072981894 0.025267901323295615 -0.38358006448306053 29 33 28 0.32887159700163554 13 937 14 717 19 381 17 662
565 0.8330637866813845 0.009032962649171824 -0.3844802589202912 168 167 167 0.1586826716348939 13 1020 14 798 17 770 19 477 25 1402
566 0.8318101304807495 0.0010788923278324516 -0.38411696388576727 155 155 155 0.24622905294080868 13 1065 14 851 16 850 17 814 18 590
567 0.8320513743845286 -0.01648775320981014 -0.38429501715675035 160 163 164 0.09176187158612986 13 1160 14 941 19 624 25 1570
568 0.8296215891422384 -0.030546423383341275 -0.3839480428287839 165 168 167 0.009253683395217 13 1255 14 1003
569 0.9171581767034245 -0.07550123873399137 -0.3828439420425093 14 20 20 0.23245834612898864 13 1427 14 1138 17 1194
570 0.9611604901276669 -0.08914679813715347 -0.3788440846588015 178 181 180 0.18419009651043022 13 1467 14 1164 22 1454
571 0.8313435047279777 0.06265704191917101 -0.3850492943220316 178 181 180 0.20071000631721161 13 719 15 739 17 451 25 1035 20 854
572 0.8317086536667906 0.05836233441539877 -0.3846133239689937 184 184 186 0.16696962450610567 13 739 15 766
573 0.9695781280402648 0.04009823314287336 -0.37975563445526805 54 62 63 0.11980481448690578 13 884 15 867 17 641 16 644
574 0.8326891550594822 -0.025878856487367125 -0.38448837334324826 161 165 166 0.4610008615050346 13 1224 15 1230 16 993 17 977 18 765
575 0.8293809068506748 0.08852064758889573 -0.3848942272487243 186 189 189 0.28314321201048565 13 594 16 304
576 0.830793709457554 0.08441435343200225 -0.38491314968324075 181 177 175 0.14325433325854975 13 603 16 336 25 864 15 590
577 0.9889733380954432 0.07046552248554544 -0.3792177270218647 56 57 57 0.15604523876931412 13 751 16 498 23 1333
578 0.9421199380408716 0.051001519932534434 -0.3831628916346343 22 30 29 0.1831669151752755 13 827 16 582 17 587 15 822
579 0.830649367248561 0.03832927309594671 -0.3851241875936474 124 121 123 0.050904404792663255 13 856 16 621
580 0.9661590558721658 0.04586496280166302 -0.3811098540454363 40 48 47 0.20024976060588578 13 861 16 615
581 0.8308876795808063 0.025769339388860425 -0.38486181185902274 115 115 117 0.2789493914687562 13 924 16 699 14 714 20 1111
582 0.8330579155531102 0.0145346016921511 -0.38434726361624155 119 115 118 0.2214024861393584 13 995 16 766 15 1007 25 1363
583 0.9971485762892096 0.017898869689160983 -0.37986835605176844 52 62 65 0.26017079356545614 13 1003 16 758
584 0.8307127839677787 0.008081045764679669 -0.3843254025371722 124 123 125 0.0931421821317416 13 1025 16 803 15 1056
585 0.9422036733792343 -0.011839676259537947 -0.38236531269335444 27 33 33 0.15550867328178458 13 1128 16 900
586 0.8316005519357463 -0.01880426398176697 -0.3849360554224954 106 106 108 0.2967780288342212 13 1177 16 962
587 0.9273062140657291 -0.06267002180239388 -0.3808686821579582 139 147 144 1.9558405627458405e-05 13 1374 16 1132
588 0.9273062140657291 -0.06267002180239388 -0.3808686821579582 139 147 144 1.9558405627458405e-05 13 1375 16 1133
589 0.9560437050464621 -0.08057348700770547 -0.3810805008181121 180 188 187 0.17609249058924042 13 1435 16 1170 17 1204
590 0.8313672640198191 0.04810733804361322 -0.3848184651510469 170 169 171 0.18936235188780884 13 793 17 533 25 1157 15 830 19 268
591 0.8299790909663369 0.04769808142459708 -0.38513308634518845 189 192 193 0.1654483273229259 13 797 17 536 25 1152
592 0.8326791441016871 0.040116614518453574 -0.3815329941328383 133 129 130 0.10538187900877277 13 836 17 578
593 0.8313685901833547 0.03848061319199989 -0.38339334637139205 180 186 186 0.0055767245735890165 13 850 17 594
594 0.9991917663754779 -0.026606543649269496 -0.37496655222725656 44 52 51 0.10133346119973012 13 1209 17 988
595 0.8327775681350338 -0.029284063400210166 -0.3847707939927421 175 175 177 0.17905752430878516 13 1249 17 1005 25 1667 14 996
596 0.9071950920798275 -0.03490767995937687 -0.3825824899303104 24 30 28 0.15248198785886174 13 1266 17 1048 19 777
597 0.8544177402056528 -0.03715049035351704 -0.3854734507982945 23 29 27 0.03008988529426224 13 1286 17 1068
598 0.884902201250249 -0.04397423847683388 -0.3825454690897957 15 18 18 0.012951914037641829 13 1310 17 1098
599 0.909192418310912 -0.06908965313008258 -0.3788671866623692 19 21 21 0.12458660567172822 13 1408 17 1178
600 0.909192418310912 -0.06908965313008258 -0.3788671866623692 19 21 21 0.12458660567172822 13 1409 17 1179
601 0.9174633079819186 -0.07560884473837888 -0.38347487623754634 14 20 20 0.20166427048812657 13 1426 17 1193
602 0.8796017490617701 -0.07541507371171864 -0.38347234259718793 20 20 20 0.2277381916364269 13 1439 17 1202 18 1019
603 0.8635986271022446 -0.08967996102749053 -0.3797430279029162 16 20 15 0.013728251362808712 13 1489 17 1240
604 0.8786353342411902 -0.013188288136487203 -0.3850274085730401 12 18 16 0.10879734174756882 13 1141 18 708
605 0.9102867475690963 0.05615384031913155 -0.3830933786426548 16 22 20 0.09914785037446246 13 785 19 273
606 0.8296542946997116 -0.023758816705796725 -0.3851341551048766 159 167 168 0.029802848203276718 13 1210 19 677
607 0.8333485926091682 -0.025478226037319193 -0.38412307429251963 110 116 118 0.015625009287601598 13 1222 19 683
608 0.8297346366965789 -0.02605839901724812 -0.3826277695070965 155 166 166 0.038775693504951865 13 1225 19 684
609 0.9795386983790982 -0.037988047644255125 -0.3805805689714959 47 58 56 0.18649672654498473 13 1270 19 811
610 0.8315246057754482 0.10047573826583184 -0.3852956475051195 177 177 179 0.28915463827183313 13 557 25 758
611 0.8313578912253308 0.06267699634212574 -0.38511761445499326 178 181 180 0.16018667309576085 13 718 25 1034 17 450
612 0.8304626737590861 0.05325664529430175 -0.3842299426192575 117 119 120 0.18867967136708177 13 771 25 1098 28 757
613 0.8843202452348107 0.02460203258863955 -0.3831406912717749 167 175 172 0.021430787642353046 13 951 25 1462
614 0.943204586975851 0.025303125460167164 -0.3843505247952324 47 55 54 0.05531075884989539 13 967 25 1625
615 0.8313386735247806 0.0048338869590365445 -0.38344487637420027 163 170 173 0.11467247859270226 13 1045 25 1416
616 0.982595612891428 -0.15030060263700387 -0.37995381073402973 20 23 22 0.18322917218222592 13 1576 25 2307
617 0.9987891617961598 -0.15764987239434045 -0.37796918771877697 12 15 15 1.955978601443927 13 1637 25 2353 27 1316
618 0.8317356913299728 0.06307680851616862 -0.3847731299327582 171 170 174 0.014430022975650944 14 500 16 476
619 0.8739467753439567 0.06145295016526478 -0.3855765866622472 27 33 31 0.17229336077409324 14 516 16 503 21 836
620 0.8315106892951638 0.047463251797331234 -0.3853841213417075 112 110 112 0.10108148276286866 14 591 16 569
621 0.9962013772468059 0.04413365606648657 -0.3816940851937982 64 77 76 0.23654976756981902 14 607 16 634
622 0.8315351854808601 0.03271710021320003 -0.38394588364853033 182 181 183 0.2696396007591481 14 667 16 653 17 619 18 389
623 0.8320441468648766 0.02483150301933823 -0.3844365615561929 141 138 141 0.00819057471517744 14 723 16 704
624 0.832057937058943 0.020574213458031867 -0.3848838785449988 107 106 110 0.02840725691590399 14 742 16 739
625 0.832057937058943 0.020574213458031867 -0.3848838785449988 107 106 110 0.02840725691590399 14 743 16 740
626 0.8316214982197231 0.01984111874884628 -0.3851516486564164 178 179 183 0.1106249299394111 14 748 16 742
627 0.8325480554412326 0.008223140042721386 -0.3846063918014974 91 90 88 0.08372605348711858 14 806 16 801 24 791
628 0.8310425211757962 0.003179471839314607 -0.3847412824769689 115 114 114 0.17645271713204547 14 837 16 831 24 839
629 0.8299623008673486 -0.0002701583740387191 -0.3848338525519694 166 172 172 0.19695027704176227 14 856 16 855 17 822 24 871
630 0.9102345062771903 -0.006428153501636653 -0.3829076336646738 22 29 23 0.32560344382487105 14 873 16 884 21 1447 24 941 23 1951
631 0.8794338088117983 -0.012411229142896553 -0.3850547135531224 21 24 21 0.09954096694188075 14 905 16 914
632 0.8794338088117983 -0.012411229142896553 -0.3850547135531224 21 24 21 0.09954096694188075 14 906 16 915
633 0.8544728028302961 -0.014030298692670572 -0.3871594762316598 21 25 22 0.10973468930192634 14 912 16 926
634 0.9300166240177429 -0.025411663526347085 -0.383924282979016 16 20 15 0.21390762540078628 14 952 16 966
635 0.8321843968611545 -0.022004494657107538 -0.38483306876095286 161 164 165 0.16083653816371868 14 967 16 973
636 0.8330397886883272 -0.0238602752364606 -0.38426918027384654 107 106 108 0.06416679761614183 14 976 16 981
637 0.8330397886883272 -0.0238602752364606 -0.38426918027384654 107 106 108 0.06416679761614183 14 977 16 982
638 0.8304044654497871 -0.03029634695463298 -0.38476183028267 132 132 133 0.18979809842283207 14 1000 16 1020 17 1012
639 0.8304044654497871 -0.03029634695463298 -0.38476183028267 132 132 133 0.18979809842283207 14 1001 16 1021 17 1013
640 0.9156090358946288 -0.03784949027877838 -0.38039930422797497 20 23 22 0.14240022166790775 14 1006 16 1031
641 0.9160156564495818 -0.038190850350238136 -0.38130891620583673 30 34 29 0.5417545884900692 14 1007 16 1032 21 1668 23 2078
642 0.9489978517786991 -0.043866971771232124 -0.3825873293227659 25 31 33 0.202746191298966 14 1024 16 1053
643 0.8783893842001744 -0.037893068160513986 -0.38151886584105515 23 23 23 0.0869449694485434 14 1025 16 1046
644 0.833305954155055 -0.03652855802159837 -0.38474685493633043 116 116 118 0.16042748021432254 14 1037 16 1056 17 1061 24 1153
645 0.833305954155055 -0.03652855802159837 -0.38474685493633043 116 116 118 0.16042748021432254 14 1038 16 1057 17 1062 24 1154
646 0.9105079263330281 -0.06984377942739123 -0.38274591500692373 18 22 17 0.17942156415243948 14 1125 16 1157
647 0.8795298472163244 -0.07548360613596294 -0.38380117190977475 21 18 17 0.24342157069897832 14 1146 16 1176 25 2150
648 0.8313192453926098 0.11175648124633424 -0.3867163252759123 184 181 182 0.5300998366824919 14 225 17 259
649 0.8313192453926098 0.11175648124633424 -0.3867163252759123 184 181 182 0.5300998366824919 14 226 17 260
650 0.8295025110091565 0.07176102058765782 -0.38538698796419063 181 182 179 0.21239233859785037 14 439 17 397 19 149 25 961 27 356
651 0.83142822755472 0.018028125827909424 -0.38439017552018456 184 186 186 0.2198284618032743 14 756 17 711
652 0.8307141891877845 0.009543422495223003 -0.38455692304604505 142 141 143 0.038603566299940634 14 797 17 767
653 0.8788877826591381 -0.006619474590479162 -0.3836550428155781 160 166 164 0.12042551193609655 14 881 17 864
654 0.8330359475087086 -0.014587580780689793 -0.38449667372434004 128 128 130 0.5154908780363974 14 924 17 907 25 1553
655 0.8314186838734482 0.09977822182030455 -0.38718373068172496 186 185 185 0.20277436498466148 14 264 20 560 16 253
656 0.8311779994159961 0.08537199584322366 -0.3831121572278683 186 189 192 0.15713284997134366 14 329 20 657
657 0.8311992956605381 0.07754166933364323 -0.38237202940745635 119 116 117 0.2097738784647243 14 391 20 732
658 0.8325945787925968 0.07418831149645987 -0.38279470350416095 138 138 140 0.023295120480134004 14 408 20 777
659 0.8291080462980253 0.06618206940486329 -0.38330421340967996 180 186 186 0.15870711106448881 14 475 20 827
660 0.8312217792594463 0.050303477416356525 -0.38398114058707317 198 198 202 0.049099019500297 14 562 20 921
661 0.8312912239772484 0.06794304169350972 -0.384873331429069 198 197 201 0.005646946278589656 14 459 21 690
662 0.8313529571969553 0.06395606073689816 -0.3841053948481759 197 195 198 0.10776983064210525 14 489 21 731
663 0.8326185529752979 0.05971937636168725 -0.3847310410906994 163 162 164 0.10887637841239627 14 518 21 771
664 0.8323130726061375 0.037719422044408354 -0.3861798971070241 131 128 131 0.05922534205881147 14 633 21 940
665 0.8326746047642927 0.031211349782970757 -0.38626456548948557 193 194 197 0.04850278574076502 14 679 21 1006
666 0.9175546896714801 -0.006774132118779567 -0.38491537296462913 186 189 188 0.2644454140472281 14 867 21 1455 23 1937
667 0.8846288330563639 0.08295971303883334 -0.3863656171997932 34 34 36 0.2947552806132883 14 379 22 562
668 0.9731947383999794 0.020001840299527746 -0.3809877056385547 47 53 55 0.44402827687124563 14 730 23 1687
669 0.910467283846945 -0.03832101905986432 -0.3827922029949193 184 187 186 0.04601470448512285 14 1009 23 2081
670 0.9162605437740919 -0.0436904055292993 -0.38168780291744336 182 182 182 9.312844139847951e-05 14 1039 23 2091
671 0.9162605437740919 -0.0436904055292993 -0.38168780291744336 182 182 182 9.312844139847951e-05 14 1040 23 2090
672 0.9868783179957474 -0.06269042123754325 -0.3811629978303655 199 199 201 0.3195859217533866 14 1073 23 2100
673 1.09228136480818 0.25464624427856025 -0.3870269600965204 70 67 62 0.3716979689277499 15 73 16 94
674 0.8313259555309364 0.09751420013824613 -0.3861779042239562 128 125 120 0.24218955072226891 15 532 16 267
675 1.0856805413924255 0.12227715665068027 -0.38663872885443434 115 119 114 0.3982989993515091 15 533 16 303
676 0.8311548922158574 0.09210605291275606 -0.38488829501357347 120 116 117 0.21276655493190488 15 554 16 284 21 563
677 0.8327539446073735 0.09080139555419929 -0.3847067491986187 189 189 191 0.20442324214889554 15 558 16 291
678 0.8526132236111877 0.08769190934667238 -0.3814849835463257 25 29 28 0.10858158296215734 15 578 16 325
679 0.8526132236111877 0.08769190934667238 -0.3814849835463257 25 29 28 0.10858158296215734 15 579 16 326
680 0.8303897422909462 0.08529171870186644 -0.38542715519170256 134 131 128 0.2118851660154062 15 583 16 327 21 597 24 206 25 860
681 0.832307889802195 0.08457574381853283 -0.3855003272086043 181 177 178 0.07186046056007096 15 591 16 338
682 0.8296074683777298 0.08126865157410036 -0.3865356139155882 185 188 189 0.18367409894213682 15 618 16 360
683 0.8326346824803205 0.06685196177919106 -0.3837844274427319 186 185 187 0.08441307101410175 15 709 16 442
684 1.0768702043799576 0.06284148789517682 -0.38460511395763436 94 95 96 0.48384902843441774 15 777 16 567 24 588
685 0.9427719746032133 0.0511542939826692 -0.3844675705560629 32 38 36 0.03770153166307784 15 821 16 581
686 0.8310015819005322 0.04151304614973726 -0.3846339196351245 175 177 181 0.21158893056944325 15 853 16 601 20 976 24 524
687 0.8314804293488357 0.03874845982622411 -0.3842262747844588 178 180 182 0.049273493599550466 15 871 16 618 21 930
688 1.0019435144179762 0.034680872965888086 -0.3794324964263971 57 67 66 0.2416464512890656 15 896 16 675 18 494
689 0.8324321549492539 0.03111074580793855 -0.38436556131431676 193 194 197 0.10602402357150464 15 916 16 667 21 1007
690 0.8319933498419678 0.027503258331498415 -0.3847995428606687 174 174 178 0.09867309024911552 15 938 16 688 24 633
691 0.9729491799333344 0.025017236732493505 -0.3806471619676834 182 190 188 0.1762643785717908 15 941 16 734 17 730 23 1660 19 445
692 0.8330308816283812 0.021714431801691674 -0.3845745486216392 173 175 176 0.031978727612427586 15 971 16 737
693 0.9109370952585054 0.0196383228073708 -0.383797430206236 21 24 23 0.03215919476725244 15 972 16 746 21 1233
694 0.8328617884778812 0.00906765812428793 -0.38381076596069763 162 161 163 0.165694226024508 15 1043 16 793 18 544
695 0.8315017056897716 0.004944961731579715 -0.38439755647638124 164 166 169 0.130855422356752 15 1076 16 820 19 493 24 819
696 1.0015800563701154 -0.012957737268228572 -0.3779262965671774 55 63 62 0.20923034128294435 15 1112 16 899 21 1576
697 0.8350313579575658 -0.024311881442499374 -0.38517803837885306 166 166 166 0.2265231343740105 15 1222 16 984
698 0.8844889888594685 -0.043525317265859675 -0.38108591397302544 17 20 19 0.41139893439526914 15 1284 16 1078 21 1681
699 0.8314842293524218 -0.03899865133339065 -0.38488146923880023 88 87 89 0.33600079971543473 15 1290 16 1071 17 1085
700 0.8852536731978256 -0.07556918120920501 -0.3837208673673006 160 160 162 0.14942223028420412 15 1383 16 1174
701 0.8848781423182218 -0.0750964729023041 -0.38234132009503985 136 142 140 0.29950927601730004 15 1384 16 1175 25 2160
702 0.9627384454106361 -0.09386274173966629 -0.38115369760272605 36 39 41 0.2543323349751998 15 1400 16 1198 17 1232 19 984
703 0.8301139513870834 0.05961483657745522 -0.38467899536762307 141 141 144 0.10975832164214412 15 756 17 473
704 0.8338208452304423 0.010033036752263726 -0.38363981272624537 172 175 176 0.0572756383160823 15 1035 17 761
705 0.8299341570218363 -0.0036452901373877507 -0.384675952031378 116 115 116 0.16679168937798594 15 1117 17 843 24 895
706 0.8310529453650487 -0.010362874911170907 -0.3843810745812366 108 110 110 0.11033770788480317 15 1148 17 882 25 1520
707 0.8300711164978612 -0.012867722640437552 -0.3846395030221343 165 167 169 0.12882858263459881 15 1158 17 890 18 677
708 1.0023043238192917 -0.03623347745939003 -0.3785022902399256 56 64 63 0.5687984014815303 15 1209 17 1051 21 1684 16 1000
709 0.8326432551725055 -0.025947233378592047 -0.3847598562274676 160 164 163 0.09951683297856437 15 1232 17 978 16 994
710 0.8315265571446758 -0.02587785681464213 -0.3841824834557763 160 160 159 0.2244614965821104 15 1233 17 976 18 763
711 0.8601329161223824 0.011757155583712523 -0.38409161621809856 167 173 173 0.10507808273721811 15 1021 18 549
712 0.8332540869166789 0.01257290619655661 -0.3841558503537241 167 164 165 0.13742958256055918 15 1023 18 508
713 0.831810993949701 0.012565978720920813 -0.3851971854649728 138 137 143 0.028583699231215523 15 1025 18 511
714 0.8299988442047697 -0.004006495746513255 -0.28232163285510725 166 166 168 0.29693764424410124 15 1219 18 379
715 0.8315351602810108 -0.025838427532109343 -0.3840836215655195 160 160 159 0.04199119488477794 15 1234 18 764
716 0.9111390678910192 0.08303384208827833 -0.3859074597840144 28 31 30 0.34560238275175525 15 638 20 919 23 1288 24 312
717 0.875191892251685 0.07866751066450924 -0.3835013252739937 30 29 29 0.18810388757104463 15 647 20 870
718 0.828143701042432 0.06802258783921775 -0.37688055784026797 186 188 188 0.7699126437152631 15 695 20 811
719 0.8310667912198461 0.04156437374142173 -0.3855933653541164 175 177 181 0.02249215315776085 15 852 20 975
720 0.8319986579515933 0.03755583935105605 -0.38382181973688934 108 106 108 0.09724187624369524 15 878 20 1009
721 0.8323210355902602 0.029509903702942618 -0.3831428864711884 196 196 199 0.005254815814722909 15 925 20 1086
722 0.830779966668579 0.024298499982712083 -0.38355960071205186 121 123 124 0.16206156968510327 15 958 20 1129 16 710
723 0.9095631900731804 0.018537145693887466 -0.38340670160936274 32 35 36 0.08161787636846875 15 982 20 1360
724 0.9095631900731804 0.018537145693887466 -0.38340670160936274 32 35 36 0.08161787636846875 15 983 20 1361
725 0.8670472888456052 0.0007277522002540377 -0.37930596305219666 25 25 25 0.6357543411237949 15 1092 20 1440 23 1957 16 851
726 0.830366572206259 0.10072657026852967 -0.38143089613737813 198 195 198 0.08743883179081821 15 507 21 491
727 0.832080205694737 0.08530849770957295 -0.3852507489611514 131 127 128 0.21509404440314497 15 588 21 598 16 330
728 0.8320634903699676 0.0824669500663111 -0.37816630294339654 140 137 136 0.013507085396260617 15 599 21 608
729 0.8311795948818362 0.06244591629899136 -0.3834570425961826 189 187 188 0.21087986490752428 15 738 21 744 20 853
730 0.8312004193108309 0.04721764760002144 -0.3830140281423909 106 106 110 0.04812670675731013 15 833 21 868
731 0.8314110908282469 0.04334449050807856 -0.3833689077072596 180 180 182 0.022626339115890088 15 848 21 890
732 0.8314607520535413 0.038737174224626914 -0.3839836108609763 178 180 182 0.035925885547292764 15 872 21 929
733 0.8310811664784546 0.03709854958424746 -0.38334679252313025 179 182 184 0.0481050645288877 15 880 21 945
734 0.9157664504449249 0.025190259570485738 -0.38117114125073814 34 40 39 0.36137203665284817 15 946 21 1173 23 1703
735 0.9109774418226574 0.01963657410328675 -0.38389003131168525 25 25 25 0.034892926257887764 15 973 21 1234
736 0.8620072405773835 0.00358856893191255 -0.3767765541649166 190 190 190 0.16316132605990058 15 1078 21 1315
737 0.8847604255120805 -0.006818589653666274 -0.3832330417932215 30 34 29 0.2429622863606211 15 1116 21 1422 23 1977
738 0.9272301841190245 -0.0512225672427546 -0.38188166973356585 24 27 26 0.21673905988666492 15 1294 21 1730 22 1347 24 1221
739 0.8730305850027404 -0.05997178119154796 -0.38789274669323426 32 28 29 0.2321410794648269 15 1340 21 1747
740 0.8730305850027404 -0.05997178119154796 -0.38789274669323426 32 28 29 0.2321410794648269 15 1341 21 1748
741 0.9426543735523626 -0.07541066728424616 -0.3823726810857994 30 30 32 0.221118702041058 15 1362 21 1816
742 0.9037506402906419 -0.08920270200789436 -0.4074040188339148 24 24 24 0.25673399938452235 15 1389 21 1832
743 1.0833508140032946 0.16906577165067252 -0.38265125826135865 82 83 79 0.049440245025433247 15 423 22 236
744 0.8957756398546242 0.035790893430749274 -0.38336103703117874 172 178 178 0.19383720019987644 15 890 22 878 19 350
745 0.9167487352816234 -0.0067561659187519215 -0.3835568642606578 159 168 165 0.07866476653289525 15 1103 22 1171
746 0.9182844580711518 -0.01338511043372982 -0.3848384313337137 20 24 23 0.007180796029612993 15 1134 22 1209
747 0.9182844580711518 -0.01338511043372982 -0.3848384313337137 20 24 23 0.007180796029612993 15 1135 22 1210
748 0.9548705918381003 -0.0337603025671416 -0.3812822944483662 35 38 46 0.1210875167577738 15 1214 22 1277
749 0.9110257203833645 -0.07031413939772746 -0.3840622372038952 21 21 21 0.19972975704535145 15 1359 22 1428
750 0.8759682602558735 -0.06680564790847117 -0.38429660547715044 21 21 21 0.14851249726788202 15 1364 22 1438 24 1310
751 0.8759682602558735 -0.06680564790847117 -0.38429660547715044 21 21 21 0.14851249726788202 15 1365 22 1439 24 1311
752 1.0742413791624623 0.11855344860967112 -0.379552544280006 126 129 128 1.550862932611777 15 538 23 1045
753 0.9981113194580138 0.034886654103298394 -0.3799655883971206 55 63 62 0.4699629190647286 15 893 23 1570
754 0.9396789347908266 0.025399665568123096 -0.37833248232374866 40 46 44 0.007000422821080212 15 943 23 1677
755 0.9729403837103245 -0.006139913131338615 -0.38119099052102134 51 56 58 0.14528473177029202 15 1093 23 1856
756 0.9161934502710989 -0.012132017686543943 -0.3816710531662277 34 34 34 0.013718699479171044 15 1131 23 1967
757 0.954585646173107 -0.033760921206449745 -0.38077650016039993 44 44 57 0.16960660608821063 15 1215 23 2036
758 0.9836616732742497 -0.06617267433112599 -0.3806338024292142 41 44 47 0.24097435854953408 15 1321 23 2113
759 0.9501083186167009 -0.071011072028718 -0.3846436816201347 30 33 34 0.37934903347529764 15 1343 23 2148
760 0.9801452500409646 -0.07507636167104204 -0.38019133508258535 37 40 43 0.1674637640235923 15 1348 23 2137
761 0.8310287044652823 0.14005024574293803 -0.3879125200395904 193 189 190 0.1403365304889138 16 126 17 204
762 0.8319302393647251 0.11707665820021097 -0.38694357370590476 191 189 191 0.09864220742431676 16 212 17 247
763 1.0820189294596843 0.09158396496833801 -0.3839233629732846 88 91 92 0.24833983250295213 16 437 17 481
764 1.0793667428690232 0.07434839064152335 -0.3839733251496702 126 126 124 0.5518527399990036 16 523 17 551 21 1048 24 510
765 0.8318542980506318 0.04026772142431401 -0.3842656181557927 176 176 178 0.1942016106834374 16 611 17 583 18 325
766 1.0869952324301058 0.05052184241430381 -0.3945984718962966 103 103 104 0.04699946476775814 16 630 17 652
767 1.0787357068396004 0.0415549466667124 -0.3846292850513648 120 126 124 0.0977021116278317 16 657 17 683
768 0.9579500770634388 0.029118812843134785 -0.38062535221994304 36 39 41 0.20122344100836362 16 697 17 696 24 696
769 0.910743692991678 0.019607294442938475 -0.3833421137305899 21 24 23 0.024938334482584545 16 747 17 740
770 0.9550104798092434 -0.030955737667443545 -0.3815830987007951 176 184 183 0.19047044051667264 16 989 17 1016
771 0.9166281555852979 -0.04382594569029685 -0.38275843663938525 157 160 159 0.17799077833183205 16 1064 17 1097
772 0.9423341558431956 -0.07482360746236126 -0.3813100632905768 26 26 27 0.02717814510468043 16 1160 17 1191
773 0.8960224417424283 -0.0834201890626686 -0.38288064248084597 23 23 19 0.18740666862292188 16 1194 17 1224
774 0.8315808299885187 0.036215488947615844 -0.38416740844084785 117 113 114 0.22530391229799304 16 637 18 362
775 0.8320788088336698 0.024366368569236147 -0.3840963765687171 116 112 115 0.13169924483367276 16 706 18 435
776 0.8320477326000092 0.024354140814445733 -0.3841087002731932 116 112 115 0.20876424369770571 16 707 18 436 24 653
777 0.8331587010836577 -0.01377242193982933 -0.3840433058617796 162 165 164 0.0028580460900855197 16 930 18 687
778 0.8331338501068255 0.13752887682359738 -0.3860754776786524 187 186 186 0.45186804865734004 16 129 19 27 17 210
779 0.831065483771731 0.10238470841328241 -0.38694948851747263 207 206 208 0.34851159271916743 16 238 19 61 21 492 25 748
780 0.8310088027864666 0.08019564558620544 -0.3855487812188702 183 189 191 0.008034163271121591 16 362 19 119
781 0.8332431934378777 0.051476710051722975 -0.38442135714342485 189 189 191 0.17978188315059032 16 548 19 252 25 1136 24 451
