# 3D point list with one line of data per point:
#   POINT3D_ID, X, Y, Z, R, G, B, ERROR, TRACK[] as (IMAGE_ID, POINT2D_IDX)
# Number of points: 435
4 1.0781485312723484 -0.0021828293981598535 -0.3861136886545252 115 115 119 0.04485404239307562 1 1266 2 1444
5 0.8314234458007251 0.13100589593355746 -0.3941014367350901 204 203 203 0.7127989882977763 1 306 3 908
6 0.945231655560008 -0.07615185745062789 -0.3894259553117967 27 30 33 0.4776489203348437 1 1747 3 1736
7 1.1081169789926912 0.03581350533744753 -0.39282056247857006 124 131 128 1.5669900347753614 1 1052 4 1827
8 1.0058344641654 -0.005592892087662413 -0.36999824521793806 196 202 201 1.7166105670741925 1 1272 4 2108
9 1.073386634394797 0.0769159428674981 -0.38594556088235965 190 194 189 0.04637783479993731 1 776 5 1504
10 1.0851303366024556 0.06016378003207478 -0.3981568704251282 188 195 189 0.8724131091398117 1 906 5 1629 9 768
11 1.0914672922292004 0.0525607750849644 -0.3877910676327806 142 148 148 0.007771197667561135 1 947 5 1670
12 0.8892509508744137 0.03133838011743093 -0.382774654392789 46 40 32 0.849713577165571 1 997 5 1810 30 1177 28 931
13 1.111368308597891 0.02197170584048147 -0.4042643897821514 105 106 106 0.2855161956029728 1 1150 9 1054
14 1.0934329158660971 -0.001635800418945133 -0.3993078984348951 163 170 168 0.04658802277057413 1 1269 9 1172
15 0.9791602021312663 0.024676666158993645 -0.38137082046141196 55 66 64 0.14828069223548535 1 1085 10 624
16 0.9764445618603961 -0.15395413681989015 -0.38145345089781135 19 19 19 0.1081938540866187 1 1912 10 1281
17 1.0041090713431506 -0.15980165542131447 -0.38804306458025317 21 24 18 1.5515974122177685 1 1917 10 1285 17 1299
18 0.8313843583635806 0.07769269868817906 -0.3836054756355572 161 157 158 0.5680854820501172 1 574 12 165 17 361
19 0.8295852363871711 0.13620312177788707 -0.3895403743057617 200 205 207 1.2451039407047935 1 281 17 214
20 0.8320691398154719 0.0628348838289858 -0.38608818119717153 177 169 171 0.4370543283492209 1 691 18 205
21 0.8315976629755616 0.04364025096594624 -0.3855639541951342 196 198 200 0.298419174797275 1 878 18 300 13 823
22 0.9054126355243377 0.03427530016764779 -0.3809393564093318 29 30 26 0.5800862404986317 1 979 18 431
23 0.8320423661529754 0.08447761424399065 -0.3881687155955097 147 146 153 0.5921795142209794 1 540 19 104 30 807
24 1.0996444690649902 0.06271291272778384 -0.39324227359638286 138 141 140 0.34509662796336404 2 1070 7 998
25 1.0976233006519838 0.027319774332997607 -0.3903358716557728 104 109 113 0.00662270473445186 2 1277 7 1184
26 1.0893328934819504 0.01094752725970703 -0.3884303965263622 144 152 151 0.01709815080109713 2 1376 7 1281
27 1.0893328934819504 0.01094752725970703 -0.3884303965263622 144 152 151 0.01709815080109713 2 1377 7 1282
28 1.0866150845684128 -0.03201934303430324 -0.3930713165776014 125 131 129 0.7512707772621082 2 1601 7 1513 9 1333
29 0.9970321030429631 -0.1589155435549838 -0.3852095303448932 35 38 39 0.32200040174628175 2 1988 7 2054
30 0.9956804957755933 -0.16020028081653545 -0.38144803608042027 32 32 32 0.3775479380023601 2 1996 7 2070
31 0.9949700277506336 0.07223144429772806 -0.3887987752926661 65 70 71 0.020067633740329112 2 975 8 704
32 1.0939251995800936 0.035940700945569906 -0.39676137640026693 106 109 110 0.08147086365639666 2 1221 8 1040
33 1.1172999242622756 0.03612496830746256 -0.3980826872357603 106 108 108 0.24236367561258124 2 1223 8 1052
34 1.0917143563266851 -0.011631016153387231 -0.39684062792613334 149 155 155 0.21654048312952748 2 1495 8 1312
35 1.0941456581923734 0.05098945119534511 -0.3973040261857902 129 137 136 0.017965451823608196 2 1145 9 852
36 1.0982271015974094 0.018961190444091856 -0.3934732190596204 139 145 145 0.03779397761418935 2 1327 9 1056
37 1.0982271015974094 0.018961190444091856 -0.3934732190596204 139 145 145 0.03779397761418935 2 1328 9 1057
38 0.9754865726135961 0.08321164667107014 -0.3863965268610672 42 47 52 0.308524232523995 2 882 10 331
39 0.8652537648984241 0.06821998032884487 -0.38804786977361166 185 192 193 0.6297230040700853 2 953 10 348
40 0.8348554737352163 0.013493156277169542 -0.3870426918389912 180 180 186 0.6668823956133063 2 1372 10 643
41 0.8323299481560492 0.0648233752935817 -0.37959672989570326 190 190 186 0.05321827464619682 2 952 11 748
42 0.8301330528193278 -0.020201791927499678 -0.3803888492123395 132 135 136 0.05445207178322236 2 1615 11 1952
43 1.078903327172637 0.030202144913918524 -0.38558986721415106 145 147 147 0.05540729434715922 2 1256 12 536
44 0.9213561926995487 -0.0014240176154972886 -0.3836798874333255 29 35 35 0.42621110411179425 2 1468 12 633
45 1.0019531366789927 -0.15201524032898195 -0.37515055039610073 31 32 28 0.5928544749840665 2 1977 18 1094
46 1.0791274717595847 0.10248225006772818 -0.3812611056525704 151 154 153 1.9890747482638218 2 813 30 702
47 0.8753985015448195 0.07842492434538202 -0.384197325411646 33 32 32 0.0706562824578257 2 865 30 853
48 0.8753985015448195 0.07842492434538202 -0.384197325411646 33 32 32 0.0706562824578257 2 866 30 854
49 0.8337780347638516 0.015164838436609393 -0.38671633231029184 131 131 135 0.2411782066415522 2 1356 30 1315
50 0.9703463870427868 -0.06702004251120931 -0.3774230900434845 32 38 38 0.7208148692108776 3 1714 6 1965 28 1476 30 1734
51 1.0892150646694987 0.055227753744434095 -0.3976389100760342 153 159 159 0.22449742052577035 3 1254 9 817
52 0.9264110343698461 -0.05506332808747639 -0.3810186339661398 167 169 171 0.7601438226362066 3 1681 11 2444 31 2013
53 0.8346493397404335 0.06789675720709776 -0.38930205023043785 185 186 187 0.23572256158497676 3 1177 26 543 29 626 28 656
54 0.834654983943253 0.06399308595311377 -0.3891208927167943 181 183 182 0.296071277708254 3 1206 26 560 29 647
55 0.9563729908051196 0.04369676975279927 -0.3827443008687511 179 185 185 0.13864679740192748 3 1299 26 873
56 0.9598256205522875 0.0375175405308879 -0.3832059754369379 53 61 62 0.19670474533611948 3 1320 26 912
57 0.8329333957032168 0.03789427043750805 -0.3857975215570336 117 117 117 1.5715510741417371 3 1322 26 719 24 571
58 0.8318530789990177 -0.03761176623881582 -0.38655386482819315 169 176 179 0.17258366253136392 3 1649 26 1161
59 0.8777738020681543 0.11275875308478708 -0.3859949081452703 28 32 32 0.3787557298398501 3 967 27 284 29 447
60 0.9423980122210007 0.08897611243452629 -0.38425884768371976 46 54 55 0.14249984979864355 3 1066 28 515 29 534
61 0.9423980122210007 0.08897611243452629 -0.38425884768371976 46 54 55 0.14249984979864355 3 1067 28 516 29 535
62 0.9112379452509219 0.019748666565378575 -0.385047263665027 25 28 26 0.38780885278506716 3 1401 28 1028 29 820
63 0.9166788065085604 -0.03722245123355969 -0.38323285497952114 22 28 26 0.31764931842818533 3 1619 28 1348 25 1969
64 0.9112427656809867 0.082602970426751 -0.38592171816439735 30 36 36 0.0455364351231858 3 1093 29 551
65 0.8302283060349198 0.06959843407543145 -0.3866181504935723 187 190 191 0.21593247861908785 3 1161 29 612
66 0.9767419820866884 0.08750476628862461 -0.3776626152209779 33 41 38 0.256616727373346 3 1076 30 784
67 0.8310642500314 0.0809476959102103 -0.3838790121853961 139 140 144 0.27900510155143166 3 1082 30 833
68 0.9257516429840429 -0.0014277647394958298 -0.3793323405975458 29 28 35 0.06770354045311894 3 1494 30 1404
69 0.9719024996265866 -0.005086261655954733 -0.3805913241244968 42 50 51 0.43023282891309567 3 1501 30 1413 31 1570
70 0.9667875381089844 -0.01585182770432146 -0.37975801299393097 37 44 45 0.439873619952962 3 1540 30 1482 31 1651
71 0.9893305688000773 -0.046228839085317726 -0.37975548704229556 36 42 44 0.49592931871268026 3 1634 31 1829 6 1807
72 1.0965778632811607 0.09354216382046251 -0.40165234920584914 133 141 141 1.5348724138890728 4 1457 7 785
73 0.9104398567140439 -0.03789090774622373 -0.3855241888079759 179 182 182 1.8385369156294866 4 2367 7 1573
74 1.1172001284925304 0.09856383949614592 -0.4126713624586262 152 160 159 1.7209861471368622 4 1441 8 659
75 1.1230986001495007 0.08920047308896616 -0.4103433390386354 136 144 141 1.5021434841654493 4 1517 8 741
76 1.1182544810121595 0.0809184887456078 -0.40500216360274904 138 144 144 0.9614273626202026 4 1560 8 796
77 1.093607107595122 0.07887975697611135 -0.40701032138297955 191 195 190 0.9895625285472508 4 1581 8 793
78 1.0923014845355343 0.05052828761254463 -0.40129155408721623 161 170 169 0.09471875668045163 4 1749 8 976
79 1.1078835328481431 0.046581276678397 -0.40351146562588325 100 106 105 0.5611886263575167 4 1767 8 1002
80 1.1172956549582025 0.042015515445444386 -0.40741588794970396 135 141 140 0.8758101922705218 4 1792 8 1027
81 1.102714935664196 0.0209145053851643 -0.4083160614467811 106 110 108 1.9631798648946632 4 1918 8 1130
82 0.8989448342030271 0.006479297180451458 -0.3862952901453973 20 26 24 0.20026461591570233 4 2056 8 1155
83 1.1157826680345846 0.06825788356023996 -0.4024402004993165 123 131 130 0.3076542690018434 4 1651 9 751
84 1.0935681245285274 0.06694513842830505 -0.40089197453403175 160 166 164 0.21453030800466222 4 1653 9 731
85 0.8306995873000121 -0.012115208503421864 -0.38524657899509573 187 193 195 0.6085624875791237 4 2240 10 783 30 1517
86 0.8339851752771258 0.03809127578669094 -0.3889708060519808 130 129 131 0.8351766182445717 4 1813 26 718
87 0.8356053123048414 0.010357828890344383 -0.3882112391090935 172 180 181 0.45068729695590815 4 2048 26 884
88 0.9459073031889921 0.019042916704937497 -0.3781325516875064 37 46 46 0.7760577785247323 4 1948 27 839
89 0.8323561497967649 0.00393089835298116 -0.3823255533077135 130 133 134 0.730488362653781 4 2109 30 1407
90 0.9552603571758086 -0.03292376978386558 -0.3854056984645115 28 27 34 1.1198993329612927 4 2318 30 1579 31 1805
91 0.9025996269326648 -0.08351737495433902 -0.395344335409032 164 167 165 1.6196280247390868 4 2577 30 1801
92 0.8738005276740565 0.014913583573827568 -0.376893268106437 32 33 34 0.36874349887414676 4 1993 31 1584
93 0.8738005276740565 0.014913583573827568 -0.376893268106437 32 33 34 0.36874349887414676 4 1994 31 1585
94 0.8323919482820671 -0.01456736757107152 -0.3782961820655227 175 175 177 0.18669577092392803 4 2258 31 1924
95 0.9014112096990522 -0.08215970893618203 -0.39243989418711306 178 178 178 0.4881419476520945 4 2578 31 2131
96 0.9102450738362765 -0.042580523041909735 -0.38167482383492324 32 31 30 0.18971791203787716 5 2306 6 1816
97 1.1019831858954687 0.082436433621063 -0.391814328225624 112 115 114 0.00014409592542444317 5 1480 7 866
98 1.0813911642129905 0.02704396230160038 -0.3803017244125937 137 143 144 1.2969073761150267 5 1821 7 1178 30 1162 31 1218
99 0.9969178971640245 -0.16118611143432274 -0.38822158211483404 23 24 24 0.1697628213668037 5 2558 7 2060
100 1.1081167870197148 0.11502690323516276 -0.39370458721290064 132 140 139 0.30725738313311063 5 1294 8 533
101 1.0812677183093469 0.09602960450739777 -0.3936012069311123 191 195 190 0.00840699285604593 5 1383 8 613
102 1.1016195664283372 0.07681602844680178 -0.3911124915956351 112 117 118 0.1486969770053314 5 1516 8 789
103 1.1106428782400415 0.06066145578679347 -0.39193722810957227 127 131 126 0.019744984795559303 5 1620 8 914
104 0.8885018872374101 0.04514177446761463 -0.3794607805423112 29 32 35 1.2746180605469106 5 1708 8 837 31 1373
105 0.8335435579373832 -0.02303146100872396 -0.3874217500697229 153 152 154 0.3567293804970701 5 2231 29 989
106 0.8309502120557338 0.08027816354360047 -0.38135002185540284 141 143 149 0.0004293707127474707 5 1386 30 834
107 0.8322440888332452 0.03875300367200733 -0.38233419845364275 182 184 187 0.09426150386818828 5 1753 30 1138
108 0.8301502598399331 0.02419274835747024 -0.3833430956238907 178 184 186 0.1534459859576262 5 1879 30 1251
109 0.9145951193823807 0.049913210903669375 -0.3778540524293188 29 35 37 0.13021968248339247 5 1677 31 1291
110 0.9821588535573765 -0.15220803849105438 -0.38503137918928076 30 31 31 0.6230227519367649 5 2537 31 2178
111 0.861844426365697 0.00576242222857899 -0.3879617896635575 192 195 198 0.11823966047978357 6 1453 7 1256
112 0.885028468652149 -0.011858418942033155 -0.38347563412829017 187 190 191 1.2318231060918199 6 1595 7 1388 30 1496 31 1781 9 1158
113 0.9498192334233216 0.08275971148760149 -0.3859147580037829 44 51 54 0.5153503830288414 6 886 8 566 10 322
114 1.1053989827045145 -0.022588658333169788 -0.4027062478859025 100 103 102 0.08989883317095097 6 1625 8 1373
115 1.1053989827045145 -0.022588658333169788 -0.4027062478859025 100 103 102 0.08989883317095097 6 1626 8 1374
116 1.1145407751445813 0.08365240726073708 -0.4024399233805044 138 147 143 0.033734592325842694 6 1036 9 643
117 0.9838445120942886 0.020222373666513537 -0.3888201462685185 195 203 202 0.25961533804855413 6 1361 9 985
118 0.8585852665663543 -0.0008210775514528245 -0.3850328874264441 35 38 41 0.21423343234035708 6 1513 9 1047
119 1.1001975002311695 -0.0109595158492878 -0.399846088846057 153 161 160 0.1879878209734652 6 1555 9 1220
120 1.112104434381569 -0.012918452919024102 -0.40005996702503865 132 138 138 0.1601418778415297 6 1561 9 1236
121 1.0021562217150835 -0.1566661435640057 -0.3988836727919549 26 26 26 0.031166681915916164 6 2164 9 1916
122 0.8842160297393905 -0.01169496897236141 -0.3808068677244669 187 190 191 0.7161875247383962 6 1594 30 1495 31 1782
123 0.9808816009760103 -0.06436490896851786 -0.3778246379626438 45 50 50 1.274484056739158 6 1935 30 1718 27 1235 31 1979
124 0.9512160484229985 0.057478390096414415 -0.38759527132276594 42 49 50 0.44341275240167694 7 923 9 629
125 0.8534113979774496 0.02573409033264112 -0.3788600247462726 37 40 41 1.2090155843391075 7 1075 9 772 31 1548
126 0.9703701608637311 0.032889939468180605 -0.38847721476486957 190 200 203 0.17352251044552236 7 1096 9 872
127 0.8853961108215221 -0.012190151822166307 -0.38435009161372197 192 194 200 0.046811000218811676 7 1387 9 1157
128 0.858054345474162 0.07055367368550308 -0.3716683593370657 50 34 34 0.6241118642460296 7 632 11 658
129 0.9604270516861831 0.029467655705887216 -0.37091346552766885 202 202 204 0.4014596833854624 7 1093 11 1301
130 0.9471935550120327 0.027460242069048076 -0.37174942542113804 49 55 57 0.08848916044536154 7 1108 11 1328
131 0.9531685358238002 -0.022766760943750124 -0.3799580924342502 166 173 170 1.7069560433391047 7 1479 31 1734 29 969
132 0.9809763355512011 -0.04595869635044542 -0.378135106480261 42 45 51 1.8305636924853042 7 1606 31 1841
133 0.8782485859784298 -0.03777951700142282 -0.381910353425041 32 35 36 0.37053214837721826 8 1488 9 1339
134 0.8846530330317188 -0.043920478019588455 -0.38209238378516824 33 36 39 0.21351513445638767 8 1519 9 1368
135 0.8826075832979634 0.017571667581384814 -0.37599461348710717 35 37 43 0.20675647597824418 8 1045 11 1425
136 0.9633667992211525 -0.09629406806504674 -0.37049053987344027 61 64 67 0.20148758175367748 8 1876 11 2891
137 0.8553284508686073 0.0912750243736772 -0.38723048917684505 32 35 34 0.8533745893274303 8 418 12 127
138 0.9641803347123792 0.09783679365322526 -0.37694192540790883 32 36 37 0.690831587355018 8 479 12 153
139 0.8795220260739813 0.057102237116480964 -0.3860201423300484 184 187 188 0.6311190658106194 8 698 12 326
140 0.9458400745572683 -0.007321613149642626 -0.37875465174861195 34 42 41 0.27796530779584505 8 1263 12 663
141 0.9975260158715082 -0.02449609216837577 -0.3876159239240638 40 48 49 0.5758704040551954 10 900 13 1205
142 0.8880775322010319 0.0311071103156108 -0.38167704723177454 41 33 26 1.4949912675576584 11 1268 14 677
143 0.8300251952656715 0.03664464521419748 -0.3846391503972499 166 173 174 0.3838241659694434 12 400 13 863
144 0.9568897044375789 0.04417475072738945 -0.38603561458496727 184 188 189 1.226168168966233 12 429 14 609
145 0.9568897044375789 0.04417475072738945 -0.38603561458496727 184 188 189 1.226168168966233 12 432 14 612
146 1.0012842066753678 0.0900876624936284 -0.380730235032917 75 86 84 0.1437815984700523 13 665 14 362
147 0.8320598419450613 0.06337377832457565 -0.38535660671113614 116 113 111 0.9269038289285315 13 710 14 496 25 1032
148 0.8330765072539319 0.04833158808532063 -0.38600863319718914 173 175 174 0.185406498427006 13 796 14 588
149 1.0000435278488324 0.06083109512710957 -0.3818963880766014 70 78 81 0.14761348899204502 13 803 14 533
150 0.832150121458256 0.02791688891937978 -0.3853128613844445 175 178 179 0.3014259167394754 13 917 14 700
151 0.9864933755724039 -0.047051790958886 -0.3834118504492794 45 50 49 1.2060148804101132 13 1308 14 1033
152 0.9605160409181034 -0.08811337081647061 -0.3816918044109914 187 190 191 1.26122190465468 13 1467 14 1164 22 1454
153 0.831647446548665 0.058036582845266596 -0.38402414674896673 184 184 186 0.12815367679829442 13 739 15 766
154 0.8328123433353325 0.014706068447364632 -0.3823764444176064 114 117 116 0.18193941846832223 13 995 15 1007 16 766 25 1363
155 0.8294962166022614 0.11939499437306506 -0.38775273003342503 189 188 188 0.022718019762600572 13 535 16 203
156 0.8294056949924996 0.08812265418538862 -0.3852304744978789 186 189 189 0.012935901368006202 13 594 16 304
157 0.8307789841759818 0.08368380362149866 -0.3840706956263082 186 187 190 0.6077783515222178 13 603 16 336 25 864 15 590
158 0.8311349774963347 0.060293078060475076 -0.3839079065188587 183 182 183 0.06651125829867546 13 728 16 485
159 0.8311349774963347 0.060293078060475076 -0.3839079065188587 183 182 183 0.06651125829867546 13 729 16 486
160 0.8304576277376655 0.038080565094507995 -0.3834909236225188 124 121 123 0.07781330306664845 13 856 16 621
161 0.9638508503879012 0.04563708470574321 -0.38005960476259654 40 48 47 0.34410564063817817 13 861 16 615
162 0.9821310786889073 0.014079892269063459 -0.38140448639219726 48 61 60 0.3369322632482021 13 1019 16 774
163 0.9254572358824146 -0.06107400130273796 -0.37986959013774274 149 155 149 0.04737820789275894 13 1375 16 1133
164 0.8330569741443747 0.031095431626494443 -0.3862531604462343 127 127 127 0.048977915349914046 13 898 18 403
165 0.87884723680585 -0.01221148846420578 -0.3881107987393608 12 18 16 0.1419207859663833 13 1141 18 708
166 1.001151772340509 -0.0461900208882034 -0.38260097044863944 51 50 57 0.2214052807845916 13 1305 18 904
167 0.9774094636601404 -0.15568482122129707 -0.37741300074293344 22 28 26 0.4061631381808414 13 1679 18 1114
168 0.981017557311913 -0.15914240292644788 -0.3810793240755504 24 28 23 0.06660889706741525 13 1694 18 1120
169 0.8323349633890482 0.11906257810920737 -0.39226361216959377 191 187 187 0.18259663840278778 13 536 19 48
170 0.831003650820502 0.07975141519835285 -0.38541312812362455 182 182 182 0.3394448644045061 13 624 19 119 16 362
171 0.9088349583444126 0.019627435515986714 -0.38104999439374954 15 18 17 0.053861374880432515 13 981 19 452
172 0.9711475232955363 -0.00757851045082408 -0.3770675297878995 55 58 57 0.5694860162767668 13 1115 19 613
173 0.9711475232955363 -0.00757851045082408 -0.3770675297878995 55 58 57 0.5694860162767668 13 1116 19 614
174 0.8327871818085004 -0.024441947094029744 -0.3797040452556664 110 116 118 0.14447537439522692 13 1222 19 683
175 0.8292556026279208 -0.02500225711527202 -0.37808295362041483 155 166 166 0.1492201123480222 13 1225 19 684
176 0.8780319530733508 0.08700819868269401 -0.3836392733721054 30 31 27 0.011916367304417919 13 617 22 514
177 0.9125814634861936 -0.03650945197140543 -0.3758499277933563 27 31 26 0.09935415958206746 13 1282 22 1308
178 0.8306027148350006 0.10950043877490043 -0.38188149342883304 179 176 172 0.4778414625282157 13 541 25 660
179 0.8329833596512378 0.07097692972431757 -0.38624490581693266 135 130 130 0.7533026920978494 13 670 25 980 16 421 18 164
180 0.8309002554451604 0.05338747876597759 -0.3846848438767571 120 122 121 1.0257508319682325 13 771 25 1098 28 757
181 0.8822670804243236 0.024089952545311273 -0.3787849323168775 167 175 172 0.009498808793798216 13 951 25 1462
182 0.9382169047149306 0.024320801118996354 -0.3775125750350591 47 55 54 0.11086493607538118 13 967 25 1625
183 0.8309842067162357 0.005067066392524854 -0.3804651558304088 163 170 173 0.21428130064172635 13 1045 25 1416
184 0.9743256327874016 -0.14368495056089636 -0.3710683980009635 20 23 22 0.5406464224542347 13 1576 25 2307
185 0.8333699258355711 0.07359469093267948 -0.38927427877470977 177 173 174 0.10746770652770185 14 428 16 408
186 0.8316991226098552 0.04790212641130595 -0.3884287075660254 112 110 112 0.10349437410488226 14 591 16 569
187 0.8315599603809586 0.03301399480192856 -0.38504816131510977 189 189 189 0.34978303980203945 14 667 16 653 17 619 18 389
188 0.8317638246412078 0.02022764610085729 -0.3876625036421717 178 179 183 0.13314919509463363 14 748 16 742
189 0.9090456480164678 -0.005021394618618523 -0.38491341055515477 20 26 22 0.055116422544196214 14 866 16 879
190 0.8794798408412952 -0.011908654963126316 -0.3877761250822479 21 24 21 0.13330145229834808 14 905 16 914
191 0.8794798408412952 -0.011908654963126316 -0.3877761250822479 21 24 21 0.13330145229834808 14 906 16 915
192 0.8545638012555514 -0.013528015865676654 -0.3897832482961943 21 25 22 0.15282548923376957 14 912 16 926
193 0.8331690192395874 -0.02333587296786455 -0.3866241619637474 107 106 108 0.014470544000019335 14 976 16 981
194 0.8331690192395874 -0.02333587296786455 -0.3866241619637474 107 106 108 0.014470544000019335 14 977 16 982
195 0.8303991944764327 -0.029343147671293396 -0.38424486260024987 143 142 143 1.1168276819908771 14 1001 16 1021 17 1013 25 1670 28 1337
196 0.9493299425730976 -0.04340780841121837 -0.3865261718375551 25 31 33 0.5068066283324612 14 1024 16 1053
197 0.9388247987393676 -0.06047322895067167 -0.3882751457973162 19 25 22 0.33261192758449015 14 1082 16 1119
198 0.9108867166459187 -0.06947251534392677 -0.38689610449301015 18 22 17 0.43081088486812963 14 1125 16 1157
199 0.8307072219339005 0.010057109011437105 -0.38511345201228203 142 141 143 0.07700096521423995 14 797 17 767
200 0.833067832029314 -0.013893729268929417 -0.38489820499086314 111 110 110 0.04808337625418594 14 924 17 907
201 0.8309161017607659 -0.013947145439080471 -0.38567715554564136 121 122 126 0.1905168392506605 14 925 17 908
202 0.8848225687920841 0.08353201119732089 -0.38942022304682955 34 34 36 0.6258490634883719 14 379 22 562
203 0.9124775946287026 -0.03954761514288322 -0.39325562186670204 184 187 186 1.9886669591835036 14 1009 23 2081
204 0.831398185702111 0.09742371212322105 -0.38749040451260897 128 125 120 0.034646906170942855 15 532 16 267
205 0.8327813865341701 0.0905657538182036 -0.38555410378796473 189 189 191 0.026381864270761963 15 558 16 291
206 0.8306629523743781 0.08842653823003742 -0.38590163281263323 181 184 185 0.17126005750811069 15 572 16 306
207 0.852357689798428 0.08713665492588951 -0.38137785518503986 25 29 28 0.2340540897208271 15 578 16 325
208 0.8323178287680701 0.08433475002488479 -0.38621359821587314 181 177 178 0.12519901868333996 15 591 16 338
209 0.8296228641884114 0.08103672545358426 -0.3871734150340013 185 188 189 0.026624119627252214 15 618 16 360
210 0.8325648495705523 0.06650988876898226 -0.3836734325993054 186 185 187 0.1070033505529756 15 709 16 442
211 0.8306058295372538 0.053426959094393565 -0.38534996214757655 121 124 125 0.2346123257666938 15 792 16 529
212 0.939860787721047 0.05054706720301419 -0.38174520207510265 32 38 36 0.2806662266369295 15 821 16 581
213 0.83064868182281 0.024365857693251537 -0.38294378550408964 115 116 117 0.08589857349038531 15 957 16 709
214 0.8328471092591332 0.021811121327902964 -0.3836364398770494 173 175 176 0.008509082006700449 15 971 16 737
215 0.8321097696523485 0.005849950040462591 -0.383448114590501 128 127 131 0.1041316045374023 15 1072 16 812
216 0.8348326233963022 -0.02352578797724149 -0.3847570276816064 166 166 166 0.07472305595218338 15 1222 16 984
217 0.8837084926455959 -0.04264649698535349 -0.38178044278295437 17 20 19 0.4127485006171555 15 1284 16 1078
218 0.8313887814400126 -0.03805679370066755 -0.3848517294987916 88 87 89 0.1429615136853415 15 1290 16 1071 17 1085
219 1.0732399005996838 0.07060949882193131 -0.38513611139153825 123 123 123 0.8952095899604575 15 751 17 564
220 0.8302250660747622 0.05950726935597142 -0.3854950350247968 141 141 144 0.5774530148868078 15 756 17 473 18 218
221 0.8336482403937694 0.010291660801009427 -0.3827292825753468 172 175 176 0.024531870998274214 15 1035 17 761
222 0.8297953723714796 -0.003139451382390628 -0.3837730629080161 122 121 124 0.05081812724650249 15 1117 17 843 24 895
223 0.8309078073773962 -0.009738938692180168 -0.3828956256603374 108 108 107 0.4385032972606823 15 1148 17 882 25 1520
224 0.8300075165019072 -0.012369817652005935 -0.38499772929346215 165 167 169 0.3880584187121725 15 1158 17 890 18 677 24 962
225 0.8325058443392187 -0.025149854909179547 -0.38436561004665 170 176 178 0.13455354342914466 15 1232 17 978 16 994
226 0.83148578772715 -0.02521542414964308 -0.38466781858638344 160 160 159 0.28153584819080907 15 1233 17 976 18 763
227 0.8597731445906487 0.011932898803110896 -0.3845118612930617 167 173 173 0.21079288069768828 15 1021 18 549
228 0.833184693527946 0.012735385607760885 -0.3845501476765687 167 164 165 0.14020478133337216 15 1023 18 508
229 0.8314899127128906 -0.02525999461365726 -0.3847675610406837 160 160 159 0.20253368489211165 15 1234 18 764
230 0.8941687424356661 0.03553163729724808 -0.38116243429809854 172 178 178 0.3643455733110328 15 890 22 878 19 350
231 0.9162467514590447 -0.006519902089820372 -0.38593497347567474 159 168 165 0.13771774805415288 15 1103 22 1171
232 0.9554336257551772 -0.03385875939640347 -0.38663499211228963 35 38 46 0.421672282891971 15 1214 22 1277
233 0.9122961125728928 -0.07129656494618311 -0.3918636571735393 21 21 21 0.47558919303023806 15 1359 22 1428
234 0.9082148610552692 -0.03582707975839905 -0.39021394518832625 32 31 31 0.6382860209187399 15 1243 23 2074
235 0.8763680835917462 0.11230957955400207 -0.38726978874473905 26 29 28 0.6766832808726784 16 233 17 272
236 0.9923075256551055 0.04869886066001975 -0.3808949594629459 59 70 69 0.48377008731568794 16 604 17 618
237 0.9097997007179218 0.019868116344322544 -0.38353613777394713 21 24 23 0.09951513169257376 16 747 17 740
238 0.9539394987068648 -0.03014378605179635 -0.38255839163454963 176 184 183 0.525001955883205 16 989 17 1016
239 0.8313939514533116 -0.028878005013297573 -0.3856393732664195 166 166 167 0.11082170716851668 16 1016 17 1009
240 0.9725364804395862 -0.04250630008581268 -0.38249369683185525 33 36 39 0.17807093128815554 16 1041 17 1089
241 0.9418576285769236 -0.07381720731137499 -0.3832273385385268 26 26 27 0.5611738891884727 16 1160 17 1191
242 0.8958338918789893 -0.08240292012622194 -0.3848566877735557 23 23 19 0.6002678907776271 16 1194 17 1224
243 0.8290503548926611 0.07645703829896916 -0.387589815387204 191 190 190 0.35480651593796925 16 384 18 138 20 737
244 0.8315640352423705 0.03639562573346257 -0.3850211682967434 117 113 114 0.33722808855157266 16 637 18 362 17 605
245 0.8320676592123575 0.024589280675359326 -0.3849945281462268 116 112 115 0.113545548603911 16 706 18 435
246 0.8306802876155605 0.09943357613232155 -0.3825970825136928 199 194 194 1.6564508053341247 16 238 19 61 21 492 25 748 17 275
247 0.831597425522446 0.06258831216754802 -0.3838482862481758 171 170 174 0.17080006663464817 16 475 19 192
248 0.8292752357067928 0.12022573568505333 -0.3819669344622602 196 202 204 1.2839034749499274 16 192 20 524 28 297
249 0.8312313045785614 0.06373806360127543 -0.38459971100607854 186 185 185 0.26735974796434653 16 461 20 849
250 0.8432219841026065 0.0580052859604548 -0.37578436986418323 186 187 187 0.2699817047013981 16 493 20 900
251 0.8314810218398679 0.04647737460150634 -0.38595633069678587 148 147 149 0.11323896383528943 16 574 20 941
252 0.9740798205211285 0.050435838237779945 -0.3771784041721382 54 62 61 0.48145100773898125 16 588 20 1267
253 0.8325893164580545 0.022373811702678482 -0.38209550824427874 169 170 170 0.27285840330170696 16 729 25 1318
254 0.8317855043448413 0.002136607387234927 -0.38139723202792125 108 110 118 0.3190236696566857 16 842 25 1434
255 0.8317855043448413 0.002136607387234927 -0.38139723202792125 108 110 118 0.3190236696566857 16 843 25 1435
256 0.8304745695540764 -0.03671013174568599 -0.3806861187270317 162 165 168 0.9469867012343192 16 1067 25 1745 19 788 28 1385
257 0.8319572629675147 0.10071544536339139 -0.39023138448174566 202 198 201 0.252422742330176 17 279 18 87
258 0.8783336567570524 0.087198341742449 -0.38446991212260995 27 27 27 0.04863560253966207 17 350 18 134
259 0.8841229676783073 0.08326591603455179 -0.3869309402770562 29 32 33 0.24464569780420023 17 385 18 159
260 0.8313801499013175 0.03797776489564849 -0.38704789420713 195 195 197 0.13879161476459548 17 597 18 350
261 1.082061839550951 0.040206115670380065 -0.3872497727713402 119 123 118 0.07463953159891198 17 699 18 529
262 1.072214026323357 0.03622576075727924 -0.38101554185578596 120 126 124 0.037869625645904736 17 708 18 539
263 0.9407908756193339 0.025194419092047574 -0.38256304964843985 26 33 28 0.04179960166686624 17 714 18 506
264 1.072848718204232 0.024134769607146795 -0.3846687380522628 114 117 116 0.10053258174753951 17 771 18 598
265 0.832618923604478 0.005367687288139814 -0.38620566175015314 132 129 126 0.04433813099590273 17 787 18 570
266 0.989570711300553 -0.0011928835490308193 -0.38242189105661895 55 59 59 0.05744228348694469 17 859 18 686
267 0.9786201340597253 -0.005929983361956346 -0.38186017590491855 169 175 173 0.04121529809181394 17 884 18 705
268 1.0765160809696541 -0.006227320754655766 -0.3869193630876087 132 136 135 0.08868542439299636 17 892 18 742
269 0.990696202334646 -0.02020568440812374 -0.38051192085217794 52 63 61 0.012623989831133609 17 953 18 777
270 1.0727464687604524 -0.026138261317133968 -0.38441694484817146 127 130 131 0.1697081361545088 17 992 18 829
271 1.0019056209415764 -0.03652679680902682 -0.38287391548023636 60 68 69 0.19282235776228374 17 1054 18 866
272 0.83099573258027 -0.03488809350537044 -0.3861001820083519 174 180 179 0.056518731357452716 17 1057 18 818
273 0.8309612858610743 -0.03491152607831728 -0.3849801645527862 174 180 179 0.9226280121142553 17 1059 18 819 25 1729
274 0.9825388441348691 -0.06490318898788727 -0.3816601004201528 41 49 49 0.01767839458817146 17 1161 18 983
275 1.0062903356468123 -0.15871877695281175 -0.3835088852606369 28 34 32 0.2900802081477687 17 1301 18 1109
276 0.9967063608593236 -0.16215389031445307 -0.3871826347454927 13 20 14 0.07551313263587218 17 1321 18 1119
277 0.9790901664607355 -0.15806731053371786 -0.383817092548941 29 30 30 0.13321305152261015 17 1322 18 1117
278 0.902920896471345 0.10749295920249766 -0.3876706712227062 188 188 188 0.082013987930774 17 299 19 75
279 0.8330299821009484 0.09073502451292496 -0.38614323070817164 198 197 199 0.3907716762612035 17 306 19 85
280 0.8313306828280019 0.06609727609630853 -0.38439375168783513 184 184 183 0.5428122636619698 17 429 19 181 20 835 25 1005
281 0.9081996669169006 0.055158899700333476 -0.3805766366089679 23 27 26 0.09345326657591925 17 541 19 274
282 0.8770608895292701 0.0489529672626391 -0.38070279625939824 25 25 27 0.41828305966375307 17 553 19 286
283 0.8770608895292701 0.0489529672626391 -0.38070279625939824 25 25 27 0.41828305966375307 17 554 19 287
284 0.9688453490413554 0.04978123755950091 -0.37755959225484037 181 181 181 0.02502005512941893 17 602 19 318
285 0.9128409454620536 -0.011701846345557034 -0.37737111559626785 24 30 30 0.38080651695396284 17 898 19 621 24 976
286 0.9128409454620536 -0.011701846345557034 -0.37737111559626785 24 30 30 0.38080651695396284 17 899 19 622 24 977
287 0.8307909779598689 -0.025726378286209012 -0.38150421822789027 112 114 111 1.5601723485925372 17 985 19 693 24 1076 25 1632 28 1317 30 1604
288 0.9067209608134839 -0.03736253092716132 -0.3751711654522757 167 177 170 0.01878911705619292 17 1076 19 799
289 0.8320125790152 0.08037271378121516 -0.3856712387246892 135 130 131 0.09304105275786881 17 342 20 711
290 0.8311981733173163 0.1271730623736162 -0.38321310566230543 176 173 176 0.021709167717673346 17 227 25 514
291 0.8291528075838358 0.0708640745853671 -0.38145492381751345 178 180 177 0.12168534380061832 17 391 25 953
292 0.8312508323154402 0.06684376854447605 -0.38293690174810924 171 170 171 0.06506247916474722 17 424 25 992
293 0.8304694425721112 0.0606931424127797 -0.38225051595717807 135 135 134 0.08304448085241103 17 459 25 1039
294 0.8851326204210944 -0.06777358725883867 -0.38244112861552204 21 24 23 0.3753546027901466 17 1181 25 2125
295 0.832469406366048 0.04237842785987991 -0.385349722579536 145 144 149 0.2393113282002078 18 310 20 972
296 0.8316598033879571 0.034222131381772034 -0.38280423628729787 133 127 129 0.22354700018545481 18 373 21 967
297 0.8317395845084775 0.14148321111322612 -0.392338527801197 203 203 207 0.4904280373985792 19 24 20 502
298 0.8321868647666895 0.13233197161749533 -0.3919905402411958 205 205 209 1.536936609859806 19 36 20 511 28 276
299 0.8326396149161808 0.10230647757903809 -0.38847729249362545 200 203 206 0.11306064958171114 19 62 20 552
300 0.833217330493744 0.08096851395649565 -0.3853875189709774 200 200 202 0.0216071897179793 19 113 20 709
301 0.8298491311022985 0.0709919032341264 -0.38185396281349565 176 176 176 0.5903731508534723 19 142 21 652 24 279
302 0.9867347015044517 -0.00293405259084635 -0.3765621638804262 68 74 74 0.3351373358664591 19 601 22 1088
303 0.8323892239959823 0.07264804064875723 -0.3833945840818079 137 134 130 0.127589404863157 19 138 25 957
304 0.8309155222630336 0.06973198141513308 -0.38345614886963225 176 175 173 0.16039552479415434 19 157 25 972
305 0.9351039304803447 0.05794261332818855 -0.37821855676335037 31 32 32 1.1014443358116244 19 267 25 1411
306 0.8305205250410812 0.04476569784411407 -0.38128891522482966 157 160 161 0.20986457315362247 19 282 25 1168
307 0.828979897503783 0.020571886452779707 -0.3803778648857094 170 174 173 0.24090649714058504 19 406 25 1313
308 0.8304468118778837 0.008202657847206552 -0.38072573024672146 109 114 116 0.2883733668024877 19 479 25 1397
309 0.8304301446568608 0.0008680337284184285 -0.3805102663521012 117 123 125 0.2263578076821225 19 527 25 1438
310 0.9438788968419374 -0.006436475521545604 -0.377054967124512 42 49 49 0.03961773268500067 19 609 25 1872
311 0.9922627847344982 -0.012916097247083624 -0.37400702278232467 68 77 77 0.5177789688380391 19 646 25 2025
312 0.9510202397781988 -0.03256660925114161 -0.3771033553757194 45 44 46 0.15419146398893252 19 775 25 2064
313 0.9398153755312174 0.05036361654943372 -0.38174491688365575 54 60 60 0.030135355077082197 20 1201 22 783
314 0.9378474470696936 0.024361502767897142 -0.3772801985895411 36 40 36 0.7502471081486725 20 1399 22 938 25 1626
315 0.8830380953773855 -0.006399723951672576 -0.3800872284570455 23 29 27 0.9129478346206968 20 1529 22 1195 24 935
316 0.8771681834419046 -0.012536370755849156 -0.3831371686722041 22 25 24 0.7150804448196239 20 1554 23 2015
317 0.9439183865844639 -0.005330408746494348 -0.37590695990301276 39 45 43 0.6953701540669612 20 1633 23 1882 24 939
318 0.889795111704345 -0.022704381668113158 -0.3821458782869707 185 186 186 0.6278539147319466 20 1661 23 2045
319 0.9660005292258731 -0.005990919300889351 -0.37422469360846666 56 59 62 0.10623010774998326 20 1683 23 1855
320 0.9713951182455561 -0.036358186098639736 -0.37175523887543366 48 48 50 0.05518645065942993 20 1897 23 2030
321 0.8306454585242977 0.12810773642342974 -0.38138249102227684 205 205 209 0.20069454935824768 20 510 28 275
322 0.8308610466795039 0.11944990673094057 -0.3813990009914757 202 201 205 0.24644827682088638 21 366 24 127
323 0.8306212245582437 0.07031920576415246 -0.37993524972455933 203 203 205 0.1792068490134787 21 657 24 286
324 1.0713431181121322 0.08788349720029201 -0.3825909638160744 125 131 131 0.28829511335928093 21 943 24 415
325 1.0723538617900141 0.0713550138102482 -0.3866180093010598 111 111 115 0.20632987215314685 21 1050 24 517
326 1.078086348106893 0.07202907306339612 -0.3839766092422178 121 127 125 0.0780950724315676 21 1052 24 515
327 1.0766656148632805 0.06775044430152943 -0.3853507371977224 90 96 98 0.054819684409205774 21 1065 24 537
328 0.9864561429305668 0.0390512741315233 -0.37933100617275056 78 87 88 0.2617279760302264 21 1143 24 641
329 1.07892024407332 0.05406347651544231 -0.3835978073382222 120 123 122 0.023574838154639028 21 1148 24 612
330 1.077486109514103 0.04389496162094298 -0.38275903278828033 117 122 122 0.24077696114356195 21 1250 24 664
331 0.9878403202823552 0.027327401523896202 -0.38078465909753834 71 82 81 0.08710044959245349 21 1261 24 713
332 1.0751731830654983 0.03782376706462666 -0.38355756948406117 130 132 134 0.04698816541950066 21 1280 24 697
333 1.075938225477585 0.03014988909142642 -0.38280951187669593 107 107 107 0.0761078567995222 21 1337 24 747
334 1.0741483235317457 0.02852614512822146 -0.38276080551116026 128 129 131 0.10478072783697671 21 1347 24 756
335 1.0693196355712948 0.022680938745819192 -0.3836947914886289 124 120 121 0.052389485885893795 21 1379 24 786
336 1.0800858784326361 0.023883603118664123 -0.3851261828288929 104 104 106 0.14501513292505144 21 1380 24 782
337 1.0730422436971665 0.019022688763662917 -0.3835084673414278 129 129 131 0.1452558718074805 21 1402 24 814
338 1.0828557502720653 0.018005419725121753 -0.3863965959375556 115 118 119 0.15516366925068717 21 1407 24 822
339 1.0793833034214602 0.01532915572541649 -0.3811654063801486 93 92 94 0.1069400673595809 21 1437 24 841
340 1.0835023943959585 0.011889002054882329 -0.38477605165842993 98 98 98 0.20511115945911354 21 1457 24 865
341 1.0758164709515465 0.00515319008209682 -0.38677598885028674 121 124 126 0.2549743214357236 21 1493 24 902
342 1.0808543614498665 0.002556055704085331 -0.38434871417201105 112 112 114 0.09720206767076678 21 1520 24 915
343 1.0803248925908393 -1.2275666917203298e-05 -0.3835269852066762 109 109 110 0.23866727893077314 21 1548 24 928
344 0.9869441418906578 -0.06103569256002761 -0.37914427199349177 60 48 61 0.16461510185739137 21 1783 24 1264
345 0.8780388932465484 0.02480311396083648 -0.3836355703388521 25 31 29 0.01778593188742138 22 968 24 687
346 0.8830658969546941 -0.006363925456109406 -0.3799423845080203 23 29 27 0.14723421015514282 22 1194 24 936
347 0.8748487255540879 -0.06549042670361205 -0.38323018804398096 25 25 21 0.30455261623085494 22 1438 24 1310
348 0.9139292353688754 0.0866055082433881 -0.3796083393459395 26 32 30 0.36586734340674937 22 522 25 1194
349 0.9435404818129821 0.05486840163591611 -0.3771361069550366 42 51 50 0.20702600342197963 22 753 25 1458
350 0.9526775072514264 0.028288107084354794 -0.3742683419597938 51 56 58 0.14933224460655437 22 910 25 1646
351 0.9038954849239228 0.03553677772010722 -0.3807932943052735 35 38 36 0.28749397189551096 23 1640 24 618
352 0.9168349795035401 -0.062166457514712156 -0.37465371478592635 23 29 27 0.1295996211754945 23 2152 25 2179
353 0.8317848675061427 0.08246493049142715 -0.38450098977759944 181 181 180 0.13796376465161997 24 218 25 878
354 0.8318842852963675 0.06250767072560752 -0.383186528911683 121 120 116 0.10960783948952256 24 357 25 1030
355 0.8318842852963675 0.06250767072560752 -0.383186528911683 121 120 116 0.10960783948952256 24 358 25 1031
356 0.8293550929197699 0.05148723527957813 -0.3833593932546747 177 179 178 0.036893052304231254 24 442 25 1105
357 0.8589280892804949 0.01170546708063846 -0.38039237163270906 162 170 169 0.3406548510965638 24 779 25 1465
358 0.83004855119234 -0.0028988780534010884 -0.38023933653550274 155 162 165 0.08241567885024087 24 891 25 1471
359 0.8526261272434389 -0.012603779089140068 -0.38109050183522714 28 28 30 0.5083969071029923 24 974 25 1608
360 0.8304704644861401 -0.015354527935972657 -0.3807837614599628 133 132 135 0.0848471382811741 24 993 25 1564
361 0.8304704644861401 -0.015354527935972657 -0.3807837614599628 133 132 135 0.0848471382811741 24 994 25 1565
362 0.9427347403778406 -0.04284915707629161 -0.3726928888405008 29 35 33 0.5017177961466824 24 1189 25 2116
363 0.9427347403778406 -0.04284915707629161 -0.3726928888405008 29 35 33 0.5017177961466824 24 1190 25 2117
364 0.8820255075642225 -0.07267301208466863 -0.374941496482874 168 168 164 0.7565415863418727 24 1337 26 1366
365 0.8296931171150963 0.07149427918661583 -0.3823963177905535 191 191 193 0.32489043397275347 24 277 27 350
366 0.8803104038218093 0.052645516520362076 -0.3726039848644353 23 29 27 1.1293315385292897 24 468 27 518
367 0.7619380190203551 0.10193641937074074 -0.39442318362491025 21 19 18 0.30083689004956166 25 309 26 311
368 0.7700480303047263 0.09842638956134073 -0.3989594578500167 39 40 36 0.399367980176644 25 450 26 351
369 0.7616421795404958 0.08923064556784381 -0.39514710499141753 46 47 43 0.4551141884896612 25 463 26 363
370 0.7630503860607231 0.07094045135637336 -0.3974798141079937 52 59 53 0.33136654337900406 25 650 26 430 28 615
371 0.7674096734774122 0.10826378776626092 -0.3912438314213671 18 17 17 0.1879581440993602 25 260 27 164
372 0.7682814430392492 0.07113861416388333 -0.38807293578720126 55 55 55 0.2372040221138974 25 645 27 282
373 0.7670329033479072 0.06938627863916753 -0.38958662619778045 25 25 21 0.016996636531336578 25 668 27 285
374 0.7642245781567147 0.05800126465989425 -0.39627520217610296 62 62 62 0.2978019440057754 25 774 28 720
375 0.7642245781567147 0.05800126465989425 -0.39627520217610296 62 62 62 0.2978019440057754 25 775 28 721
376 0.769136986085839 0.05844320777809078 -0.39418865234978817 69 77 74 0.5073820493524299 25 797 28 716 26 497
377 0.7671548671495168 0.04643319957873787 -0.39558020679371525 25 25 25 0.15482704573278994 25 870 28 808
378 0.7700602733795695 0.047310851609710325 -0.3938457504492831 48 43 39 0.09693613088291332 25 877 28 801
379 0.7648825799861224 0.04304885596760392 -0.394393111804474 68 67 67 0.2341043465724064 25 880 28 830
380 0.7648825799861224 0.04304885596760392 -0.394393111804474 68 67 67 0.2341043465724064 25 881 28 831
381 0.766457620098512 0.04305245330526486 -0.39540917780794593 30 27 24 0.23298107548594962 25 895 28 832
382 0.7649463507614415 0.04152136877506025 -0.39615666296716834 41 38 33 0.05892101851819739 25 903 28 845
383 0.7646790201772834 0.03632905221720399 -0.39557414934799745 33 30 27 0.049287192992685275 25 945 28 909
384 0.7682109351348979 0.037900667155881196 -0.3946233054307933 24 23 23 0.14242366621634042 25 948 28 886
385 0.7698115983919135 0.02954900236946215 -0.39386499981200107 29 24 22 0.21170032835205196 25 1012 28 967
386 0.8310869953162131 0.059792589390321754 -0.38563031119049396 143 142 142 0.395765919929684 25 1054 28 707 30 1005
387 0.8302572985297102 0.053174874651873455 -0.3856589116237609 176 176 177 0.41519110723644526 25 1094 28 758
388 0.833926921732566 0.05096971404706908 -0.3865325155970586 172 174 172 0.6168000280289934 25 1142 28 768
389 0.8330040174035803 0.045312770684975814 -0.3866152763261238 133 130 129 0.4721028081436886 25 1179 28 813
390 0.8327504992202998 0.04088277019300441 -0.38625510238763894 165 165 165 0.6877867159417468 25 1203 28 846
391 0.8319863874937291 0.037557761557455174 -0.3858292963662115 183 183 187 0.4406172851328651 25 1219 28 880 30 1153
392 0.8796137554297486 0.05684065480322697 -0.3861784256305062 173 176 175 0.4289650335184206 25 1256 28 737
393 0.9164950819694382 0.051595923456328956 -0.38455005185909846 31 37 37 0.3688090658092925 25 1398 28 772
394 0.8855227343075954 0.020251182097231025 -0.38632680373762035 23 28 25 0.7110859966503535 25 1493 28 1032 29 823
395 0.982862317233139 0.04329121230320279 -0.3814289246441823 56 67 66 0.18501265243243376 25 1630 28 833
396 0.982718393866686 0.0412074838737355 -0.38218852826456745 60 67 68 0.46917272438771396 25 1642 28 847
397 0.9743523261855035 -0.006084464312938826 -0.38223162980918707 63 71 70 0.30653713905160157 25 1926 28 1202
398 0.7726860501655897 0.12552902162183632 -0.39244244528411487 51 51 47 0.26055483737730123 26 233 28 277
399 0.7646971825946967 0.12377137898841309 -0.40396753450251827 31 35 30 0.6354979606609331 26 251 28 288
400 0.7684627889712154 0.12023775081036253 -0.4024960673578268 57 58 54 0.45244302103463424 26 265 28 308
401 0.7743505531919724 0.10421376730553267 -0.3972818352389568 61 62 58 0.12099247907522058 26 327 28 345
402 0.7613166511621706 0.09272840520614402 -0.3955694106107542 35 39 32 0.005031631091458727 26 355 28 419
403 0.7619018688476358 0.08362632218803605 -0.39853588950139945 44 44 43 0.31123684307559446 26 380 28 508
404 0.7619018688476358 0.08362632218803605 -0.39853588950139945 44 44 43 0.31123684307559446 26 381 28 509
405 0.7667879746447822 0.08354799715954044 -0.39431554851998735 53 54 50 0.10626762755440335 26 382 28 493
406 0.7628040432812814 0.08257722510626597 -0.3999606745280475 45 46 42 0.2923738238077464 26 386 28 524
407 0.7658234040015239 0.0833995311129476 -0.40071421021414666 26 22 23 0.1717383839444962 26 389 28 520
408 0.8303504371998289 0.09932974245108894 -0.3887607229518256 187 188 187 1.126481493645586 26 404 28 387 29 479 30 694
409 0.831782821671651 0.09945458842031543 -0.39223603347720093 185 188 189 0.4831595245118526 26 414 28 393 29 482
410 0.7715881005032182 0.07707451798884767 -0.3964197189318629 46 47 43 0.023466170272602498 26 415 28 567
411 0.7761950917094876 0.07761210096831359 -0.3984204671655679 53 52 52 0.047070382867078424 26 424 28 568
412 0.7678818216518164 0.07432778014349901 -0.39851471918133524 55 59 54 0.006953200170515034 26 426 28 588
413 0.8332224377310272 0.09184952518986024 -0.3911578268904351 125 125 128 0.06266349498629252 26 446 28 452
414 0.775483301750285 0.06777193474655727 -0.3964426972252336 20 20 16 0.1312785718147505 26 461 28 645
415 0.768531481780007 0.06232920301358994 -0.39976414276530775 58 57 55 0.08218208517837575 26 478 28 695
416 0.7691478937791654 0.05889099972160522 -0.3967405066576184 61 61 59 0.08408187492903091 26 498 28 717
417 0.7697872087131008 0.054413027391663385 -0.3991737633701195 64 65 61 0.033805760797602585 26 513 28 755
418 0.8352360442190034 0.07401502697568262 -0.3903698616883358 183 183 183 0.16450610738959787 26 520 28 606 29 592
419 0.8739447236772706 0.06817675239730987 -0.38914850325157146 176 184 185 0.0644086537101851 26 620 28 665
420 0.967204960675954 0.06687640830781524 -0.38689993467427175 51 59 57 0.12913595516656468 26 790 28 688
421 0.8340482535831585 0.025111435596297797 -0.38998519156922906 113 113 114 0.0473309268786109 26 809 28 998
422 0.8333768645125295 0.005545865216377957 -0.3894856499749898 176 182 183 0.07371448644342175 26 907 28 1156
423 0.99902979626479 0.039679730884312474 -0.38252157622069577 77 85 84 0.4577994592223291 26 955 28 862
424 0.9444127485659527 0.02590541123805202 -0.3868785458219912 45 55 55 0.18948619091227956 26 959 28 980
425 0.988224284615995 0.00556068499846812 -0.38353850388510785 187 190 191 0.02311886974009993 26 1101 28 1114
426 0.833055622031313 -0.03261961974662283 -0.3915137526036862 169 173 175 0.21828786631435326 26 1136 28 1353
427 0.9817540493528554 -0.011400241172494429 -0.3833979889516705 51 56 58 0.2804431374399318 26 1174 28 1223
428 0.8811867180765908 -0.037687573720898225 -0.3893832470266811 23 29 27 0.38743249534600976 26 1203 28 1361
429 0.9654375595443762 -0.025603365012148802 -0.38638511088363126 43 45 51 0.09778160231424858 26 1224 28 1281
430 0.9211926010453607 -0.10163731620268802 -0.38842551991383056 23 29 27 0.9526151057490314 26 1439 28 1557
431 0.9405265233749591 -0.09859132821282274 -0.3804786282812905 31 37 39 1.9454684920778607 26 1444 28 1555 30 1820 31 2139
432 0.8319194045932021 0.11436853358574854 -0.3911925160268527 156 155 158 0.09464068475996334 26 370 29 441
433 0.7677767112162656 0.063395153989764 -0.39590091558975565 50 51 47 0.5993726268644389 27 304 28 686
434 0.9259189856619758 0.06738749519307648 -0.38312457911961284 187 191 190 0.12542392989550477 27 529 28 677
435 0.8303724425793654 0.03718275295417074 -0.3861848110676733 180 183 183 0.011261882759900064 27 538 28 888
436 0.9109816436808451 0.056904928023420405 -0.3848809758010979 33 39 39 0.15445258028341136 27 565 28 739
437 0.8329800061572878 0.020675935839665108 -0.3861984765132856 152 150 149 0.1257892761145133 27 647 28 1035
438 0.8342508932783749 0.02092991130390386 -0.38646161828316944 177 174 172 0.16516659664741715 27 650 28 1033
