# 3D point list with one line of data per point:
#   POINT3D_ID, X, Y, Z, R, G, B, ERROR, TRACK[] as (IMAGE_ID, POINT2D_IDX)
# Number of points: 435
1 1.0902627520576278 0.04764921631399464 -0.3985905448346613 161 172 172 0.26490754646122594 1 980 2 1166
2 1.1095602432112392 0.02944416179279099 -0.4008734651281009 132 142 141 0.21377449820596472 1 1098 2 1267
3 0.9550936404565344 -0.08393251648779784 -0.4081959350406885 27 30 33 1.0201847857271107 1 1747 3 1736
4 1.0948114016534891 0.10861091290544106 -0.38353863203007543 142 148 143 0.3768466693077265 1 592 4 1347
5 1.0990300916526736 0.09247521926073513 -0.3930637590688287 148 148 148 0.18737314082169534 1 697 4 1447
6 1.1016979496750792 0.06707456865341793 -0.3900584843881182 117 125 122 0.049941147219239604 1 863 4 1636
7 1.097129998549894 0.06586215264320283 -0.3918039497330335 97 103 105 0.11827622071313756 1 874 4 1648
8 1.1115720959823534 0.035023678776773086 -0.394520897838353 124 131 128 0.2530655565502774 1 1052 4 1827
9 1.091240454802333 0.14090591077705408 -0.3820863221448642 149 154 152 0.5680143940053058 1 429 5 1151
10 1.0744994011952687 0.0775110280763525 -0.38658148542211523 190 194 189 0.44513683256837466 1 776 5 1504
11 1.096352658465013 0.053184244466033447 -0.3925569596691055 142 148 148 0.19101434371867876 1 947 5 1670
12 0.9032617943993195 0.08104153166347648 -0.34996028610034224 35 38 37 0.5846085011911737 1 581 11 526
13 1.0974997870477943 0.06311585966830148 -0.39046375408383466 138 141 140 0.06109560732639913 2 1070 7 998
14 1.093678780291632 0.02739836290146765 -0.38530622643026785 104 109 113 0.39240443675943326 2 1277 7 1184
15 1.0848273867068279 0.01103470516340362 -0.3825506174659273 144 152 151 0.38814470343415786 2 1376 7 1281
16 0.979714547818579 -0.15146643226786938 -0.355272284944671 32 32 32 0.03822365986797716 2 1996 7 2070
17 1.000003737041892 0.07561895641345664 -0.3963196403905668 65 70 71 0.4702833461016624 2 975 8 704
18 1.098197549544031 0.03671621369564654 -0.40094124104178896 106 109 110 0.2028999487881597 2 1221 8 1040
19 1.1217942562631191 0.036727197699469 -0.4022931765037793 106 108 108 0.46252762614484255 2 1223 8 1052
20 1.0928560700026633 -0.012040937915451303 -0.39724441293625323 149 155 155 0.3083255764448747 2 1495 8 1312
21 1.1001931839430246 0.05242831281025063 -0.40361020869998054 129 137 136 0.13573950454486522 2 1145 9 852
22 1.099831614808419 0.01916698104939695 -0.3942490265271612 139 145 145 0.06436898345381255 2 1327 9 1056
23 1.099831614808419 0.01916698104939695 -0.3942490265271612 139 145 145 0.06436898345381255 2 1328 9 1057
24 0.8591576902196112 0.06847204950919941 -0.37309458935186485 185 192 193 0.1495876984991446 2 953 10 348
25 0.8296951189624309 0.015001184915405174 -0.37747631825216754 180 180 186 1.1181426364956544 2 1372 10 643
26 0.8281053079373861 0.13918785496468944 -0.36802580723805695 198 198 200 0.0715672554329285 2 472 11 145
27 0.8258330601342956 0.06409061618616112 -0.3568190921024799 190 190 186 0.08686308138544607 2 952 11 748
28 0.8240355410279657 -0.018002271318875 -0.36083140765405314 132 135 136 0.21346231927800494 2 1615 11 1952
29 0.9193269518300445 -0.00044774311268064044 -0.3779102065784758 29 35 35 1.9245885639601752 2 1468 12 633
30 0.9515407696800352 0.04745839963807509 -0.38350142603066817 43 43 44 1.2298437958882682 2 1135 31 1272
31 0.9825880137120709 0.09048132368285476 -0.38674125324818764 52 63 61 0.939272435376755 3 1077 6 859
32 1.0886116591086277 0.11703273431333375 -0.3940515022154461 109 109 108 1.2042915735322792 3 1004 7 613 30 653
33 1.0891107747899835 0.10505204032075703 -0.39796765291545405 155 161 161 0.20927657549598236 3 1045 7 681
34 1.0061958413002654 -0.1612351121094428 -0.37374795198448585 13 17 12 0.12934044498266628 3 1827 9 1942
35 0.9574529269356656 0.044061991874405536 -0.3844978206524603 179 185 185 0.14053065234467882 3 1299 26 873
36 0.828136171964273 -0.03706319904522507 -0.3709805960049768 169 176 179 0.608125714264096 3 1649 26 1161
37 0.9167299789637748 -0.03821202907190279 -0.38262534491597133 22 28 26 1.6552064207047827 3 1619 28 1348 25 1969
38 0.9780485952633406 0.08855168917767836 -0.37999553961295784 33 41 38 1.103190712948886 3 1076 30 784
39 0.8308891423966581 0.08363199147321818 -0.3948119598490928 139 140 144 0.10416714737859573 3 1082 30 833
40 0.9240701391171668 -0.0015805369129617474 -0.3747421581337903 29 28 35 0.5507597210244631 3 1494 30 1404
41 0.9708010287859892 -0.005271721018598994 -0.37770164482115237 42 50 51 0.7121361293712305 3 1501 30 1413 31 1570
42 0.965593916621994 -0.016086471109498773 -0.37642033802325764 38 41 42 1.0665012966192233 3 1540 30 1482 31 1651
43 0.9913925379257604 -0.14877817873198057 -0.37073108755578443 21 24 23 0.3809429757534215 3 1805 31 2161
44 1.1084299292708946 0.031466628667038886 -0.3877255011075292 110 110 110 0.1440394422400615 4 1840 6 1301
45 0.877405989011602 0.01917162209107337 -0.37892733894803254 180 183 184 1.5168329453633282 4 1971 6 1341 30 1266 31 1556 25 1479 28 1036
46 0.8787590466450323 0.019120956686861434 -0.3838283169149079 192 194 200 0.7086016530546142 4 1972 6 1342 30 1267
47 0.8957550158042068 0.006448183911372319 -0.37758081088696016 26 32 30 0.6947062421692336 4 2057 6 1442 31 1613 8 1156
48 0.9485387265849958 -0.04467881988035294 -0.3808147078598962 32 37 42 0.09724493700070148 4 2373 6 1804
49 0.915977524065115 -0.07044936031469164 -0.3810146775386457 168 172 170 0.19551329673151657 4 2515 6 1994
50 0.915977524065115 -0.07044936031469164 -0.3810146775386457 168 172 170 0.19551329673151657 4 2516 6 1995
51 1.0052028775215678 -0.15503305951526186 -0.37733857906540885 35 38 37 0.8870999033021292 4 2637 6 2179 31 2162
52 0.9842236497694185 -0.1502277714702781 -0.37706514153861115 35 34 34 1.2600768334265826 4 2639 6 2172 31 2166
53 1.1045816122064753 0.09490475757235368 -0.38629515752385196 101 106 102 0.3225547870967237 4 1423 7 760
54 1.0825348281805063 0.01272816769669012 -0.3774908847629157 97 101 96 1.149125908268653 4 1967 7 1273 31 1317
55 0.9075200346155304 -0.03796203192962422 -0.3756764105391695 179 182 182 0.15807325255350463 4 2367 7 1573
56 1.1052416836841488 0.09414900820403872 -0.40139859545336287 152 160 159 0.07093139565017041 4 1441 8 659
57 1.1124701563804482 0.08547446616015077 -0.40030851363663383 136 144 141 0.3046656739498898 4 1517 8 741
58 1.1101390277203445 0.078140605306914 -0.3969935846732414 138 144 144 0.15686877959749448 4 1560 8 796
59 1.0864355276196507 0.048740239786724336 -0.39379203407724334 161 170 169 0.17942121835786184 4 1749 8 976
60 1.101406562649645 0.04461215922314635 -0.39545814742719293 100 106 105 0.026388829801262934 4 1767 8 1002
61 1.1097440166005905 0.03976490588162984 -0.39800771030224835 135 141 140 0.04437743990966533 4 1792 8 1027
62 1.0953885796475045 0.01894941189185779 -0.39740786825914337 106 110 108 0.03761563037669957 4 1918 8 1130
63 1.1056078423424738 0.005273938814737207 -0.3970062641688511 84 87 88 0.05070489604532567 4 2000 8 1235
64 0.8957732136450577 0.006519742997884116 -0.3776654018462228 20 26 24 0.16172474443623308 4 2056 8 1155 31 1612
65 0.9987912110146556 -0.1589019607466056 -0.38993216993634283 33 33 33 0.2621945854532083 4 2641 8 1988
66 1.1145854845275713 0.06670350195593833 -0.4013129080718189 123 131 130 0.3544580871716875 4 1651 9 751
67 1.090627844350403 0.06534823611384712 -0.3975656450300457 160 166 164 0.05446749385532026 4 1653 9 731
68 0.8316066611924452 0.07348280036163397 -0.3829102003770148 123 120 117 1.9452095077090612 4 1485 26 515 25 956 28 597
69 0.8338010806942487 0.009985016978847338 -0.38263164079198686 172 180 181 1.8300012605933194 4 2048 26 884
70 0.8329339908701002 0.06825155430905334 -0.3878830942795327 145 143 148 1.9664066151391915 4 1550 29 625 30 950 26 539
71 1.074288129558135 0.15188991450869108 -0.37952433323530343 119 121 120 0.16710076525432954 4 1113 30 492
72 1.0932609234520323 0.1297655207078661 -0.3782734898139122 158 159 155 0.16934758351487836 4 1217 30 581
73 0.8341644233213478 0.07870042174007169 -0.39372191681727864 190 190 192 0.2092386565766857 4 1451 30 859
74 1.0737377396423038 0.06399320356900691 -0.374715727180613 113 113 116 0.09887920318991632 4 1646 30 955
75 0.8320252427419493 0.0038416667201413113 -0.3905295352436068 130 133 134 1.7967057350540143 4 2109 30 1407
76 1.0649393230982322 -0.02075236159011443 -0.3623857493148063 75 72 77 0.40864152725822434 4 2191 30 1467
77 1.0576746058809277 -0.03360059898472975 -0.3569244621912801 74 77 79 0.6527974495234692 4 2270 30 1541
78 0.9512309299321324 -0.032939099593871264 -0.3742446431805776 37 36 42 1.8584305003672512 4 2318 30 1579 31 1805
79 1.0876880705583007 0.034882064645945204 -0.37612987835201184 161 167 168 0.002300280750004429 4 1823 31 1145
80 1.0880301156274077 0.016015661986754266 -0.3770428305385201 85 88 89 0.043039918539944044 4 1938 31 1287
81 0.8829616841583648 0.018927501209833407 -0.37683298957991945 34 37 38 0.022633056880879538 4 1970 31 1550
82 0.8618241683091509 0.0034463844700829533 -0.3771706145514171 192 195 196 0.06588004355541242 4 2103 31 1700
83 0.8618241683091509 0.0034463844700829533 -0.3771706145514171 192 195 196 0.06588004355541242 4 2104 31 1698
84 0.8618241683091509 0.0034463844700829533 -0.3771706145514171 192 195 196 0.06588004355541242 4 2105 31 1699
85 0.897275749540179 -0.08100670293062501 -0.3746781839697973 178 178 178 0.9730174635595019 4 2578 31 2131
86 1.0904998867937112 0.06759622649833645 -0.3884650748939831 99 101 99 0.23588913814549994 5 1583 6 1099
87 1.0873422877191055 0.052760057911619015 -0.3846090034497643 103 103 102 0.3251593809682252 5 1665 6 1176
88 1.092634345996856 0.04650099654849448 -0.3846751322039043 133 142 142 0.32254159516328756 5 1710 6 1210
89 1.0941808594333826 0.03493817293617712 -0.386520618832795 104 105 108 0.1294718050511939 5 1773 6 1275
90 0.913705644462471 -0.04507543214374051 -0.39038765030937456 27 27 27 0.03882896151838711 5 2306 6 1816
91 1.0972008839242569 0.08194913970608635 -0.3866306195044603 112 115 114 0.10001832611929763 5 1480 7 866
92 1.0035296223253976 0.02865245925105999 -0.3832243469681616 59 72 71 0.34010297696515995 5 1817 7 1142
93 1.0812976513635355 0.027112116053079713 -0.379690784810443 137 143 144 0.855022862403496 5 1821 7 1178 30 1162 31 1218
94 0.9940416026362993 -0.15994141185087818 -0.38204755129842405 23 24 24 0.23261851420775123 5 2558 7 2060
95 1.109884883790523 0.11594691030953562 -0.39551834698664545 132 140 139 0.20271361773662788 5 1294 8 533
96 1.0820934796525286 0.0966199784622229 -0.3942773185839956 191 195 190 0.23740102867294088 5 1383 8 613
97 1.1030703726307673 0.07733036684568874 -0.39233704662388663 112 117 118 0.007097171991568557 5 1516 8 789
98 1.112450328004737 0.061049182875483964 -0.3934671437394171 127 131 126 0.06690836863085259 5 1620 8 914
99 0.8874952031830629 0.04537215273614149 -0.3768778357594833 29 32 35 0.30975404533253453 5 1708 8 837 31 1373
100 0.8780790074152675 0.08772251523260766 -0.3817196933057473 27 28 24 0.011500184070619498 5 1354 30 770
101 0.8306466225137684 0.08158219158588313 -0.3853143459909152 139 140 144 0.20276652839848563 5 1386 30 834
102 0.8318704556297415 0.03916842162971878 -0.38530526946796745 182 184 187 0.014982363002127009 5 1753 30 1138
103 1.0804861226953242 0.014527889858912431 -0.3815436845887443 87 92 93 0.718364180629923 5 1898 30 1241 31 1320
104 1.0719212087777896 -0.004296094833876917 -0.37374278310114967 128 131 132 0.02049684419548355 5 2008 30 1365
105 0.9140666420724775 0.050221212930405275 -0.3769185250180212 29 35 37 0.10311809804841914 5 1677 31 1291
106 0.8285552592195825 -0.022478079682467535 -0.3793852122370467 193 193 197 0.7608685807756566 5 2232 31 1992
107 0.9805213619919484 -0.151957807857774 -0.38067206704451045 31 31 33 0.784226647055474 5 2537 31 2178 7 2032
108 1.0110675957284778 0.0825755913958995 -0.38258056661788536 198 205 205 0.6860228387173086 6 950 9 518
109 0.9667837023140539 0.017481058262576347 -0.3587048008686321 195 203 202 0.686113605164841 6 1361 9 985
110 0.8440454281467056 -0.00312020061011179 -0.32593310700543887 35 38 41 0.5668082882588497 6 1513 9 1047
111 1.1001009728178788 -0.01128727180104181 -0.3992490182433581 153 161 160 1.175220730732172 6 1555 9 1220
112 1.1149426867898202 -0.013252859704262281 -0.4027425837841768 132 138 138 1.2259029257864462 6 1561 9 1236
113 0.8838224028869778 -0.0119612801585648 -0.3806563052589115 166 174 173 1.8071745433080482 6 1594 30 1495 31 1782
114 1.0811803082111686 0.04032360525147259 -0.38060715622867636 132 138 138 1.6866848345751062 7 1106 31 1132 30 1091
115 0.9531304209580158 -0.02295934004386706 -0.37975468317526395 182 188 188 1.2476931840689056 7 1479 31 1734 29 969
116 0.9803454210402178 -0.04640929841172419 -0.3762612542085319 42 45 51 0.9716727136033309 7 1606 31 1841
117 0.9952925942014257 -0.15018742351667988 -0.37929085302841586 21 24 23 1.3816096247803777 7 2018 31 2159
118 0.9886187976660014 -0.1570411672782619 -0.38120877109734436 32 32 32 0.6423469995851373 7 2052 31 2189
119 1.0086561395637896 -0.02385730259395208 -0.3982079252805119 40 48 49 0.994703621417329 10 900 13 1205
120 0.8356941992833921 0.05543754862088569 -0.40985906817773954 171 171 173 0.963043269872772 13 796 14 588
121 0.8594088504355585 -0.015962182786748862 -0.3284497207158597 12 18 16 0.362426919572682 13 1141 18 708
122 0.8291200094607716 -0.02497482333727728 -0.362464801893294 110 116 118 0.5974301064425268 13 1222 19 683
123 0.825484068567855 -0.025557922487246625 -0.3586564227357307 155 166 166 0.5442942928044086 13 1225 19 684
124 0.878522876029084 0.08814664106889451 -0.3839353523667436 30 31 27 1.4190575896314308 13 617 22 514
125 0.9143966607500703 -0.036818578218551744 -0.38027158775012615 15 21 19 0.12816290669936448 13 1282 22 1308
126 0.9856273285373782 -0.1397124406218287 -0.36824390694765 40 28 37 0.39234196336689836 13 1545 22 1511
127 0.8353441647503931 0.12148007259523323 -0.4319520037763525 186 186 187 0.8316545403573029 14 284 17 290
128 0.8306170347000101 0.010241691003286351 -0.3936279188420068 142 141 143 0.8769422156982646 14 797 17 767
129 0.8318268917080579 0.10421524671634279 -0.3959263173233644 128 125 120 0.0677268326193053 15 532 16 267
130 0.8331554569242732 0.09640838607640882 -0.39333244280413043 189 189 191 0.061875170960049915 15 558 16 291
131 0.8308510888302695 0.09395416353775136 -0.393357570335217 181 184 185 0.06322504274863593 15 572 16 306
132 0.853942441772659 0.09253845417566575 -0.38864136729429727 25 29 28 0.2837672741464244 15 578 16 325
133 0.8326135677515758 0.08956561174317852 -0.39372614282484136 181 177 178 0.04491865742341567 15 591 16 338
134 0.8326420976195522 0.06997616589374617 -0.39043343847348105 186 185 187 0.07256971724876263 15 709 16 442
135 0.8305597666745195 0.05607840567471672 -0.3921804986487294 121 124 125 0.08366979130364545 15 792 16 529
136 0.9479164626144311 0.053788272445800867 -0.38914021919894654 32 38 36 1.5292474235267701 15 821 16 581
137 0.83209909359567 0.005906418751180662 -0.39206213816731644 128 127 131 0.31407207915037233 15 1072 16 812
138 0.8351392237608208 -0.024750771304710865 -0.395669719698383 166 166 166 0.07370107022176468 15 1222 16 984
139 0.8313312616053954 -0.039562883805524314 -0.39393865578437115 85 81 82 0.957287437946707 15 1290 16 1071 17 1085
140 0.833768258033071 0.010497008865820641 -0.39153550873059983 172 175 176 0.33208827500427446 15 1035 17 761
141 0.8295903970445899 -0.0034155226976078008 -0.39261677634832765 116 115 116 1.0878427733243394 15 1117 17 843 24 895
142 0.832507596738989 -0.026289074419253357 -0.39325656067632486 161 165 166 0.8761859988466034 15 1232 17 978 16 994
143 0.8537861291432457 0.011822887545125811 -0.361097764997894 167 173 173 1.8902875223546285 15 1021 18 549
144 0.8288578848487409 0.012456180874933482 -0.35911654562374207 167 164 165 0.3179083114928929 15 1023 18 508
145 0.8265528414926028 -0.021645404907384008 -0.35553665175512056 160 160 159 1.5904087452321334 15 1234 18 764
146 0.8332146788094229 0.16068386953383956 -0.4137883597639643 193 189 190 0.8081140642559338 16 126 17 204
147 0.9118907047827007 0.020273845407422848 -0.3864156524000616 21 24 23 1.1941209226080924 16 747 17 740
148 0.9537108422106138 -0.031023579692383615 -0.3806995822042675 176 184 183 0.26146886444728146 16 989 17 1016
149 0.9715613638244794 -0.04328932360082177 -0.3794619399057817 33 36 39 0.43802953467167105 16 1041 17 1089
150 0.9407791393841634 -0.07456294097366568 -0.382088729112989 26 26 27 0.4423736573577114 16 1160 17 1191
151 0.8952702757989979 -0.0834381518223581 -0.3863624442179608 23 23 19 0.9491451481256261 16 1194 17 1224
152 0.826297142565922 0.018326721343474368 -0.34418251332408434 116 112 115 0.9727131618358126 16 706 18 435
153 0.8300524728323292 0.019930376464660438 -0.3678583125692345 172 175 178 1.3943210462466544 16 729 25 1318
154 0.828972121294991 0.0002444904670100712 -0.36546473227643445 114 109 111 1.5865107791272597 16 842 25 1434
155 0.828972121294991 0.0002444904670100712 -0.36546473227643445 114 109 111 1.5865107791272597 16 843 25 1435
156 0.9068831300281538 -0.0059637755185359045 -0.3779486070544162 21 27 25 1.4654623575489536 16 878 25 1765
157 0.8323411541711808 0.08705315763100091 -0.3991465863451405 135 130 131 0.9975217630584527 17 342 20 711
158 0.9775176425211994 -0.07417687706070974 -0.3790708550347524 29 37 38 0.29097796444041163 17 1183 25 2275
159 0.9846618556892621 -0.144747150029659 -0.3688215666338351 22 28 26 0.05041712824327755 17 1267 25 2319
160 1.0832134245186318 0.019428290329938525 -0.3863086072073867 108 108 110 0.22390465045472058 18 632 20 1688
161 0.8281042734624825 0.03263006530198259 -0.36118567786459155 129 123 125 0.2614204264274794 18 373 21 967
162 1.066800971911755 0.04985348896392212 -0.373170313819599 124 127 128 0.25248002018700744 18 456 21 1163
163 1.067540086232955 0.03233212537585098 -0.3711836578900815 109 109 111 1.2407405413482868 18 554 21 1311
164 0.8375212200830315 0.12459708631704514 -0.42973859025363403 183 183 179 1.6798394253050266 19 62 20 552
165 0.9962909949639608 -0.0034450464831666193 -0.3877389060475894 68 74 74 0.2688239815379874 19 601 22 1088
166 0.8325477848027306 0.07452204468321158 -0.3857127185008613 169 168 168 1.7068745732015507 19 138 25 957
167 0.8257160076392148 0.01657843274551216 -0.3597187256245582 170 174 173 0.2310435421395693 19 406 25 1313
168 0.8266729246692215 0.004646216805631141 -0.35792641880254805 109 114 116 0.18431952783794645 19 479 25 1397
169 0.8264023388113688 -0.00234056126695374 -0.3563388243616284 117 123 125 0.04345926064359482 19 527 25 1438
170 0.9475890576960968 -0.0068947165562934735 -0.38232842910668285 42 49 49 0.15615837382088524 19 609 25 1872
171 1.0111541074359436 -0.012499066730079934 -0.3969494708118217 71 82 80 0.13060947336136136 19 646 25 2025
172 0.958666412446432 -0.03386915248610163 -0.3883003451816788 45 44 46 0.28336269459884467 19 775 25 2064
173 0.9338832028219614 0.04870421342003467 -0.367802796749277 54 60 60 0.2883788208061212 20 1201 22 783
174 0.9422678344257246 0.025219987116705443 -0.384110710530695 53 61 61 1.051804994037236 20 1399 22 938 25 1626
175 0.8597915042720758 0.0024812536933374145 -0.39476112937500357 188 188 190 0.3309837512729942 20 1363 23 1946
176 0.9030310595769431 -0.017904909197426596 -0.3840606918442481 28 31 30 0.5873368619371794 20 1641 23 2008
177 0.8910785024539188 -0.024175604759857066 -0.3893115953189256 185 186 186 0.5183489084357383 20 1661 23 2045
178 0.9114740031130524 -0.04019202284262527 -0.3939836074308764 176 175 176 1.56835905610594 20 1801 23 2082
179 0.8765299119776836 -0.049896801565455375 -0.39684090939734246 26 23 25 1.615340956791143 20 1822 23 2140
180 0.9743132281724772 -0.037749157700288985 -0.37850598049445194 48 48 50 1.0053597307798041 20 1897 23 2030
181 1.087524141545397 0.1072484433046305 -0.37900694367098564 78 81 80 0.716890686570954 21 861 24 326
182 1.0828968626507884 0.09500359796983188 -0.3813101277905596 118 124 122 0.4302577872319199 21 910 24 392
183 1.0723453916497645 0.08825417924221717 -0.37802301591029747 125 131 131 1.0982520984742687 21 943 24 415
184 1.090224513208406 0.08566616963413372 -0.3785472842502678 74 74 76 0.1720711706219225 21 986 24 446
185 1.0802568487023274 0.0804934884961387 -0.37743362365119815 114 120 120 0.43459748002051873 21 1003 24 464
186 1.0907367558807646 0.07770993078444571 -0.3768106715251944 100 106 104 0.1332385283067948 21 1035 24 486
187 1.0720415546319202 0.07139313201593478 -0.38184235711803366 111 111 115 0.5174720511173372 21 1050 24 517
188 1.075411899953213 0.05306827486992307 -0.37650080428713495 120 123 122 0.09212283080222078 21 1148 24 612
189 1.0709383071575311 0.036774382064127475 -0.37644948777619414 130 132 134 0.04465396656704386 21 1280 24 697
190 1.0710260862303491 0.029025452426371046 -0.37540765194188297 107 107 107 0.015660249444042915 21 1337 24 747
191 1.068884505778398 0.027361130559622887 -0.37504285567620577 128 129 131 0.14714150348392288 21 1347 24 756
192 1.0735373634591587 0.022748631273851887 -0.37651143600713144 104 104 106 0.5315899055245524 21 1380 24 782
193 1.075296096388618 0.020965306201428283 -0.3765213340971885 114 117 118 0.7004146970933438 21 1390 24 798
194 1.0677573662901885 0.018002677242058354 -0.37619898782754385 129 129 131 0.06131130308066328 21 1402 24 814
195 1.0756699283746471 0.016976178446038902 -0.377572634079244 115 118 119 0.7772871664037516 21 1407 24 822
196 1.0757959003270792 0.01085522083030445 -0.3757987861230446 98 98 98 0.8705852387925772 21 1457 24 865
197 1.0684872197808966 0.004353520794960519 -0.3782427739084853 121 124 126 0.8892330994523016 21 1493 24 902
198 1.0729863594577795 0.0016749049162432241 -0.37554192657998176 112 112 114 0.803075095303328 21 1520 24 915
199 1.0721974972293935 -0.0008882589711311223 -0.3746289562929942 109 109 110 0.9397325413571826 21 1548 24 928
200 0.9800349074119449 -0.06065853402979984 -0.37036738327655505 60 48 61 1.3071293280446183 21 1783 24 1264
201 0.9692519393198795 0.032825198165428525 -0.3873749908227147 185 196 192 1.790086187127353 22 885 24 684
202 0.9497126971740449 -0.006330256637083257 -0.3888315627149877 36 44 43 1.9807788897328398 22 1142 24 946
203 0.8869720494806727 -0.006140365066131866 -0.3944188061154002 23 29 27 1.12966745675456 22 1194 24 936
204 0.9047868442615803 0.1084871076062885 -0.37883192993328874 40 39 40 0.2830524741317254 22 384 25 1007
205 0.9158568156743767 0.08818012113370946 -0.3818515134036548 26 32 30 0.7704593750710211 22 522 25 1194
206 0.948175684615858 0.056756595166599685 -0.38360699878313753 42 51 50 0.5714545341995118 22 753 25 1458
207 0.958179834285176 0.029391991712266398 -0.38178746660910196 51 56 58 0.52463317983486 22 910 25 1646
208 0.9702981147768682 -0.10541061988961252 -0.38133969946951723 176 180 180 0.19311204266427467 22 1488 25 2301
209 1.067950707959026 -0.04830395509486931 -0.3775525083093632 84 85 87 0.17818350264202432 23 1998 24 1191
210 1.0725090820573822 -0.050744741672182785 -0.3780034127431171 64 64 66 0.1218440579565574 23 2001 24 1201
211 0.8284793287695246 0.05617471151650634 -0.363044149267561 121 120 116 0.3009483095924775 24 357 25 1030
212 0.8284793287695246 0.05617471151650634 -0.363044149267561 121 120 116 0.3009483095924775 24 358 25 1031
213 0.826078620832407 0.04573267300338804 -0.3630715807101704 177 179 178 0.5804596882211184 24 442 25 1105
214 0.8534009245366827 0.008046680451827624 -0.35947488981171977 162 170 169 0.5349853323004364 24 779 25 1465
215 0.8263503875463118 -0.005755175322089702 -0.3574399012206481 181 181 185 0.26475081556380536 24 891 25 1471
216 0.8472646049432419 -0.014626548091360943 -0.3591434634792745 28 28 30 0.4769402514804732 24 974 25 1608
217 0.826779637430435 -0.017226910567423842 -0.358344142624518 133 132 135 0.1254048787069923 24 993 25 1564
218 0.826779637430435 -0.017226910567423842 -0.358344142624518 133 132 135 0.1254048787069923 24 994 25 1565
219 0.93351823097492 -0.04288997419100741 -0.3580880858971372 30 36 36 0.677135519114286 24 1189 25 2116
220 0.93351823097492 -0.04288997419100741 -0.3580880858971372 30 36 36 0.677135519114286 24 1190 25 2117
221 0.8743974469687826 -0.06997743792634607 -0.3558382418748685 168 168 164 0.1198212994192921 24 1337 26 1366
222 0.828707840202724 0.12270140241464218 -0.37060349806600074 188 185 188 0.06141748149747857 24 119 27 180
223 0.8958746417472249 -0.03714808335543606 -0.35230178511599325 165 171 171 0.048875711001116914 24 1162 27 1074
224 0.7618362838605639 0.09464195591531263 -0.37363144804830917 21 19 18 1.2797945816737075 25 309 26 311
225 0.7608749508862802 0.0923109265433219 -0.3723643137140601 31 30 30 1.5915758660343113 25 323 26 319
226 0.7693900918837477 0.09161442587066293 -0.37876635414677085 39 40 36 1.194516660145166 25 450 26 351
227 0.7614654961443129 0.08305170893769544 -0.37547755828813173 46 47 43 1.1955156018635673 25 463 26 363
228 0.7624484273723969 0.06954978986182467 -0.37678813825594876 50 51 47 1.369312044978413 25 611 26 407
229 0.7621966508301967 0.068807635900125 -0.3860209107015118 66 70 63 1.6889619861343996 25 650 26 430 28 615
230 0.7689666042330378 0.06957956089408897 -0.3782351897777246 25 22 18 1.2554167814361394 25 656 26 425
231 0.8323865423212138 0.06797236975602074 -0.38495545769929246 126 129 131 1.1696926930537284 25 998 26 538 29 624 28 644
232 0.8789572987388888 0.08821319086771266 -0.38420621797504184 31 34 33 1.0169856359371288 25 1052 26 526 28 487
233 0.764025536168905 0.11202945986851129 -0.3741554588599404 21 21 18 0.5469638856168276 25 108 27 132
234 0.7667002514749631 0.10310706504643952 -0.37543639764626846 18 17 17 0.6546926682427362 25 260 27 164
235 0.7654824738344702 0.09028965490361426 -0.3870777347123338 66 70 64 1.3761773113919162 25 476 27 228 28 428
236 0.7657136112445927 0.07006838011260734 -0.3860808012103393 27 27 24 1.717043861885597 25 668 27 285 28 611
237 0.7711766202607399 0.06529648378527579 -0.3853460946643884 64 70 64 1.1430775383634366 25 739 27 300 28 650
238 0.7657634554807173 0.09149116954549359 -0.3838068897704608 37 37 37 0.14784346213765723 25 453 28 406
239 0.7648739675647446 0.08056129848689873 -0.38750301894803807 27 24 21 1.7245217478415882 25 571 28 520 26 389
240 0.7709972090324358 0.07417027103817521 -0.38692980044352143 41 44 43 0.2202064423795635 25 665 28 573
241 0.7632794583725062 0.056452048943365016 -0.3863622639409822 62 62 62 0.5155109287817786 25 774 28 720
242 0.7632794583725062 0.056452048943365016 -0.3863622639409822 62 62 62 0.5155109287817786 25 775 28 721
243 0.7645341943215793 0.055323323173419814 -0.3846879621367116 29 26 23 0.1913088666741459 25 788 28 728
244 0.7661704091919594 0.04522555218260733 -0.38680658126736983 25 25 25 0.714146517552304 25 870 28 808
245 0.7690916119836924 0.04614193626042256 -0.38538906221922087 48 43 39 0.6575026494364528 25 877 28 801
246 0.7639449114832151 0.04189356432697791 -0.3857622933718019 68 67 67 0.6967577174725592 25 880 28 830
247 0.7639449114832151 0.04189356432697791 -0.3857622933718019 68 67 67 0.6967577174725592 25 881 28 831
248 0.7654784584701044 0.04191229436034701 -0.3868533132787238 30 27 24 0.6873285510214412 25 895 28 832
249 0.7639654414166109 0.04037506506405611 -0.3874697698787564 41 38 33 0.9300781849359829 25 903 28 845
250 0.7636660184480257 0.035311442289876344 -0.38745286034320836 33 30 27 1.1014625780639575 25 945 28 909
251 0.7672035172212804 0.03689920731806008 -0.3867248357388289 24 23 23 1.0708552056714773 25 948 28 886
252 0.7687652573164094 0.02872903031237653 -0.3870021230875042 29 24 22 1.2062877645875294 25 1012 28 967
253 0.7658218933070615 0.023414084941817386 -0.3879285353433761 56 56 50 1.2947082360753353 25 1050 28 1005
254 0.8304626958022534 0.05939108616907352 -0.38180966648336306 143 146 149 0.2429379218937431 25 1054 28 707 30 1005
255 0.830486179408106 0.05942550920024268 -0.3822287508394618 143 146 149 0.8916711081735569 25 1055 28 708 26 583 30 1006
256 0.7668292982049825 0.01945365141494442 -0.38704261135591583 26 26 23 1.2356467429495472 25 1082 28 1045
257 0.7694352807386582 0.02046587235726765 -0.38732625454484904 26 26 22 1.4918908048858588 25 1087 28 1038
258 0.8295786107689098 0.052668299109526494 -0.3815787513049558 176 176 177 0.028352380209251037 25 1094 28 758
259 0.8332668893187857 0.05049761192518307 -0.3827026503386487 172 174 172 0.1842540813696957 25 1142 28 768
260 0.8324267664500062 0.04490494046855752 -0.38318818015503436 133 130 129 0.09104990742100831 25 1179 28 813
261 0.832251320332031 0.040489266585856984 -0.3830361295798517 165 165 165 0.3228889512846329 25 1203 28 846
262 0.8315103382477932 0.03725768980042846 -0.3829196912005318 170 175 175 0.3002490958852197 25 1219 28 880 30 1153
263 0.8794179767784301 0.05668954119313729 -0.3845137596650606 173 176 175 0.2388308208437376 25 1256 28 737
264 0.9171688457500359 0.05173400472769784 -0.38510220657979366 31 37 37 0.24051355633120194 25 1398 28 772
265 0.8853580105286054 0.02003353833037311 -0.3851795238793047 23 28 25 0.3101149713072916 25 1493 28 1032 29 823
266 0.8348522988792197 -0.015155834935726923 -0.3838057333738464 164 170 170 0.4874873628694566 25 1569 28 1266
267 0.9861211201246405 0.0439248130745561 -0.386243467276619 56 67 66 0.06654424728047616 25 1630 28 833
268 0.9858620766923072 0.041779117467559274 -0.38689964457440384 60 67 68 0.3777291601401159 25 1642 28 847
269 0.9976892879536617 0.0267736973063959 -0.38559215521664786 73 83 83 0.580801572968012 25 1803 28 971
270 0.9784460338726747 -0.00641187153286809 -0.3883358630324643 63 71 70 0.3731629503727796 25 1926 28 1202
271 0.7720438517906478 0.12614174066133094 -0.39111817223016343 33 32 32 0.9847039124669295 26 233 28 277
272 0.7685121233251405 0.12548184930565173 -0.3989750712630733 20 17 12 1.6795371592952382 26 243 28 286
273 0.7639693686161717 0.12437850058366584 -0.4025770619082416 31 35 30 1.693909891734286 26 251 28 288
274 0.7677398941229905 0.12071029655678796 -0.40089883723018643 36 37 33 1.3586884539154882 26 265 28 308
275 0.7735770512595501 0.10420276938398691 -0.3947805625890528 40 42 37 0.6973426447003122 26 327 28 345
276 0.7605373768756051 0.0924465217546224 -0.3922689518863959 35 39 32 0.6134217737431373 26 355 28 419
277 0.7611709718504691 0.08326306381410113 -0.39499420516148886 44 44 43 0.9201764270832941 26 380 28 508
278 0.7611709718504691 0.08326306381410113 -0.39499420516148886 44 44 43 0.9201764270832941 26 381 28 509
279 0.7620499273307815 0.08219118008064191 -0.39634374228979097 45 46 42 0.8942984931249641 26 386 28 524
280 0.8312688580794125 0.09955631708124608 -0.39071183332391424 185 188 189 0.4337775040287229 26 414 28 393 29 482
281 0.7754031545984235 0.07722562988409339 -0.39495395749983525 53 52 52 0.37429309513311326 26 424 28 568
282 0.8327936092942103 0.09197789786744445 -0.38982073858188065 125 125 128 0.07554614537384872 26 446 28 452
283 0.7747283274524495 0.06730899394200669 -0.39269341616747466 20 20 16 0.22251170431923323 26 461 28 645
284 0.7677434557684748 0.06174769933971256 -0.3953879871699077 58 57 55 0.48913948040694666 26 478 28 695
285 0.7684075438551393 0.058320359131429626 -0.39242039382474686 61 61 59 0.27089626324593125 26 498 28 717
286 0.7690146993825893 0.0538061403030732 -0.3945925281183729 64 65 61 0.38045576936101294 26 513 28 755
287 0.8347301796108854 0.0739936075204122 -0.3886613307809859 183 183 183 0.3441695952791973 26 520 28 606 29 592
288 0.7670736213848148 0.041453069087760586 -0.39190428869792543 47 48 44 0.151878542013526 26 566 28 844
289 0.771317758502047 0.03736738684675676 -0.3946547273425771 21 19 16 0.1819419244352653 26 609 28 893
290 0.8736896359001174 0.06822188480907614 -0.3882662291097487 176 184 185 0.10546539468254716 26 620 28 665
291 1.0044693859331595 0.09683954136307282 -0.3885402182799687 86 92 92 0.09426373419572352 26 680 28 482
292 0.8333498686177843 0.024761306876219028 -0.3870201947583389 113 113 114 0.16006410519387446 26 809 28 998
293 0.8326045235257913 0.005204223955173703 -0.386044323230305 173 179 181 0.2382496975285186 26 907 28 1156
294 1.000532302998535 0.040053502259770155 -0.38500734031936834 77 85 84 0.2517138619378577 26 955 28 862
295 0.8320841823670013 -0.03274143297967364 -0.38709861827367936 169 173 175 0.2676333412461404 26 1136 28 1353
296 0.9826523529012999 -0.011488029678992949 -0.38501324855357516 51 56 58 0.21483442449913848 26 1174 28 1223
297 0.9203819091216112 -0.10159157785464488 -0.3869023489317991 28 34 34 0.20091809586530682 26 1439 28 1557
298 0.9854789402317496 -0.16210785424530014 -0.3860584359172827 30 29 29 0.27730520616631227 26 1504 28 1591
299 0.9483454925850355 -0.04302305723850278 -0.38183936505386046 36 39 42 0.2197922032868415 26 1288 29 1050
300 0.768185087315807 0.11150610145492065 -0.38536762340856723 34 34 33 0.7119325400458083 27 153 28 319
301 0.7615586135423219 0.08510568387532748 -0.3933515272756427 52 53 49 0.7723523782844792 27 245 28 480
302 0.7668398629161398 0.06254760520751652 -0.38988246426663864 50 51 47 0.25419747808403925 27 304 28 686
303 0.9265997779751213 0.06775725451865795 -0.38410053586021153 187 191 190 0.27035256987462675 27 529 28 677
304 0.8299088721464225 0.03687260062277907 -0.38382289033563705 180 183 183 0.012927468837096322 27 538 28 888
305 0.9114209744935154 0.05711247148188738 -0.3854000323882168 33 39 39 0.26247936220433155 27 565 28 739
306 0.8339333379940764 0.020613597113802243 -0.38471960566918256 177 174 172 0.08845982305407121 27 650 28 1033
307 0.8945066529400094 0.03586812864001677 -0.3791948687355676 173 181 178 1.232585078148748 27 664 28 899 30 1145 31 1427
308 0.9943740870245865 0.04168270709616565 -0.3859285223409699 78 89 89 0.2675738251641234 27 759 28 849
309 0.9996149530097964 0.042864145250081566 -0.383215250668712 67 77 77 0.024597521555616304 27 760 28 835
310 0.9897279014015411 0.03866023054542457 -0.3852718279092452 75 83 82 0.33143525378324984 27 776 28 873
311 0.9916998754568566 0.03718442869890854 -0.38578964182810277 63 71 72 0.16154605611520428 27 795 28 894
312 0.854916142375754 -0.012684932798087587 -0.3871006493083112 23 26 25 0.05499966529523279 27 892 28 1256
313 0.944506852903199 -0.011625066339010167 -0.3869063042628912 36 42 44 0.019968637971940897 27 981 28 1231
314 0.9763437245796918 -0.006295412546968195 -0.3853599663325537 54 62 63 0.4350607923809725 27 987 28 1203
315 0.8330626940367358 0.11334220847772616 -0.38515653627159535 144 140 142 0.2143637929357143 27 236 29 439
316 0.8303609062340419 0.08274387634807047 -0.38611372693979384 188 188 188 0.12905007004794208 27 314 29 540
317 0.9887931476259344 -0.1512516742717102 -0.3872299534620194 29 29 29 0.7141672854771516 27 1300 29 1222
318 0.9995804889797393 -0.15543988129774736 -0.3853388640901146 27 27 27 0.5637773083388515 27 1309 29 1229
319 0.9338864289822881 0.01269395378770632 -0.3805048372097159 178 184 183 0.743087803111687 27 861 30 1292
320 0.8299224318025554 0.09664983930178254 -0.3873115911289195 189 192 193 0.21627307062943155 28 407 29 490
321 0.8346389175815756 0.07390721730119151 -0.3881639275050975 186 188 187 0.4049238779547145 28 605 29 591
322 0.8848255968149548 0.020030104257898612 -0.3836966142100108 23 28 25 0.10347965170916604 28 1031 29 822
323 0.9411658890142318 -0.03680085226836909 -0.3808855804933965 33 41 40 0.39972917459530505 28 1338 29 1022
324 0.9921335210575141 -0.15087405404841328 -0.3739824282158647 36 37 36 1.314757385968181 28 1576 29 1230
325 0.8322991294997406 0.09736411532836312 -0.3824762218016879 190 189 190 0.08103941044093277 28 392 30 697
326 0.8298756613883912 0.09515802425406923 -0.3830442242525285 184 186 187 0.10511054837745823 28 409 30 720
327 0.878165443999017 0.08778880173444736 -0.3821912141755498 31 34 33 0.13272821063621523 28 488 30 771
328 0.9716344926646017 0.051548922879048845 -0.3796743261697707 191 191 191 0.5143526946177743 28 779 30 1037 31 1196
329 0.9088080395560479 -0.011391312746006332 -0.37909262164473334 168 174 172 0.4925022003476671 28 1240 30 1479 31 1732
330 0.8349383126052247 -0.03399535141367064 -0.3814364293317384 161 167 165 0.07109555287522197 28 1364 30 1657
331 0.9456437506510021 -0.04195281503773813 -0.3773501121699796 30 33 36 0.10728196691669355 28 1369 30 1643
332 0.9345009237508702 -0.05808384948907761 -0.37685625522322275 27 32 34 0.12582189940361688 28 1450 30 1716
333 0.9832855323566698 -0.14952733659173875 -0.37706143923623975 14 18 15 0.16455282856703693 28 1571 30 1850
334 0.8544609865004292 0.05867607894014099 -0.3754462191125385 31 34 33 0.8518917256269225 28 710 31 1314
335 0.8302704947538156 0.0052133619921957515 -0.3750261184307347 176 182 183 0.5036579700078858 28 1155 31 1755
336 0.9088788728641153 -0.03716324807988989 -0.3789514916589773 166 172 170 0.9690820614508269 28 1351 31 1935
337 0.9148464896140744 -0.04246142048095037 -0.37852395669151934 179 182 183 1.6719923986411729 28 1381 31 1962
338 0.8830106992914198 -0.0057461272028948044 -0.37494111254114465 19 25 23 0.958347714292729 29 920 30 1452 31 1740
339 0.853964102094935 -0.034660576354985394 -0.37684196965756367 22 25 24 0.3529586396732219 29 1047 30 1653
340 0.9411954048283468 -0.04265260506312051 -0.3806712987694854 185 188 189 0.8345754468809282 29 1051 31 1907
341 0.9646195559455565 0.10774689565134654 -0.37121369644409913 46 46 49 0.3478062301612206 30 648 31 756
342 1.0992178933482082 0.10255403298138614 -0.3812290594928207 99 93 96 0.3492646473495197 30 707 31 698
343 1.082199988128637 0.10178533108324826 -0.3810493959710947 91 90 92 0.23600751632765285 30 714 31 715
344 1.0943026528322919 0.09736926439759239 -0.3803604236306523 108 107 107 0.28415865519470235 30 729 31 737
345 1.0743611607679058 0.09551545941309814 -0.38023349300021037 149 154 154 0.17373834695781892 30 738 31 764
346 1.0913716934088236 0.09450730556869466 -0.38115108670261594 107 106 106 0.25013336862369623 30 752 31 759
347 1.0815758810394513 0.09340082318852827 -0.37832603698815787 158 161 162 0.07551384511046987 30 756 31 766
348 1.0849659146892137 0.09019138083737094 -0.37970334047656285 169 174 174 0.180779328014073 30 773 31 790
349 0.9744192131263756 0.08644974468163551 -0.3721832221847466 33 41 38 0.689828821763441 30 785 31 908
350 1.0962637443905106 0.08971254223871318 -0.37911736842746696 163 166 165 0.25512179377347205 30 786 31 779
351 1.089534537430571 0.08849155145118856 -0.38043590977612357 169 169 169 0.2582762329941457 30 795 31 801
352 1.0941558701219063 0.0883563630428078 -0.38010049083165065 91 91 93 0.18516443498286883 30 796 31 796
353 1.080566152953848 0.08796307218166291 -0.38151253124528334 160 165 166 0.2692567667218335 30 800 31 815
354 1.0896802254565277 0.08556351254874558 -0.38057142406968875 166 169 169 0.14984762989560918 30 809 31 819
355 1.076804746525883 0.08266576316770625 -0.37643313934258854 149 155 155 0.2529173090831523 30 823 31 835
356 0.882047566562492 0.07930051517997652 -0.37158442384692897 29 32 35 0.25321217771168625 30 828 31 1092
357 1.0961605017766545 0.08128056444924124 -0.3809073446123792 107 106 107 0.18761279423490357 30 841 31 842
358 1.0961605017766545 0.08128056444924124 -0.3809073446123792 107 106 107 0.18761279423490357 30 842 31 843
359 1.0962698360941387 0.0810803392569568 -0.38384288562767194 172 177 177 0.32159271697426994 30 846 31 856
360 1.0784054765126305 0.080298263948113 -0.3815872363754151 98 99 95 0.14987281473722544 30 847 31 875
361 1.0899927851189541 0.07646380041296226 -0.37836380436514333 107 107 111 0.11139029169571665 30 863 31 879
362 1.0933598294315918 0.07655200993059771 -0.3797119174266114 165 170 170 0.16007163500227173 30 865 31 880
363 1.0813106765657563 0.0763981176071139 -0.3792216560192741 117 113 117 0.37606290940356163 30 866 31 890
364 1.0800982071332232 0.07554775817533498 -0.38096753202017264 157 165 164 0.01274094479576053 30 877 31 898
365 1.0867365970351337 0.07323749890527656 -0.3822139175362644 109 109 112 0.13433877667041585 30 890 31 907
366 1.0926611752871604 0.07103174478856508 -0.38120705115897235 112 112 116 0.17088512875990444 30 912 31 911
367 1.0870060262550891 0.07099723487194151 -0.3808164450072707 170 175 177 0.019079273362577732 30 913 31 921
368 1.090374618598948 0.0712413855795743 -0.3827780670978495 166 169 170 0.1828051090929493 30 914 31 922
369 1.1008316604722705 0.06907358231139603 -0.3823980064486345 164 166 164 0.3021061773376784 30 930 31 923
370 1.0945493561444426 0.06851519629205739 -0.3833745781204292 128 129 131 0.24930331855573643 30 935 31 932
371 1.093606966300579 0.06444825434388998 -0.378992575245288 158 163 162 0.08516854251758071 30 961 31 944
372 1.098248882051697 0.06479456917900979 -0.38220743272912044 111 114 114 0.11810727022304188 30 962 31 948
373 1.0827896912170802 0.06373625195341642 -0.38328584616178624 149 153 152 0.15171360792790306 30 971 31 982
374 1.0946684824352393 0.0634927878495 -0.3829403130574311 109 109 112 0.11700408646394819 30 972 31 964
375 1.0946684824352393 0.0634927878495 -0.3829403130574311 109 109 112 0.11700408646394819 30 973 31 965
376 1.090465246581249 0.06291516530962493 -0.38228535747885894 153 159 159 0.2250028505573002 30 978 31 971
377 1.0993654739949215 0.05996876635760482 -0.38258369622558674 109 108 110 0.07227218031230638 30 993 31 985
378 1.0993654739949215 0.05996876635760482 -0.38258369622558674 109 108 110 0.07227218031230638 30 994 31 986
379 1.0938713684577448 0.05812195456532287 -0.38083259091633004 135 138 139 0.011092521861701773 30 998 31 1002
380 1.0883115246924002 0.05650596602608618 -0.3825204267502114 111 112 112 0.11319763043609948 30 1007 31 1023
381 1.1007502588711042 0.05560710811447943 -0.3815319000886072 163 166 160 0.031036041934885846 30 1010 31 1013
382 1.0939713626210377 0.05438773687276381 -0.38338011238324093 163 167 167 0.14069552401037427 30 1018 31 1029
383 0.8818682409462919 0.054447823107822965 -0.3702184114246048 25 31 31 0.16711083584935021 30 1024 31 1297
384 1.0977414998636226 0.05249020692610336 -0.38239522867291587 165 165 167 0.014616159531120857 30 1028 31 1032
385 1.0953032689675146 0.05051022525016906 -0.3820757411238569 96 95 100 0.010183621193195786 30 1034 31 1048
386 1.0900640609703118 0.05054395079278728 -0.3826850641716841 157 163 161 0.1660648871243244 30 1035 31 1056
387 1.0847150082415256 0.04944840584522781 -0.3825328881397005 98 97 99 0.11507360795667838 30 1040 31 1066
388 1.0936199190161708 0.048949816482562136 -0.38157232215304526 159 159 162 0.08941290305774785 30 1041 31 1058
389 0.9385829022983436 0.05005066235508796 -0.37542020353652816 29 32 31 0.008268599200460134 30 1046 31 1241
390 0.9385829022983436 0.05005066235508796 -0.37542020353652816 29 32 31 0.008268599200460134 30 1047 31 1242
391 1.0768977923868208 0.04656091171546404 -0.38472589637350396 148 156 155 0.17796553852926605 30 1060 31 1112
392 1.0845483795932929 0.04529988386538828 -0.38222024672730076 87 87 91 0.12212409181152745 30 1061 31 1105
393 1.090125015770606 0.04502536990059587 -0.38460156478409163 100 104 107 0.11679893045342964 30 1066 31 1108
394 1.0915165104629907 0.04226171086803157 -0.3841600750388203 152 160 159 0.06636371400721025 30 1083 31 1122
395 1.0952690905761422 0.04044484202064502 -0.38351578289255656 156 162 162 0.07190096888943294 30 1094 31 1126
396 1.0948975976045525 0.034403116405453994 -0.38255817944347725 163 166 169 0.046913692438618856 30 1119 31 1160
397 1.0971198741042623 0.03426800278793292 -0.38325111501999565 101 102 106 0.08708385761724134 30 1121 31 1158
398 1.0971198741042623 0.03426800278793292 -0.38325111501999565 101 102 106 0.08708385761724134 30 1122 31 1159
399 1.0848873963989405 0.03129241173426273 -0.3814244040494151 99 99 101 0.25860183299488704 30 1137 31 1193
400 1.0879717811805876 0.02901012503497036 -0.38327845584623815 166 169 167 0.17370355327116066 30 1154 31 1214
401 1.0879717811805876 0.02901012503497036 -0.38327845584623815 166 169 167 0.17370355327116066 30 1155 31 1215
402 1.0844357460462097 0.022853178745432755 -0.3885799230135854 104 107 110 0.09741076780412788 30 1184 31 1261
403 1.0880026881342013 0.0220940010029785 -0.3831118736010875 148 154 154 0.37423093186534623 30 1187 31 1251
404 1.081292353839556 0.020744480192429075 -0.388275994696017 146 152 152 0.0005712482685816692 30 1198 31 1284
405 1.0783343718900056 0.019221113859669372 -0.3852842901711596 147 153 153 0.22913557209177005 30 1213 31 1298
406 1.0987487189989689 0.014459354973948593 -0.3855203633329848 153 153 154 0.11522737441969653 30 1240 31 1301
407 1.0836956846377723 0.014953595111234964 -0.38612599030241124 84 87 88 0.1407366604902259 30 1242 31 1321
408 1.0924981933471 0.013488347528629542 -0.38462573374325065 102 101 104 0.23509136456086432 30 1248 31 1312
409 1.09417743801236 0.009716958905883644 -0.38406398753833404 162 165 165 0.3697141711423474 30 1264 31 1335
410 1.0883810393291475 0.009165073369156725 -0.3857272519042842 102 101 103 0.23148403196417539 30 1271 31 1350
411 1.08747415732757 0.008197411651032922 -0.3880184503354643 149 152 153 0.16637840054271955 30 1279 31 1358
412 1.0953856077393236 0.007504479998678602 -0.3882268608985283 92 90 92 0.03157705496711882 30 1283 31 1355
413 1.0882005381512043 0.005248897759967847 -0.387307029968663 149 154 153 0.04466187772220654 30 1293 31 1380
414 1.096440520612215 0.004584582662725543 -0.386248171800319 161 165 164 0.2496445281364273 30 1294 31 1365
415 1.0861808520162468 0.004387685083933379 -0.38612430517826 146 152 150 0.18785159413624417 30 1297 31 1385
416 1.087233519984867 0.003492022311919724 -0.3841901010981218 89 85 88 0.4455573577489453 30 1302 31 1386
417 1.090504392776119 0.0022938247740114472 -0.3864273025232597 160 162 161 0.32958732864562595 30 1307 31 1392
418 1.0880210433210875 0.0015550184192293771 -0.38519906935043996 93 89 92 0.4077391055141119 30 1313 31 1400
419 1.0880210433210875 0.0015550184192293771 -0.38519906935043996 93 89 92 0.4077391055141119 30 1314 31 1401
420 1.0954094023540875 -0.0005640495700794608 -0.38738808546137043 107 106 109 0.20245795819670653 30 1333 31 1405
421 0.9893394031074565 0.0014418315050372865 -0.38121942595348907 171 177 177 0.4651887075812067 30 1358 31 1506
422 0.9720742441549528 -0.0051048668476042225 -0.38086454617256493 30 36 34 0.5459358622913466 30 1412 31 1569
423 0.9155029753308015 -0.0115031056211075 -0.3813047753517596 25 28 29 0.28836717556231883 30 1472 31 1715
424 0.9546518729361866 -0.030098540043870883 -0.38355042989389654 163 171 170 0.0819502452649333 30 1566 31 1780
425 0.9377474254107929 -0.06289723444243789 -0.3870170215992666 29 32 31 0.3902948853870349 30 1725 31 2033
426 0.922256876523087 -0.06446849665392063 -0.3877189025277235 32 31 33 0.5816361038637693 30 1737 31 2055
427 0.922256876523087 -0.06446849665392063 -0.3877189025277235 32 31 33 0.5816361038637693 30 1739 31 2057
428 1.0061105231319258 -0.07874141919054113 -0.39040622327710806 29 35 35 0.210329164105294 30 1752 31 2014
429 0.943237204343526 -0.07515866842149438 -0.38808433681441673 29 29 32 0.034060219585446465 30 1764 31 2068
430 0.9567074906839318 -0.0932417718400115 -0.38991264837372713 40 38 54 1.2519612745853128 30 1808 31 2112
431 0.9852485384814951 -0.10231486048559803 -0.39363556936590566 34 40 40 0.23246454675545944 30 1816 31 2111
432 0.9445137753825806 -0.10234239172528403 -0.3936560427820649 32 32 33 0.4190845940948153 30 1819 31 2138
433 0.9197486220231599 -0.10302509892822442 -0.39580493137365075 29 32 31 1.558778903685632 30 1826 31 2143
434 1.0104481981971358 -0.16717946720385182 -0.402695156708645 19 19 19 0.2545712176687622 30 1855 31 2183
435 1.0034231982738282 -0.17145951933505382 -0.4034287996007034 15 19 14 0.5052148304817712 30 1865 31 2202
