# 3D point list with one line of data per point:
#   POINT3D_ID, X, Y, Z, R, G, B, ERROR, TRACK[] as (IMAGE_ID, POINT2D_IDX)
# Number of points: 428
1101 0.8839914442849239 -0.037040141964189054 -0.37938336443467174 167 170 169 0.08339337428485163 14 1023 22 1324
1102 0.9469095414057654 0.08200983934589012 -0.38259962866462477 43 46 49 0.19556415123867424 14 394 23 1272
1103 0.8725521436216894 0.07507472996235896 -0.38338374263082414 29 35 37 0.6103630362354925 14 414 23 1365
1104 0.9400902881895536 0.019696900964490272 -0.3798384074958197 175 178 177 0.031011825880691117 14 735 23 1721
1105 0.9153384723315771 0.019442552222428813 -0.3816152610199059 190 196 196 0.14081371261536377 14 738 23 1741
1106 0.9153384723315771 0.019442552222428813 -0.3816152610199059 190 196 196 0.14081371261536377 14 739 23 1740
1107 0.9095165164119978 0.019315618390256188 -0.38186771967288485 33 33 33 0.1650552691726023 14 741 23 1749
1108 0.894897807720157 -0.018506292549165266 -0.38078489244115427 186 187 182 0.054812126639178047 14 931 23 2028
1109 0.831687394382193 0.12206408485166836 -0.3857752417100381 189 188 188 0.5177921885453648 15 450 16 188 20 523
1110 0.8332250358236616 0.08954094447284505 -0.38318717832430493 189 189 191 0.28334799663572957 15 558 16 291
1111 0.884116261233263 0.08689841548952429 -0.3836755768754474 182 188 190 0.11729872704263036 15 595 16 354
1112 0.8786246096097996 0.08128608927242874 -0.3839136283279227 183 186 187 0.12563901371858202 15 630 16 378
1113 0.9331054447971229 0.07149578608076909 -0.3815921932993894 183 186 185 0.0735053836428493 15 702 16 468 18 250
1114 0.9150475289592828 0.05567275072943657 -0.3814767899657367 176 184 183 0.01908239577972887 15 787 16 553
1115 0.9150475289592828 0.05567275072943657 -0.3814767899657367 176 184 183 0.01908239577972887 15 788 16 554
1116 0.9470528239482187 0.02488037385995382 -0.3815696931859755 181 189 186 0.14991154509447763 15 944 16 730 23 1675
1117 0.8780351666480465 -0.03690035662728814 -0.37965714125328237 20 22 21 0.07552351301682662 15 1267 16 1046
1118 0.8780351666480465 -0.03690035662728814 -0.37965714125328237 20 22 21 0.07552351301682662 15 1268 16 1047
1119 0.9338203433573548 -0.05702853171453958 -0.3804871821688486 29 28 35 0.04653388612470101 15 1312 16 1108
1120 0.9338203433573548 -0.05702853171453958 -0.3804871821688486 29 28 35 0.04653388612470101 15 1313 16 1109
1121 0.9354891233364487 -0.05879326154486131 -0.37928220573714927 23 23 23 0.05059383709100962 15 1323 16 1118
1122 0.9259372129068424 0.07482844890057794 -0.38237141696788796 179 188 187 0.08812040313637987 15 681 17 456
1123 0.9514534624384097 0.029795412391644197 -0.3811958033533404 33 39 39 0.09368097002422925 15 917 17 690
1124 0.9514534624384097 0.029795412391644197 -0.3811958033533404 33 39 39 0.09368097002422925 15 918 17 691
1125 0.834327933616647 0.01013172354382953 -0.38231570417460664 172 175 176 0.008570330418712246 15 1035 17 761
1126 0.8321954188494861 -0.002284097186380146 -0.3829957995053508 163 166 165 0.03934824527482301 15 1110 17 838
1127 0.9532223704104847 -0.030178449588302052 -0.3798054906649179 184 187 186 0.017699979573817144 15 1200 17 1017
1128 0.8331560995176077 -0.025235462843444547 -0.3832814992725216 160 164 163 0.08183359028237405 15 1232 17 978
1129 0.929905354901746 0.07414913644600964 -0.3819625482063817 39 39 35 0.07747339603487395 15 687 18 234 20 1013
1130 0.929905354901746 0.07414913644600964 -0.3819625482063817 39 39 35 0.07747339603487395 15 688 18 235 20 1014
1131 0.8709014736020891 0.06942905299884972 -0.38261953714815927 34 35 35 0.47443694768586375 15 698 18 203
1132 0.8603813141681348 -0.06173207204086072 -0.3819867848191669 160 160 161 0.11821645884884298 15 1361 18 971
1133 0.8315143738492182 0.10757633909679962 -0.3842926461904473 186 185 187 0.4549049657837887 15 488 20 543 16 225
1134 0.8312266232492859 0.09116421348322602 -0.38024478827378383 190 196 198 0.21968324470507616 15 550 20 575
1135 0.909529737051263 0.08150308598067457 -0.38245774611678346 28 31 30 0.011927247754147866 15 638 20 919
1136 0.909529737051263 0.08150308598067457 -0.38245774611678346 28 31 30 0.011927247754147866 15 639 20 920
1137 0.9140697351496228 0.08087594953343762 -0.37935081580815044 182 188 188 0.03642526081214237 15 641 20 932
1138 0.915626533234073 0.08160188973217287 -0.3830112143980853 195 201 203 0.24226448563864625 15 642 20 933 16 401 23 1284
1139 0.8678726573368641 0.07044915736563577 -0.3834069703735856 186 185 185 0.3548767582589137 15 690 20 886 18 198
1140 0.8668064993599157 0.06976842989802516 -0.37927499449956403 177 185 185 0.15896275111014682 15 691 20 887
1141 0.9580439140584491 0.06835684481450251 -0.3809446058180272 27 33 31 0.4242596571352669 15 730 20 1132 17 504
1142 0.8588572253350888 0.061816178933897896 -0.3792892383486575 180 180 182 0.18077067485331447 15 744 20 911
1143 0.9220256394031634 0.06332538387622937 -0.3806141620431263 44 33 23 0.1732669427915726 15 752 20 1073 28 691
1144 0.9220256394031634 0.06332538387622937 -0.3806141620431263 44 33 23 0.1732669427915726 15 753 20 1074 28 692
1145 0.8559089849402688 0.05865983136051824 -0.37973318679765056 41 44 47 0.17143879774873932 15 763 20 925 21 818
1146 0.8298444540700467 0.04989970765952032 -0.38213325162426054 181 184 185 0.22499104884131635 15 807 20 912
1147 0.9056564736447288 0.03186101045859556 -0.3922193269143104 184 190 190 0.47922547525495424 15 909 20 1239
1148 0.8310422608676767 0.02423645004722249 -0.37969893413064754 140 140 143 0.02430169525792859 15 958 20 1129
1149 0.957946269545659 -0.023354834981076877 -0.3800674552632313 181 187 185 0.4552326780865698 15 1171 20 1778 19 705 25 1987
1150 0.957946269545659 -0.023354834981076877 -0.3800674552632313 181 187 185 0.4552326780865698 15 1172 20 1779 19 706 25 1988
1151 0.83034369822117 0.0829711935948089 -0.37841562263698936 147 147 148 0.14494402151202224 15 583 21 597
1152 0.8774960400868675 0.08548717986385247 -0.3787316895660683 25 28 24 0.032328709279076155 15 593 21 648
1153 0.8774960400868675 0.08548717986385247 -0.3787316895660683 25 28 24 0.032328709279076155 15 594 21 647
1154 0.8322305976272257 0.08076204069950987 -0.37378849350285875 140 137 136 0.12263807358142764 15 599 21 608
1155 0.9254291529908208 0.06236215235826897 -0.38047747626536305 178 186 183 0.11443628348335849 15 755 21 896
1156 0.8331117026738987 0.04708835038255147 -0.3792107329309904 180 180 182 0.1299504714459591 15 831 21 866
1157 0.914344435509876 0.019541179841181644 -0.37914217438968156 168 174 172 0.01840393980934322 15 974 21 1246
1158 0.914344435509876 0.019541179841181644 -0.37914217438968156 168 174 172 0.01840393980934322 15 975 21 1247
1159 0.9359142824457628 0.016049210775864475 -0.37911658880107985 32 35 36 0.07911367320775663 15 990 21 1295
1160 0.935052843624581 0.00027172709907005433 -0.3831561642992439 181 187 185 0.06263870577241486 15 1073 21 1414
1161 0.935052843624581 0.00027172709907005433 -0.3831561642992439 181 187 185 0.06263870577241486 15 1074 21 1415
1162 0.8731324254858664 -0.05901704877432089 -0.387401829529201 32 28 29 0.18836864205267062 15 1340 21 1747
1163 0.8731324254858664 -0.05901704877432089 -0.387401829529201 32 28 29 0.18836864205267062 15 1341 21 1748
1164 1.075841552789102 0.12450408220220874 -0.38069198156067485 121 121 121 0.31242589386190656 15 512 22 369
1165 0.8910212212395761 0.09371496058540472 -0.38240676309576116 194 194 196 0.00032953352517237154 15 563 22 468
1166 0.9461932139355824 0.08699253450107096 -0.3808871225953262 186 189 188 0.028153708067659457 15 624 22 532
1167 0.9924151878396166 0.0739478597368447 -0.37953907898388883 67 72 73 0.16350481509656206 15 703 22 632
1168 0.9924151878396166 0.0739478597368447 -0.37953907898388883 67 72 73 0.16350481509656206 15 704 22 633
1169 0.9224151257157761 0.0699207348284645 -0.3815574231091072 41 32 24 0.19383960656527569 15 710 22 659 24 398 27 504
1170 0.9224151257157761 0.0699207348284645 -0.3815574231091072 41 32 24 0.19383960656527569 15 711 22 660 24 399 27 505
1171 0.9398792455145104 0.05574369933910905 -0.3801206384103791 178 186 183 0.08507419679527115 15 794 22 751
1172 0.950303889267825 0.04686972764890943 -0.3810746840921862 39 45 47 0.12164137835610817 15 838 22 804
1173 0.9475176259121305 0.0196909867309226 -0.38277387085048215 31 38 37 0.16781369199356672 15 965 22 972
1174 0.86383613204593 1.1970872710791016e-05 -0.3815294848350784 176 179 180 0.16262638940312826 15 1096 22 1164
1175 0.86383613204593 1.1970872710791016e-05 -0.3815294848350784 176 179 180 0.16262638940312826 15 1097 22 1165
1176 0.9155095712840841 -0.0061802913463822814 -0.38115087822560595 159 168 165 0.16434441068392733 15 1103 22 1171
1177 0.9155095712840841 -0.0061802913463822814 -0.38115087822560595 159 168 165 0.16434441068392733 15 1104 22 1172
1178 0.9637101639626378 -0.019204426096071474 -0.37862917532411833 49 48 51 0.262560028568603 15 1152 22 1214
1179 0.8735490785569497 -0.04828960610848737 -0.3823850137579718 20 20 20 0.21441013817388913 15 1308 22 1378
1180 0.8735490785569497 -0.04828960610848737 -0.3823850137579718 20 20 20 0.21441013817388913 15 1309 22 1379
1181 0.8663392408533322 -0.0557845688791239 -0.3827065770191198 167 167 169 0.22990659506588695 15 1338 22 1409
1182 0.8951767168675722 -0.07766969661794636 -0.38186339523661456 20 22 23 0.2516293837670457 15 1389 22 1466
1183 0.9534228502297504 0.10825501834989809 -0.38282126814169454 40 46 46 0.19576978911227993 15 530 23 1093
1184 0.8905471658196008 0.039438945828918895 -0.3811270366334865 192 195 196 0.2864701599961066 15 868 23 1626
1185 0.9963188229084672 0.03467241489908949 -0.3794125294608769 55 63 62 0.48654561409141966 15 893 23 1570
1186 0.9191690822000592 0.015927226706048035 -0.38155232483945856 28 31 32 0.15061481796741005 15 993 23 1756 24 773
1187 0.9221286551297319 0.008752634172660395 -0.3807040467045979 47 45 47 0.09387256790100525 15 1027 23 1814
1188 0.9208630365882574 -0.0013140605863405915 -0.3823528174823422 33 36 35 0.10188857724873893 15 1084 23 1896 21 1413 26 1070
1189 0.9479164258057153 -0.005973997322243191 -0.382446679073551 37 43 43 0.10270818878573931 15 1099 23 1891
1190 0.8577562249394872 -0.0010108571209721717 -0.380921409269803 29 32 31 0.3671518530579115 15 1100 23 1974
1191 0.9066909207676016 -0.03433196285647094 -0.3817806968051616 32 31 31 0.15460891127683285 15 1242 23 2073
1192 0.9066909207676016 -0.03433196285647094 -0.3817806968051616 32 31 31 0.15460891127683285 15 1243 23 2074
1193 0.8877959436696187 -0.03357200484276395 -0.3796851870555529 34 30 32 0.5033202538024683 15 1248 23 2085 20 1745
1194 0.8877959436696187 -0.03357200484276395 -0.3796851870555529 34 30 32 0.5033202538024683 15 1249 23 2086 20 1744
1195 0.9901186005877475 -0.06479803343890427 -0.3804950810216952 39 44 49 0.38473263370394367 15 1315 23 2105
1196 0.9822421390098615 -0.0650423761809503 -0.3801978715145289 41 44 47 0.31752014814912977 15 1321 23 2113
1197 0.9822421390098615 -0.0650423761809503 -0.3801978715145289 41 44 47 0.31752014814912977 15 1322 23 2114
1198 0.831866826354123 0.13685799986754477 -0.38710141413376553 168 162 166 0.3914683683872076 16 127 17 208 24 104
1199 0.831914770679701 0.13153254367749667 -0.38736581303681017 188 185 185 0.20564094225061144 16 149 17 222
1200 0.831815970834357 0.09560291092411322 -0.38436172879789865 142 138 138 0.2197402065892271 16 268 17 283 25 791 26 419
1201 0.831815970834357 0.09560291092411322 -0.38436172879789865 142 138 138 0.2197402065892271 16 269 17 284 25 792 26 420
1202 1.078668122925156 0.09041528944804815 -0.38306535399044156 88 91 92 0.4201774777566735 16 437 17 481
1203 0.9259326859257049 0.06258859198710494 -0.3814582795915328 177 185 182 0.019552389889025343 16 513 17 510
1204 0.8951833341985712 0.0433097399583126 -0.3825678218559041 172 181 182 0.24161004616836687 16 606 17 598 18 383
1205 0.8950498689936564 0.043237988405335916 -0.38222081085381426 169 172 175 0.13699521060773256 16 607 17 600 19 319
1206 1.083324892244439 0.04993295636306487 -0.39332332481965365 103 103 104 0.24423878869984286 16 630 17 652
1207 0.9631296741401144 0.039578625458497364 -0.38021028849243793 179 185 183 0.022124781999655254 16 645 17 642
1208 0.9058124106993114 0.02813913067047362 -0.3814227959507515 25 26 22 0.09746071483066271 16 696 17 673 19 396
1209 0.9711698262032081 0.024856855823347616 -0.37950411474148044 181 187 185 0.01781068068920024 16 734 17 730
1210 0.9711698262032081 0.024856855823347616 -0.37950411474148044 181 187 185 0.01781068068920024 16 735 17 731
1211 0.9218316620833843 0.012471278608937174 -0.3807795923599574 163 169 167 0.11885879541013995 16 778 17 777 24 807
1212 0.9218316620833843 0.012471278608937174 -0.3807795923599574 163 169 167 0.11885879541013995 16 779 17 778 24 808
1213 0.8640670673537213 0.008146720729107259 -0.38294816735961557 30 30 30 0.18721027971218276 16 804 17 783 18 568
1214 0.8335077373028859 -0.007906063620381999 -0.38320519616139964 104 98 101 0.02386821386426131 16 895 17 868
1215 0.8336085791821073 -0.03258226066261297 -0.383535498447688 89 84 88 0.015503507378781667 16 1034 17 1038
1216 0.8319825668715505 -0.03807556596316135 -0.38377144892798426 88 87 89 0.024771171333717323 16 1071 17 1085
1217 0.8319825668715505 -0.03807556596316135 -0.38377144892798426 88 87 89 0.024771171333717323 16 1072 17 1086
1218 0.9265879874355215 -0.05022966669154574 -0.38047636307926097 41 47 47 0.18836094304312614 16 1086 17 1107 25 2110
1219 0.9265879874355215 -0.05022966669154574 -0.38047636307926097 41 47 47 0.18836094304312614 16 1087 17 1108 25 2109
1220 0.8882930721370325 -0.07742169180785304 -0.3815295716117701 18 21 22 0.17213158938261286 16 1184 17 1211
1221 0.8642504180975972 0.10182208212580607 -0.38653181348428156 21 26 24 0.10671884973659837 16 261 18 92
1222 0.8642504180975972 0.10182208212580607 -0.38653181348428156 21 26 24 0.10671884973659837 16 262 18 93
1223 0.8640348043666181 0.07006726365593911 -0.383313952530778 35 31 26 0.12566605452002258 16 433 18 196
1224 0.8640348043666181 0.07006726365593911 -0.383313952530778 35 31 26 0.12566605452002258 16 434 18 197
1225 0.832243468721494 0.03604722316375639 -0.383737884895849 117 113 114 0.4464229712451992 16 637 18 362
1226 0.8927869194023142 0.035396272858362963 -0.3836012010163937 173 181 180 0.019331724418294133 16 651 18 418
1227 0.9650859827750317 0.03194513310212947 -0.38070106412585075 179 182 181 0.1338854509107006 16 686 18 483 24 681
1228 0.9908090944781945 0.001508938245507652 -0.3795124709924756 179 185 183 0.015639677097982464 16 835 18 668
1229 0.8315185133161553 -0.0035679885986123045 -0.38304209510080983 92 92 95 0.4506385397127891 16 876 18 621
1230 0.8315185133161553 -0.0035679885986123045 -0.38304209510080983 92 92 95 0.4506385397127891 16 877 18 622
1231 0.8335684935548588 -0.01639648453656104 -0.38316298740479443 166 166 164 0.4355102893890518 16 947 18 710
1232 0.8336546426409615 0.13570949346466885 -0.38495635424935204 193 192 192 0.3384935040084056 16 129 19 27
1233 0.8318537335395906 0.09348309220143614 -0.38546246415856655 186 185 189 0.32868092581313474 16 278 19 76
1234 0.925641593945738 0.07460391877051088 -0.38166717321691 178 184 184 0.0033564141815585567 16 441 19 190
1235 0.8319898491266909 0.04982989820581132 -0.3836453985885272 185 185 188 0.3134582618532048 16 556 19 259
1236 0.9606292618459237 0.03174038967148422 -0.3798222824121576 49 52 53 0.08848488561377581 16 682 19 400 23 1614
1237 0.9606802390007111 0.0317747998536291 -0.3799838126281438 39 46 40 0.2202386712941057 16 683 19 401 23 1615 20 1388
1238 0.8320183709213701 -0.00726300975733085 -0.38294555744898606 102 100 102 0.29527406209237717 16 888 19 578
1239 0.8316616678707698 0.13943948397948833 -0.38525686258085917 181 169 169 0.5430854272104111 16 121 20 501 24 99 18 20
1240 0.9482176861570845 0.08260510834037658 -0.38494696428924013 37 40 40 0.07954897621315983 16 419 20 999
1241 0.9482176861570845 0.08260510834037658 -0.38494696428924013 37 40 40 0.07954897621315983 16 420 20 1000
1242 0.8321109217946366 0.04607838599957902 -0.38417223612487295 148 147 149 0.13363924344827535 16 573 20 940
1243 0.8321109217946366 0.04607838599957902 -0.38417223612487295 148 147 149 0.13363924344827535 16 574 20 941
1244 0.9796153613749377 0.05160685181965317 -0.38432550911155816 54 62 61 0.22772628534669068 16 588 20 1267
1245 0.831252365442632 0.031335239423025095 -0.3838321526732705 139 134 138 0.064131963192038 16 662 20 1052
1246 0.831252365442632 0.031335239423025095 -0.3838321526732705 139 134 138 0.064131963192038 16 663 20 1053
1247 0.831345064930272 0.02562449765470367 -0.3830125133391608 145 145 149 0.055237121622290906 16 699 20 1111
1248 0.9476651602937997 0.019882991050199354 -0.3833184446707562 51 56 59 0.09169593563763873 16 753 20 1458
1249 0.9808591021839669 0.008882197764177396 -0.37910487279456073 64 69 71 0.03368610586036559 16 795 20 1602
1250 0.8898693713021355 -0.016932325263632003 -0.3829211249896371 29 30 26 0.20593204041345328 16 940 20 1615
1251 0.8898693713021355 -0.016932325263632003 -0.3829211249896371 29 30 26 0.20593204041345328 16 941 20 1616
1252 0.9556213352980788 -0.02040201973286665 -0.3800988151361223 205 205 207 0.17855181116451188 16 943 20 1753
1253 0.8985224902548313 -0.02969759546087175 -0.38151057147241074 32 30 28 0.31788711368572314 16 996 20 1727 19 735
1254 0.8985224902548313 -0.02969759546087175 -0.38151057147241074 32 30 28 0.31788711368572314 16 997 20 1728 19 736
1255 0.9625803796967651 0.09438891967905072 -0.3816588088047461 180 185 179 0.35095709088394295 16 361 21 758
1256 0.831313493848791 0.05562250465386848 -0.3839379755445317 128 128 130 0.1821426636281706 16 517 21 791 24 407
1257 0.831313493848791 0.05562250465386848 -0.3839379755445317 128 128 130 0.1821426636281706 16 518 21 792 24 408
1258 0.9919888363159078 0.04114135455080552 -0.3809593147504373 53 64 62 0.5080834820564621 16 642 21 1139
1259 0.8330763132391246 0.03103330083419679 -0.3842573453736979 193 194 197 0.05111740630710279 16 666 21 1005
1260 0.8330763132391246 0.03103330083419679 -0.3842573453736979 193 194 197 0.05111740630710279 16 667 21 1007
1261 0.8710764342464593 0.007497976035033163 -0.38203047322826483 52 49 49 0.1127153275306407 16 807 21 1284 19 497 25 1530
1262 0.8710764342464593 0.007497976035033163 -0.38203047322826483 52 49 49 0.1127153275306407 16 808 21 1285 19 498 25 1531
1263 0.8606133385835406 0.001155679483258491 -0.3816453948749971 41 33 38 0.10660269503837656 16 848 21 1335
1264 0.8606133385835406 0.001155679483258491 -0.3816453948749971 41 33 38 0.10660269503837656 16 849 21 1336
1265 0.9280922147389631 -0.06049785164817389 -0.3780617930027022 179 179 181 0.5092505553215723 16 1127 21 1781
1266 0.9522074843660155 -0.07977260555004113 -0.3773102397870036 180 183 181 0.5391195423522572 16 1172 21 1835 25 2272
1267 0.9522074843660155 -0.07977260555004113 -0.3773102397870036 180 183 181 0.5391195423522572 16 1173 21 1836 25 2273
1268 0.9036592886533987 0.1067006623031292 -0.3875962491699699 183 186 187 0.06879718136509559 16 270 23 1129
1269 0.9644993418356086 0.1060239133463527 -0.3820574070024601 183 186 185 0.11850164994898692 16 298 23 1102
1270 0.8928959318184293 0.09570828994964263 -0.3882325218765008 181 184 183 0.15742749816948814 16 313 23 1207
1271 0.9524617530520395 0.09257901852969354 -0.3830035729980043 34 40 39 0.06716979172938331 16 363 23 1203
1272 0.9158117663069303 0.08172081127468929 -0.38356445754587637 179 185 183 0.015183687915809995 16 400 23 1283
1273 0.9973939244956938 0.08654095874518242 -0.3743741188091439 68 75 79 0.1360672577109883 16 404 23 1211
1274 0.9339295317453866 0.07487816507287304 -0.381890811805393 177 183 183 0.029899308638334583 16 446 23 1326
1275 0.9339295317453866 0.07487816507287304 -0.381890811805393 177 183 183 0.029899308638334583 16 447 23 1327
1276 0.9959996583524073 0.06990688568205114 -0.376063753321891 67 73 73 0.06830356483518052 16 499 23 1321
1277 0.875539295746314 0.06240884650460539 -0.39138995976386415 23 26 25 0.3661794086114518 16 504 23 1486
1278 0.9837310176577795 0.06132180070227339 -0.38240517418048675 57 63 63 0.20613091755507584 16 546 23 1415 20 1223
1279 0.9569391241889809 0.03974362632205127 -0.3805761118828015 45 48 51 0.026191355475129085 16 641 23 1567
1280 0.8566590988197165 0.015390848490571143 -0.38252420394329134 35 35 37 0.3658288416710539 16 761 23 1848
1281 1.0003229701150034 -0.011481850472219448 -0.3770397618466641 59 67 66 0.49592412286018417 16 889 23 1860 24 992 21 1573 25 2034
1282 0.9632262790592473 -0.015838766104374714 -0.3743959836593945 42 49 50 0.02727039916141033 16 921 23 1940
1283 0.831524980913046 0.1315075895105719 -0.38339674068881185 159 155 156 0.010977373734792347 16 141 24 110
1284 0.831524980913046 0.1315075895105719 -0.38339674068881185 159 155 156 0.010977373734792347 16 142 24 111
1285 0.8313872834780388 0.11633159854033129 -0.382587432924601 184 182 184 0.013665276267397853 16 204 24 130
1286 0.8313872834780388 0.11633159854033129 -0.382587432924601 184 182 184 0.013665276267397853 16 205 24 131
1287 0.8948795931462125 0.10537916123214908 -0.38292370395499964 182 185 184 0.0910847939274825 16 259 24 173
1288 0.8318540495912252 0.09141978354112056 -0.38494082609475627 135 131 133 0.23619000404342072 16 282 24 177 21 561
1289 0.8330942370277624 0.08219463048417518 -0.3818968798325795 144 137 134 0.05330536081286912 16 346 24 215
1290 0.9674273992920333 0.09060691074937167 -0.3805818439064071 47 51 48 0.16436375648341667 16 375 24 307
1291 0.9408790383021973 0.08729495705007269 -0.3824473373450592 35 38 37 0.25708447601122997 16 380 24 301 26 627
1292 0.8315908832385229 0.06862599494161883 -0.38224856888206765 186 186 188 0.07904324313103435 16 425 24 302
1293 0.9925456128898787 0.07392658968036536 -0.38006105082911085 72 73 73 0.27430453480159983 16 481 24 435
1294 0.8302099063284653 0.051522566766315156 -0.3838028449746258 181 184 185 0.07824588295094255 16 543 24 443
1295 0.960675408328153 0.028461530339377268 -0.3803019140323366 37 45 44 0.18136626635040143 16 701 24 701
1296 0.8604578918135481 0.005101784531616015 -0.38238641821317526 167 173 173 0.11125290195976935 16 816 24 837
1297 0.9845426529082595 0.001912665360156921 -0.3793120731207925 66 68 69 0.24308109523910457 16 833 24 903
1298 0.8315357226952994 -0.012781151751094007 -0.38309281306891235 121 120 122 0.12736625575099286 16 927 24 965
1299 0.9623126881616691 -0.01825464619315786 -0.3819766043592696 176 182 182 0.468160913815376 16 932 24 1033 26 1191 29 949
1300 0.9770404548644276 -0.042103939632870166 -0.3780990126634579 184 187 186 0.20302072590390133 16 1038 24 1175 23 2048 25 2176 26 1314
1301 0.8327391346069213 -0.0348946345651857 -0.38330401725699786 85 79 84 0.21984457711123653 16 1050 24 1143
1302 0.8327391346069213 -0.0348946345651857 -0.38330401725699786 85 79 84 0.21984457711123653 16 1051 24 1142
1303 0.8337100758571843 -0.03778879129602612 -0.38331003543655257 97 93 98 0.23737681128821822 16 1069 24 1169
1304 0.9684029241483265 -0.09567220296278556 -0.3791709324630772 38 41 43 0.06394040134893365 16 1202 24 1369
1305 0.8893092052854856 -0.09657495498662907 -0.38302204928728906 26 26 26 0.4876825909999938 16 1213 24 1382
1306 0.8319915374575761 0.06591720580917938 -0.38464856127099695 176 176 176 0.18194268043940026 16 448 25 1004
1307 0.8880163462805418 0.028186137658457084 -0.38295015216471817 27 30 29 0.14303838594732607 16 691 25 1441
1308 0.8880163462805418 0.028186137658457084 -0.38295015216471817 27 30 29 0.14303838594732607 16 692 25 1442
1309 0.8334568842721518 0.02240624413579199 -0.38360575636822575 169 170 170 0.19524546085232522 16 729 25 1318
1310 0.8322698786529793 0.0026803976643761727 -0.38334624897122344 163 168 177 0.18872843457170457 16 836 25 1428
1311 0.8322698786529793 0.0026803976643761727 -0.38334624897122344 163 168 177 0.18872843457170457 16 837 25 1429
1312 0.9708689542159966 -0.011210724867598016 -0.37896659547249334 173 179 177 0.033211053216255115 16 893 25 1948
1313 0.8321307879097247 -0.008556210536363415 -0.38329020206915426 101 104 104 0.17951748178671878 16 902 25 1508
1314 0.9322491477433258 -0.051883762963117835 -0.3815381939804855 167 170 171 0.20203783688305746 16 1089 25 2132 17 1115 18 914
1315 0.9809124156616418 -0.0644522085612706 -0.3782876518575856 38 44 44 0.17231843621787918 16 1123 25 2254
1316 0.8963795587843466 0.06841880254514984 -0.3821713749051962 19 25 23 0.35827843005221466 17 470 18 232 24 385 25 1242 27 462
1317 0.9969834343418217 0.0679836603018197 -0.3813123024906064 178 183 181 0.03786361044622505 17 530 18 316
1318 0.8955207812889089 0.04366174243842896 -0.38348544370567933 169 172 175 0.16294559194598887 17 599 18 384
1319 0.9025152362142779 0.03197251983983561 -0.38322857392261755 164 170 172 0.13186976797950742 17 651 18 446
1320 0.8879669789842831 0.028349325321916877 -0.383004675089052 24 25 21 0.12836620989755348 17 661 18 450
1321 1.0720803568134658 0.036083917828588 -0.38016621402566364 120 126 124 0.3614170479435827 17 708 18 539
1322 0.986470409082027 0.002326786270042385 -0.38197955810054995 60 65 70 0.054702691334033555 17 848 18 662
1323 0.986470409082027 0.002326786270042385 -0.38197955810054995 60 65 70 0.054702691334033555 17 849 18 663
1324 0.8321127310499656 -0.01071293753697252 -0.3825397358895214 182 187 189 0.09724801615842084 17 885 18 666
1325 0.8321127310499656 -0.01071293753697252 -0.3825397358895214 182 187 189 0.09724801615842084 17 886 18 667
1326 0.891799304821731 -0.019775723039389518 -0.38122766753191606 33 26 24 0.050644494572397204 17 943 18 751
1327 0.891799304821731 -0.019775723039389518 -0.38122766753191606 33 26 24 0.050644494572397204 17 944 18 752
1328 0.9325578117942184 -0.05189273484481647 -0.3823051657070936 154 162 161 0.007143623147236646 17 1114 18 913
1329 0.9988244577380457 -0.06432080639512706 -0.3784367446103381 55 61 63 0.12307896721423676 17 1156 18 980
1330 0.9988244577380457 -0.06432080639512706 -0.3784367446103381 55 61 63 0.12307896721423676 17 1157 18 981
1331 0.921259136978588 -0.0632380623749278 -0.38180489271970064 22 25 24 0.020549419055205454 17 1162 18 976
1332 0.8335176230213166 0.08976534713598712 -0.38418976289715834 198 197 199 0.27038034819688217 17 306 19 85
1333 0.9580601959624323 0.09413371794710378 -0.3815560815061888 48 39 31 0.02334374456321562 17 377 19 122
1334 0.863458507382924 0.07409244179741953 -0.3830903014301259 184 187 188 0.22566459948903997 17 408 19 155
1335 0.863458507382924 0.07409244179741953 -0.3830903014301259 184 187 188 0.22566459948903997 17 409 19 156
1336 0.8564846883821963 0.0592459762575946 -0.3837422238362519 35 34 34 0.19888392535000413 17 484 19 220
1337 0.8313657098849128 0.05556235454300067 -0.3839053838852633 126 124 123 0.30134369649948134 17 488 19 222
1338 0.8313657098849128 0.05556235454300067 -0.3839053838852633 126 124 123 0.30134369649948134 17 489 19 224
1339 0.8320464316531831 0.047807891071923875 -0.38403188470246297 193 192 194 0.29489897813724353 17 533 19 268
1340 0.8320369834850498 0.04783904319859585 -0.3841147656105274 185 184 186 0.25641249471355393 17 534 19 269 24 474
1341 0.9152454368508359 0.05036735165742414 -0.382281231775843 24 27 30 0.04961282770376939 17 570 19 302
1342 0.9152454368508359 0.05036735165742414 -0.382281231775843 24 27 30 0.04961282770376939 17 571 19 303
1343 0.8754088801586665 0.015622654178384847 -0.3826546626510123 22 23 19 0.13191526987588084 17 747 19 457
1344 0.8754088801586665 0.015622654178384847 -0.3826546626510123 22 23 19 0.13191526987588084 17 748 19 458
1345 0.937156648928261 0.015967264716957436 -0.381308685436309 38 41 42 0.011679290167556955 17 768 19 478
1346 0.930771295065784 0.009724428748935275 -0.38131322047421395 177 180 179 0.02014896314740081 17 790 19 504
1347 0.930771295065784 0.009724428748935275 -0.38131322047421395 177 180 179 0.02014896314740081 17 791 19 506
1348 0.930771295065784 0.009724428748935275 -0.38131322047421395 177 180 179 0.02014896314740081 17 792 19 507
1349 0.8318514867176172 -0.03073164664871478 -0.3820309388218386 176 179 182 0.4334717516220269 17 1028 19 731
1350 0.9669970624337018 -0.08599317424127881 -0.37900163414556903 35 41 41 0.10961511186549511 17 1219 19 969
1351 0.9669970624337018 -0.08599317424127881 -0.37900163414556903 35 41 41 0.10961511186549511 17 1220 19 970
1352 0.9202322640721826 0.06097653493818952 -0.38227031570545755 40 46 44 0.06759327256835314 17 520 20 1089 19 251
1353 0.8679388503151992 0.008741262500401886 -0.38251836729227773 188 191 190 0.005810562875853658 17 780 20 1333
1354 0.8679388503151992 0.008741262500401886 -0.38251836729227773 188 191 190 0.005810562875853658 17 781 20 1334
1355 0.9910033867492931 0.012199445019320307 -0.37964846484937825 204 204 204 0.5530467396675626 17 795 20 1597
1356 0.9644052721860229 -0.019352521591390684 -0.37985433847445443 53 52 54 0.0928382383963273 17 948 20 1760
1357 0.9532746681570877 -0.030181558839277336 -0.3799785523059719 200 200 202 0.10333228748932993 17 1019 20 1817
1358 0.9511637814179873 0.09166749065899198 -0.38051560558796865 29 32 33 0.16995191545294874 17 386 24 284
1359 0.9511637814179873 0.09166749065899198 -0.38051560558796865 29 32 33 0.16995191545294874 17 387 24 285
1360 0.9477454611888992 0.08269020903953885 -0.38425235117549406 28 34 36 0.15461546563928166 17 437 24 350
1361 0.9850069769809505 0.07459779604124812 -0.38036937674676735 44 50 50 0.22859930992369298 17 494 24 430
1362 0.8909066226969169 0.03938756189283384 -0.38252149571364197 182 188 190 0.06020080161130628 17 614 24 598
1363 0.8314144588922229 0.008349498511309708 -0.3834666614796379 129 129 131 0.07410720575230241 17 772 24 789
1364 0.9505575013660882 -0.014999236873361133 -0.38071553814130044 41 48 52 0.27878109611234825 17 924 24 1006 25 1923
1365 0.8321721607910598 -0.017395685343630764 -0.3829747047075495 173 173 176 0.09252053008466002 17 925 24 1011
1366 0.9681664414360143 -0.016091930518397652 -0.38239898980415943 42 48 50 0.012745523575228856 17 931 24 1021
1367 0.9681664414360143 -0.016091930518397652 -0.38239898980415943 42 48 50 0.012745523575228856 17 932 24 1022
1368 0.8327257885272169 -0.03377086061254335 -0.3829539216586527 166 169 170 0.09370092268114522 17 1050 24 1135
1369 0.9543454377436758 -0.08788734923391923 -0.3789783956544366 188 189 190 0.21466924437712603 17 1227 24 1364
1370 0.901819038229959 0.10479339613592006 -0.3824085393725678 181 180 180 0.10764577098362646 17 297 25 1013
1371 0.901819038229959 0.10479339613592006 -0.3824085393725678 181 180 180 0.10764577098362646 17 298 25 1014
1372 0.8299963349095307 0.047903625753072436 -0.3846233154774535 175 179 174 0.9174801769903829 17 529 25 1146
1373 0.953866941604508 0.03247525377281952 -0.3807426973886137 56 62 62 0.047525887306787515 17 670 25 1613
1374 0.953866941604508 0.03247525377281952 -0.3807426973886137 56 62 62 0.047525887306787515 17 671 25 1614
1375 0.8315533091440069 -0.027868422212994112 -0.38170532901552295 120 124 124 0.14530572083128068 17 999 25 1651
1376 0.8315533091440069 -0.027868422212994112 -0.38170532901552295 120 124 124 0.14530572083128068 17 1000 25 1652
1377 0.8722760030194041 -0.053726287029269786 -0.3822985553013374 158 164 164 0.014194698993197299 17 1129 25 1967
1378 0.9541629441041162 -0.0940035705553998 -0.3788958981162663 28 36 37 0.15332036424426979 17 1236 25 2291
1379 0.8316293718429819 0.13973797894759654 -0.38551755084175976 165 160 162 0.3394276566128906 18 19 20 500
1380 0.9927177618334838 0.10336482850514875 -0.38336092724918974 69 79 78 0.9478633490576268 18 162 20 978
1381 0.9927177618334838 0.10336482850514875 -0.38336092724918974 69 79 78 0.9478633490576268 18 163 20 979
1382 0.8638152895471405 0.07444592418543233 -0.3840632291071674 194 202 201 0.04038041843098327 18 175 20 861
1383 0.8638152895471405 0.07444592418543233 -0.3840632291071674 194 202 201 0.04038041843098327 18 177 20 862
1384 0.8332974362740153 0.05681209737465974 -0.38467101421710054 110 109 111 0.4227287928479262 18 236 20 882
1385 0.8679846784575497 0.06674440434377596 -0.3846641952571797 44 42 45 0.2475474800222118 18 217 21 780
1386 0.9261173981534089 0.07495243944320835 -0.38275053610501086 185 185 184 0.15354508762037897 18 228 21 828 22 620
1387 0.9651474475168852 0.032032445711849496 -0.3810137871256132 193 200 199 0.21116860173766408 18 484 21 1191
1388 0.9276213479139291 -0.024606944837377125 -0.3802477515477309 26 32 30 0.10936042885677026 18 782 21 1603 24 1069
1389 0.9900415602073432 0.0014875780418785673 -0.37857555818037225 179 182 179 0.7377225058354444 19 575 20 1664
1390 0.8310980375622845 0.07141362734607055 -0.38483369900422526 142 141 144 0.22013999999012854 19 150 21 661
1391 0.9989142685142258 0.02805449558249982 -0.3794013815995629 70 73 74 0.28735057668659364 19 440 21 1275
1392 0.9301578689814103 0.001212732845631601 -0.3811631244269062 49 44 47 0.040208424612795585 19 562 21 1403
1393 0.901860573108596 0.09469767481891404 -0.38270493392174476 193 196 197 0.12286914423478934 19 96 22 463
1394 0.901860573108596 0.09469767481891404 -0.38270493392174476 193 196 197 0.12286914423478934 19 97 22 464
1395 0.9924030571141289 0.0714202764170202 -0.3808466498040352 180 180 180 0.49048528997129925 19 240 22 650
1396 0.9924030571141289 0.0714202764170202 -0.3808466498040352 180 180 180 0.49048528997129925 19 241 22 651
1397 0.9262970358308796 -0.05725790408654153 -0.38024660675941363 38 38 40 0.16354362334301775 19 875 22 1375
1398 0.9649241326868462 -0.08883719200562239 -0.3793741044787168 44 47 48 0.2083962962832923 19 976 22 1456
1399 0.8916696548229869 -0.09203222023929011 -0.3808242176896079 170 171 171 0.16008388796698944 19 987 22 1493
1400 0.8315451447753023 0.06979741043903984 -0.3839195043673096 176 175 173 0.2838938895393747 19 157 25 972
1401 0.8313473523921021 0.03124193693695753 -0.38365176990486904 118 118 114 0.20207239963580695 19 343 25 1250
1402 0.8313265183700211 0.031170713527533856 -0.38342927994980275 124 126 132 0.19506434395758196 19 344 25 1251 28 930
1403 0.8299592632354091 0.02071893839987782 -0.3825238431296317 170 174 173 0.17648091024980112 19 406 25 1313
1404 0.8321768633348541 -0.004678636312612081 -0.383040692923902 159 165 165 0.11176855204629994 19 566 25 1482
1405 0.9612679456386966 -0.018195835984264812 -0.3802157767586935 168 175 175 0.012308815903152092 19 674 25 1960
1406 0.9535077537038753 -0.030097563173265122 -0.38037195492630327 167 173 171 0.02318341714514898 19 752 25 2037
1407 0.8604182413343398 -0.06175412877075154 -0.38221873788300004 145 153 150 0.053894085913718616 19 899 25 1995
1408 0.8954357048105493 -0.07740321855406729 -0.38158620200383214 16 19 18 0.09657597606925111 19 953 25 2200
1409 0.8885701812653992 -0.07735729604284164 -0.38206333600877496 18 21 20 0.09301797345299943 19 955 25 2191
1410 0.9052336645453755 -0.07841569530816338 -0.38119212551460424 18 22 17 0.10352337167675171 19 956 25 2213
1411 0.8779916812309226 0.01912016836267325 -0.38071559822083 191 194 195 0.26593089088607547 20 1273 21 1170 23 1787
1412 0.8608940768771346 0.07401501285501542 -0.3836962328752792 40 30 25 0.2598008216095326 20 855 22 615
1413 0.8730600433708215 0.07539883859298221 -0.3851119259337376 25 28 27 0.2046541065911983 20 878 22 605
1414 0.9103158429902666 0.05055960494428616 -0.38409052689929546 186 192 192 0.027867082963398702 20 1134 22 791
1415 0.9103158429902666 0.05055960494428616 -0.38409052689929546 186 192 192 0.027867082963398702 20 1135 22 790
1416 0.8654547027085374 0.013742651578112068 -0.3803642791396419 25 28 27 1.1523702476235955 20 1279 22 1056
1417 0.8654547027085374 0.013742651578112068 -0.3803642791396419 25 28 27 1.1523702476235955 20 1280 22 1057
1418 0.9786315332999017 0.025069275125952424 -0.38103777131869127 74 82 80 0.3758610284134686 20 1486 22 924
1419 0.9786315332999017 0.025069275125952424 -0.38103777131869127 74 82 80 0.3758610284134686 20 1487 22 923
1420 0.9473769203486354 0.08760227284580971 -0.38356039314063606 195 203 200 0.03853555531601214 20 969 23 1239
1421 0.9473769203486354 0.08760227284580971 -0.38356039314063606 195 203 200 0.03853555531601214 20 970 23 1240
1422 0.8988058091608623 -0.025993956946400096 -0.3811268406428997 185 185 185 0.3081040708786898 20 1700 23 2050
1423 0.8988058091608623 -0.025993956946400096 -0.3811268406428997 185 185 185 0.3081040708786898 20 1701 23 2051
1424 0.9575197601038843 -0.030382134228864596 -0.3805975823820527 51 50 50 0.18175989509411686 20 1827 23 2018
1425 0.9575197601038843 -0.030382134228864596 -0.3805975823820527 51 50 50 0.18175989509411686 20 1828 23 2019
1426 0.9366004869381281 0.05502389184952095 -0.37501135061491037 196 202 202 0.1465489922450726 20 1169 28 746
1427 0.9015697229592433 0.041090475000917545 -0.3809190362287578 33 36 35 0.15102451468976943 20 1182 28 838
1428 0.8570699008557434 0.015398585148505584 -0.3836699793807797 34 34 36 0.2336030555994441 20 1253 28 1065
1429 0.95874650854118 0.04286857935325383 -0.3773880038010805 70 74 79 0.07296065313797005 20 1288 28 820
1430 0.8595675230256712 0.0033429371668404393 -0.3832222915819713 170 178 177 0.47850061473825245 20 1366 28 1163 26 973 31 1707
1431 0.9544784820019048 0.03156252008147889 -0.37636813226175814 196 202 200 0.10566318055147905 20 1377 28 923
1432 0.8915568011572491 0.10521059923902955 -0.3824083659032288 43 32 25 0.029795632756534848 21 585 22 395
1433 0.9604026795782955 0.10256396879816185 -0.3811899294892259 59 58 60 0.3640136706609461 21 683 22 438
1434 0.8669264023531708 0.07340202233326032 -0.3827308846807052 42 44 45 0.23799138606124084 21 723 22 622 24 317
1435 0.9671551694687822 0.046137303058927506 -0.38448235677308645 42 51 50 0.7163669194181277 21 1072 22 809
1436 0.9655086561869899 0.04007911302262469 -0.38425140867658386 195 199 200 0.5176995981428302 21 1116 22 845
1437 0.9706706770757715 0.028746303705128883 -0.3846046896691149 65 73 74 0.47738410981756096 21 1236 22 912
1438 0.8931167127766905 -0.028001606155797682 -0.37956654748909624 186 186 186 0.020749271162653345 21 1606 22 1291
1439 0.8875962330407612 -0.03344920304543947 -0.37926490888702796 29 30 26 0.0641259015013976 21 1635 22 1316
1440 0.8875962330407612 -0.03344920304543947 -0.37926490888702796 29 30 26 0.0641259015013976 21 1636 22 1315
1441 0.9705243198322953 0.10302867152040202 -0.3901934819896827 51 62 62 0.42638499079974884 21 716 23 1149
1442 0.9705243198322953 0.10302867152040202 -0.3901934819896827 51 62 62 0.42638499079974884 21 717 23 1150
1443 0.9296077530673934 0.0664135026822125 -0.3806294540086747 38 42 45 0.12651646328713265 21 880 23 1401
1444 0.9296077530673934 0.0664135026822125 -0.3806294540086747 38 42 45 0.12651646328713265 21 881 23 1402
1445 0.9939690425751496 0.07412807075810533 -0.3821300166419875 79 85 85 0.08324733566455612 21 927 23 1304
1446 0.9939690425751496 0.07412807075810533 -0.3821300166419875 79 85 85 0.08324733566455612 21 928 23 1303
1447 0.9741200073348449 0.05686278818852074 -0.38548621360839275 63 74 73 0.06459777111841912 21 1027 23 1462
1448 0.9741200073348449 0.05686278818852074 -0.38548621360839275 63 74 73 0.06459777111841912 21 1028 23 1461
1449 0.8877295558281375 0.028313883545330147 -0.38169756012845096 38 40 37 0.10828850077548446 21 1096 23 1711
1450 0.8877295558281375 0.028313883545330147 -0.38169756012845096 38 40 37 0.10828850077548446 21 1097 23 1710
1451 0.9159661973568188 0.02523991121239194 -0.38241257669574474 36 40 39 0.03415490047724604 21 1172 23 1704
1452 0.9159661973568188 0.02523991121239194 -0.38241257669574474 36 40 39 0.03415490047724604 21 1173 23 1703
1453 0.8753042438166555 0.015941363229444134 -0.38202854014994675 27 30 29 0.1405021441326219 21 1208 23 1819
1454 0.8753042438166555 0.015941363229444134 -0.38202854014994675 27 30 29 0.1405021441326219 21 1209 23 1820
1455 0.978485241672472 0.01982646363957868 -0.3814323930778918 197 200 199 0.14501415711398352 21 1320 23 1681
1456 0.978485241672472 0.01982646363957868 -0.3814323930778918 197 200 199 0.14501415711398352 21 1321 23 1680
1457 0.9164237289195549 -0.006333979289021897 -0.3829212743701594 186 189 188 0.033458833081713026 21 1455 23 1937
1458 0.8786033899644332 -0.011687325387698348 -0.38129211424764475 25 28 31 0.1753220227063242 21 1469 23 2012
1459 0.9957692579620951 -0.05010291482988006 -0.3803412073589326 40 46 46 0.2245459912482841 21 1737 23 2062
1460 0.8318639367714752 0.09147415149947505 -0.38495362501788627 135 131 133 0.09109114436843116 21 562 24 178
1461 0.9034901806666785 0.09056745572450088 -0.3814439802402618 36 39 40 0.005920651934805071 21 665 24 240
1462 0.8755746965020996 0.0780713635264834 -0.3848664795430441 34 34 34 0.044447933149381585 21 703 24 295
1463 0.8755746965020996 0.0780713635264834 -0.3848664795430441 34 34 34 0.044447933149381585 21 704 24 296
1464 0.98281950817899 0.0611592101619474 -0.3812009221819761 65 76 76 0.16502969932723807 21 1012 24 516
1465 0.9096342081765628 0.0247148766885516 -0.38198824676485404 185 191 189 0.09929194198513452 21 1164 24 699
1466 1.0713264193318022 0.023825943099596708 -0.3828000240884362 124 120 121 0.3977559801170243 21 1379 24 786
1467 0.9297078819108393 -0.0022080565120727045 -0.3802420335133929 42 45 44 0.09919695532660328 21 1440 24 914
1468 0.999737444400351 -0.011491656795356145 -0.37642756282266443 67 78 78 0.512270909528091 21 1572 24 991 25 2033
1469 0.9650139615638291 -0.022505714535355593 -0.37977573976834306 199 202 202 0.0952162636012361 21 1611 24 1061
1470 0.9322148893139983 -0.051823997362020195 -0.3812625524001447 179 179 179 0.14544049790626362 21 1735 24 1231
1471 0.922064058910577 -0.057632121899757215 -0.38025225228168863 175 175 175 0.17449108063292193 21 1770 24 1263
1472 0.8735478886752129 -0.06386422236839573 -0.3748399289859027 24 27 26 0.3873604305084684 21 1793 24 1311
1473 0.9903907600040485 0.0637806615762417 -0.3823505105000432 189 196 190 0.399420504262962 22 707 24 501
1474 0.9903907600040485 0.0637806615762417 -0.3823505105000432 189 196 190 0.399420504262962 22 708 24 502
1475 0.906444199487384 0.0469179161019108 -0.38278804714632647 30 31 30 0.06045643764243957 22 810 24 557
1476 0.9615016313614025 0.03521277923021032 -0.381115872261849 43 49 49 0.17333691565853468 22 866 24 659
1477 0.9654067943682552 0.032042384437846384 -0.38109948938220795 185 196 192 0.23538418724782154 22 885 24 684
1478 0.9468526349944146 0.024856354108483296 -0.3811407207288549 187 195 193 0.15209678805262797 22 935 24 714
1479 0.9408111058507234 0.01963852075986414 -0.381197164258893 182 188 187 0.15941268214095508 22 974 24 762
1480 0.9408111058507234 0.01963852075986414 -0.381197164258893 182 188 187 0.15941268214095508 22 975 24 763
1481 0.8757786919141326 0.01590082035710773 -0.38333175971242106 29 29 29 0.2011829225845561 22 1030 24 754
1482 0.8757786919141326 0.01590082035710773 -0.38333175971242106 29 29 29 0.2011829225845561 22 1031 24 755
1483 0.8948884726257063 -0.018514624037963993 -0.3805631409845679 167 173 173 0.18202348607872068 22 1251 24 1030
1484 0.9225889508160572 0.0634665348161176 -0.3818053585011765 47 50 45 0.04220896461168595 22 704 25 1344
1485 0.9263075948574371 0.06274463784677847 -0.3821863038673979 173 176 171 0.0012082586167308563 22 711 25 1360
1486 0.9575473384980093 0.043960917847752405 -0.38161747638144855 172 175 176 0.2097649532063814 22 819 25 1560
1487 0.8955464467323078 0.035635932062631076 -0.3826864803759527 167 175 169 0.039322659146317475 22 877 25 1420
1488 0.8986650705084054 -0.019335862927010523 -0.38217289790424885 156 164 161 0.15330884078332024 22 1254 25 1834
1489 0.9891806029144453 -0.05691471274132354 -0.3790689758375051 174 178 174 0.2470566576514588 22 1336 25 2238
1490 0.9883821323948174 -0.06045128457040007 -0.37865386802779283 55 54 61 0.10786021600335174 22 1344 25 2251 27 1215
1491 0.9689237721515239 -0.09577698569043325 -0.37965497348867944 33 39 41 0.09391211716375766 22 1469 25 2297
1492 0.9685201413595206 0.10966024905103493 -0.3822472722939749 52 52 53 0.0038464858209654993 23 1082 24 212
1493 0.9621577882243669 0.09410815593838787 -0.38094168793668703 195 201 201 0.0030203399011473047 23 1191 24 278
1494 0.9771026476384688 0.08133512524801953 -0.379926993273966 185 188 187 0.07948502426007753 23 1260 24 380
1495 0.9305301381300224 0.07762913527754484 -0.3828697875946867 38 42 45 0.12544256530163533 23 1317 24 361
1496 1.0034907510235016 0.05048700156964361 -0.38263472861764714 62 70 71 0.10014344293013065 23 1476 24 599
1497 1.0034907510235016 0.05048700156964361 -0.38263472861764714 62 70 71 0.10014344293013065 23 1477 24 600
1498 0.860243707480694 0.01193878204900758 -0.38286449845443404 190 190 192 0.2548412982451635 23 1877 24 778
1499 0.8712895113092306 0.007590611198011315 -0.3826865218008144 38 41 43 0.2971642105635499 23 1898 24 815 27 790
1500 0.8712895113092306 0.007590611198011315 -0.3826865218008144 38 41 43 0.2971642105635499 23 1899 24 816 27 791
1501 0.9918187279976071 -0.05821961301169919 -0.3768098209283631 186 189 188 0.39286565849790867 23 2084 24 1247 26 1365
1502 0.9671510719547423 -0.03359185605508884 -0.37858188999300924 46 47 51 0.15674516067992644 23 2024 25 2099
1503 0.8910359196453903 -0.022493571829479513 -0.3816556869190311 184 184 184 0.11724647880797781 23 2044 25 1838
1504 0.9768267880515262 -0.042072483902274894 -0.37781193618123016 201 201 201 0.16242773035116548 23 2047 25 2177 24 1176
1505 0.981145769654254 -0.05681039726395839 -0.3782878469114183 43 43 48 0.05884934738106454 23 2087 25 2233
1506 0.97784904785738 0.11323123034021972 -0.3818784080017172 51 59 58 0.5363534733739285 23 1065 26 546
1507 0.97784904785738 0.11323123034021972 -0.3818784080017172 51 59 58 0.5363534733739285 23 1066 26 547
1508 0.9065377435770748 0.04699609302365394 -0.38293737303912606 34 35 34 0.25857865725694673 23 1565 26 795
1509 0.8319320405160133 0.0885798809858662 -0.3848335271813715 127 127 123 0.22741834655015655 24 186 25 838
1510 0.8311249663275021 0.07133906424983605 -0.3850020095904461 127 122 119 0.2597189735052883 24 290 25 964
1511 0.8962157804394476 0.06824751080857595 -0.3817557551673483 19 25 23 0.11668367635140241 24 386 25 1243 27 463
1512 0.9807727227061999 0.008890134047536528 -0.3790101000555209 63 71 72 0.10778074134283294 24 859 25 1869
1513 0.832136615917081 -0.013134681826472991 -0.3832114281461489 151 150 152 0.24941319825378694 24 971 25 1546
1514 0.9501808012166172 -0.014959383390895179 -0.3800956462324537 46 54 55 0.06343347329500565 24 1005 25 1922
1515 0.9890743460435201 -0.06421964428669791 -0.3790710160364879 41 44 47 0.19478995653591288 24 1283 25 2261
1516 0.9578480663671844 -0.07723096026155771 -0.37989159457767835 37 40 42 0.2731884256914689 24 1334 25 2267 26 1407 28 1504
1517 0.940299990390054 0.08691020780413432 -0.38148018705529263 33 40 34 0.2523656897173191 24 300 26 626
1518 0.9720994945950214 0.08755138092543448 -0.3819662743695332 183 188 186 0.5312954345069955 24 333 26 667 28 529
1519 0.9720994945950214 0.08755138092543448 -0.3819662743695332 183 188 186 0.5312954345069955 24 334 26 668 28 530
1520 0.8331031435357893 0.05428907008249846 -0.38340555671447474 120 116 113 0.20886386074755212 24 424 26 613
1521 0.8326874110951394 0.037225862791457204 -0.38294970639852205 122 119 120 0.11745650045146473 24 571 26 719
1522 0.8326874110951394 0.037225862791457204 -0.38294970639852205 122 119 120 0.11745650045146473 24 572 26 720
1523 0.9891781039033667 0.0014435722222747888 -0.3775295847414028 184 190 188 0.008071917841934298 24 907 26 1130
1524 0.8323002812037048 -0.017365258316093413 -0.3830243752794729 173 173 176 0.31904721501650835 24 1008 26 1052
1525 0.8323002812037048 -0.017365258316093413 -0.3830243752794729 173 173 176 0.31904721501650835 24 1009 26 1053
1526 0.9817003127593938 -0.045821238774416115 -0.3796409129108512 45 50 53 0.06092175932822709 24 1199 26 1321
1527 0.9819078545442047 -0.06472688940315839 -0.37955690152529437 40 46 48 0.1401369506670664 24 1287 26 1380
1528 0.8318062747683361 0.09577665237790582 -0.38471560429892676 151 143 141 0.22359340130895028 24 163 27 276
