# 3D point list with one line of data per point:
#   POINT3D_ID, X, Y, Z, R, G, B, ERROR, TRACK[] as (IMAGE_ID, POINT2D_IDX)
# Number of points: 425
70 1.097656324532313 -0.04857609606635248 -0.38450747455066986 89 88 93 0.07242403755534212 1 1547 6 1774
71 0.9377086772146044 -0.06266267945141084 -0.38402963057549866 34 42 43 0.4853688206448849 1 1674 6 1950 9 1533
72 0.9694648985773722 -0.07740963201324581 -0.38158105549481375 38 38 43 0.2545870712116009 1 1754 6 2020 31 2054
73 0.9163325015787974 -0.09703827583661691 -0.37645452607592106 27 33 31 0.08647973091700681 1 1864 6 2119
74 0.8538804618411778 0.08830094605196828 -0.38509620689035573 34 39 39 0.14383946140145526 1 531 9 274
75 0.8540240842583463 0.08850919918304441 -0.38613477461011736 34 39 38 0.7264882191789999 1 532 9 275 27 323
76 0.8785439440169588 0.05586416822504358 -0.38323985251268883 195 198 199 0.26941420755792067 1 803 9 536 17 522 21 876
77 0.8782056261900798 0.055440839391602915 -0.3819888271679611 195 198 199 0.21178747822874308 1 804 9 537 17 523
78 1.0987491009640928 0.048844487085381194 -0.38435297638345384 131 139 136 0.0655686296397628 1 973 9 876
79 1.1004256593405464 0.049392065852180776 -0.38609042742634087 131 139 136 0.1936591332294813 1 974 9 877 6 1205
80 1.0851585838249698 0.03762055020626287 -0.3902235251649788 169 170 172 0.03317204396040419 1 1041 9 949
81 1.097438674895764 0.033834504397475824 -0.38766341625867723 133 142 141 0.03720223569460319 1 1064 9 980
82 1.086377168637172 -0.007314466473735012 -0.38845524881257254 106 112 114 0.27073168957624866 1 1304 9 1209 6 1540
83 1.086377168637172 -0.007314466473735012 -0.38845524881257254 106 112 114 0.27073168957624866 1 1305 9 1210 6 1541
84 0.8540156329233056 -0.03702846362135182 -0.38369082115907804 36 42 44 0.11507564675403462 1 1530 9 1325 30 1661 3 1643
85 1.0069376848610687 -0.07500683130299543 -0.38558626440493154 49 57 61 0.20443371132763252 1 1727 9 1613
86 0.9389043511381991 -0.09726026259163661 -0.3844576731358536 27 33 31 0.18195531336852133 1 1854 9 1765
87 0.8319428013183597 0.14074923046288357 -0.3877819417697579 167 163 166 0.4546040893358215 1 276 10 67 28 247 5 978 30 477 13 483
88 0.9799698524101096 0.08904410155704517 -0.38424305587666796 40 48 47 0.548369554351265 1 630 10 311
89 0.9722660051350198 0.05108360640992695 -0.38209934680455504 192 195 196 0.2844332598992678 1 895 10 499
90 0.8326899467277948 -0.0077087354441703415 -0.3843875235024068 161 159 163 0.46218808392471944 1 1290 10 756 19 584 30 1494 25 1505 24 934 29 932
91 0.9287690901434669 -0.024461875730675008 -0.38261419551769055 27 33 31 0.20439738436879512 1 1423 10 892 28 1284
92 0.8320324128252087 0.10597763017644947 -0.3867177927650177 201 200 202 0.21291799930066296 1 413 11 289
93 0.928587398793462 0.1030577512838619 -0.3845153592992163 33 39 39 0.1008952124424157 1 498 11 393
94 0.8322850078858722 -0.0327650097884969 -0.385170177491092 106 104 108 0.2456085021902879 1 1496 11 2124 30 1651 5 2298 31 2037
95 0.874563258638146 -0.048254488421307626 -0.38500869671886806 27 30 30 0.22742725054345914 1 1591 11 2344 2 1792 8 1557 29 1082
96 0.874563258638146 -0.048254488421307626 -0.38500869671886806 27 30 30 0.22742725054345914 1 1592 11 2345 2 1793 8 1558 29 1083
97 0.8298889352178221 0.12549346970172445 -0.38829715041506074 193 193 193 0.42489113597340544 1 320 12 73 10 86
98 0.8320713814422614 0.11101677436170176 -0.38646745032694485 163 162 166 0.20230367869297974 1 387 12 84 2 638 3 963 30 614 11 252 28 329
99 0.8320827518052333 0.11098905623798815 -0.38648886738683974 155 151 154 0.26873116899240745 1 388 12 85 2 639 3 964 30 615 11 253 27 239
100 0.829954089267199 0.09873736336966815 -0.3881781192553197 194 193 193 0.25079213111004883 1 436 12 100
101 0.8319746851053541 0.08322987795256627 -0.3854528499125035 152 149 150 0.2935462017418382 1 541 12 139 19 105 16 345
102 0.8319962116992808 0.07807690817044514 -0.38494344092234994 161 156 154 0.033245663902036905 1 574 12 165 17 361
103 0.8320244954955605 0.07475594740608665 -0.3838780525405994 190 190 192 0.04518885045812813 1 594 12 173
104 0.8303668311397926 0.05189266213460037 -0.38524058838391423 200 203 204 0.2747112360724879 1 801 12 314 10 421
105 0.8319362651675067 0.04885431991031958 -0.3840057562527501 133 132 135 0.07274809210437946 1 830 12 335
106 0.8323652828548891 -0.0230936547724714 -0.3822285131515536 133 133 135 0.17665179599681125 1 1419 12 722 18 749
107 0.8323652828548891 -0.0230936547724714 -0.3822285131515536 133 133 135 0.17665179599681125 1 1420 12 723 18 750
108 0.9041485728391894 -0.09468508371847639 -0.3814046104317025 27 33 33 0.619641432983043 1 1857 12 1031 13 1493
109 0.8292606066532197 0.06800844824059477 -0.3835044604941788 188 191 192 0.23535099868211024 1 644 17 418 30 939
110 0.8674769470061735 0.008565065565656959 -0.38117374939306586 164 172 172 0.00786661024999457 1 1164 17 779
111 0.8832270231086763 -0.006700788722099907 -0.37784078731314474 17 20 19 0.3285108285409412 1 1273 17 869
112 0.8832270231086763 -0.006700788722099907 -0.37784078731314474 17 20 19 0.3285108285409412 1 1274 17 870
113 0.8779600241196259 -0.012258549494742161 -0.3802340813873545 17 20 19 0.18868958019036774 1 1326 17 893
114 0.8798459485544621 -0.011686645146338367 -0.38660470163549043 17 20 19 0.5233521612282132 1 1327 17 894 24 969
115 0.9970085275057055 -0.061661829867863026 -0.37981607428924496 176 182 180 0.22860168479790888 1 1650 17 1141 18 967
116 0.9970085275057055 -0.061661829867863026 -0.37981607428924496 176 182 180 0.22860168479790888 1 1651 17 1142 18 968
117 0.863581351485367 -0.05850635240090451 -0.3822937767686863 159 167 164 0.526681788969978 1 1681 17 1158 21 1760 10 1093 13 1383 19 881 25 1978 22 1425
118 0.8299714013150075 0.06356132708903936 -0.3856552855585535 198 201 204 0.35977991901823814 1 681 18 199 20 846
119 0.8324494224962845 0.06248579396522526 -0.38501930174134696 177 169 171 0.005369718396876714 1 691 18 205
120 0.8319969242898811 0.0832354417567758 -0.3855863548466523 157 153 156 0.2090823160283627 1 540 19 104
121 0.8300195849813318 0.012060841977625143 -0.383029246104881 178 184 184 0.06677498041868137 1 1130 19 459
122 0.9308283822568284 0.009742184435817912 -0.3816277634126385 165 171 169 0.9493579310830091 1 1172 19 504 30 1316 31 1539 17 790 29 847
123 0.9301647194182433 0.009461189835954889 -0.3803701900524401 177 180 179 0.2787856811818728 1 1173 19 506 30 1317 17 791
124 0.9308283822568284 0.009742184435817912 -0.3816277634126385 165 171 169 0.9493579310830091 1 1174 19 507 30 1318 31 1540 17 792 29 849
125 0.97289806468618 -0.011215204238917262 -0.3819743840637394 189 190 191 0.5357322507103419 1 1316 19 634 30 1445 4 2175 6 1569 9 1184 29 927 28 1225 31 1606
126 0.9708881176476342 -0.011502482101060424 -0.3788252281373396 177 180 181 0.21810317611525842 1 1317 19 635
127 0.9938772481401228 0.06540159468683468 -0.3833036939186767 202 208 208 0.5557101254477196 1 812 21 997
128 0.8901609265124579 0.04570169462106998 -0.38585800266754333 30 33 34 0.1700745423527585 1 891 21 978
129 0.8316204915564961 0.08811264057538717 -0.3834218153532742 135 130 132 0.026075597305156493 1 501 24 186
130 0.8837963628639075 0.08685352102345997 -0.38299156640789955 183 188 188 0.3729448706819058 1 564 24 243 15 595 16 354 20 843 23 1258
131 0.8314051724908817 0.06846812338697193 -0.38169775369061076 189 189 191 0.0655509430773079 1 638 24 302
132 0.9582928745485185 -0.016310476613492234 -0.3917016057863685 143 153 155 0.0827845334152797 1 1355 24 1023
133 0.9031033168280875 -0.08144759752926325 -0.3833982987812332 30 32 26 0.23006261728662683 1 1813 24 1358 30 1799 16 1189
134 0.954246808639313 0.0961274302609811 -0.38399994467194826 58 60 65 0.023715953493103365 1 566 26 603
135 0.9478805751245156 0.08818167606177113 -0.38432807089972265 190 194 193 0.2152228873038991 1 605 26 636 2 835 4 1399 30 778
136 0.9261367377709113 0.06741096005841335 -0.3846403766142113 179 185 185 0.06955559790633953 1 736 26 707
137 0.9261367377709113 0.06741096005841335 -0.3846403766142113 179 185 185 0.06955559790633953 1 737 26 708
138 0.831956568385048 -0.032304646431123706 -0.38071009648818505 122 122 124 0.2782775341230089 1 1489 26 1139
139 0.9658248527043231 -0.08408458615293361 -0.3811201520857579 32 30 36 0.2706653409570213 1 1801 26 1416 28 1519 3 1753 29 1180
140 0.9622259950031508 -0.0922547796402683 -0.38153770645884444 31 32 42 0.3643114493157931 1 1839 26 1435 30 1806
141 0.8331227255340063 0.03798178081365672 -0.3861240055605684 132 130 131 0.21861291097104013 1 921 27 537
142 0.8695735478517483 0.005839282108230112 -0.3862623688508429 170 178 179 0.3540935857108784 1 1198 27 804 31 1668
143 0.831520100308667 -0.007813475445056933 -0.3854868931057645 172 179 180 0.03891579389178198 1 1293 27 833
144 0.897242204187737 -0.03147754585164167 -0.3849232108896969 159 168 166 0.11543937039024872 1 1475 27 1032
145 0.897242204187737 -0.03147754585164167 -0.3849232108896969 159 168 166 0.11543937039024872 1 1476 27 1033
146 0.8325554263770931 0.05817597480721519 -0.38479595902505537 184 191 195 0.07702802402847078 1 733 28 718
147 0.8792503285791048 0.019397769010792057 -0.38473928372216615 168 179 177 0.14956348320120919 1 1097 28 1037 27 724
148 1.0984733900410348 0.10181182992161358 -0.3886751442837557 165 168 165 0.0025809252010486985 1 640 30 718
149 1.083987676885712 -0.036153081437406684 -0.3857009646045088 91 94 96 0.03509565505648199 1 1480 31 1595
150 0.9697215589977248 -0.07746128161976891 -0.3821688377833323 38 38 43 0.23976095227259095 1 1753 31 2053
151 0.8317648376408827 0.1403638460672811 -0.3867260648130067 155 154 154 0.10442841299250417 2 461 3 859 26 273
152 0.8317648376408827 0.1403638460672811 -0.3867260648130067 155 154 154 0.10442841299250417 2 462 3 860 26 274
153 1.0760657644405656 0.17287321124364974 -0.39111528651402316 98 96 98 0.24626334728340882 2 529 3 815
154 1.0821631642455294 0.140837797449581 -0.3912270255645908 161 167 165 0.30176087868330825 2 647 3 940
155 1.0824180340843719 0.13277742061003356 -0.3891864236118636 108 107 111 0.2997247616430569 2 671 3 958
156 1.081837252908106 0.12921877024580133 -0.3868961479299037 142 147 147 0.293486827930484 2 680 3 962
157 0.8321209872852819 0.08910571683353549 -0.3861126789629558 167 166 167 0.002824400556792207 2 758 3 1041
158 0.8321209872852819 0.08910571683353549 -0.3861126789629558 167 166 167 0.002824400556792207 2 759 3 1042
159 1.0803021688776886 0.07652445946406915 -0.3889482024768728 160 166 168 0.32806660980454966 2 989 3 1156
160 0.8785546052391947 0.05593725405142603 -0.38309748695199225 175 183 182 0.03628545258946864 2 1044 3 1240
161 0.875912405845716 0.015952170360685105 -0.384973397535583 30 29 28 0.03203931595306844 2 1351 3 1416
162 0.875912405845716 0.015952170360685105 -0.384973397535583 30 29 28 0.03203931595306844 2 1352 3 1417
163 0.8324991559385659 0.007907296876369662 -0.3842873132985876 179 182 185 0.019169273370169413 2 1414 3 1468
164 0.8324991559385659 0.007907296876369662 -0.3842873132985876 179 182 185 0.019169273370169413 2 1415 3 1469
165 0.9101072061105469 -0.04283977640758224 -0.3827201022856095 21 24 25 0.02844204131012767 2 1753 3 1647
166 0.9578842358033007 -0.05494218497721287 -0.37794973950778227 22 28 28 0.03661774892309984 2 1800 3 1670
167 1.0684106047015636 0.16331509782990844 -0.3834758970471336 84 80 77 0.06601868146832002 2 559 4 1069
168 1.0830683450037484 0.13648275906626905 -0.390722967747661 102 101 97 0.034128718693248294 2 662 4 1189
169 1.0986944486020216 0.12497755066971701 -0.38865316512586756 103 106 107 0.2932661461788649 2 707 4 1267 7 561
170 1.095225089834417 0.11067427254192795 -0.3882946915277997 90 89 90 0.19974013381804032 2 786 4 1341 8 544
171 1.0986578562057836 0.10393535556561762 -0.3893744153241331 134 140 139 0.4019741115343625 2 825 4 1371 30 703 9 508
172 0.9416857773512991 0.08787104022313885 -0.3840300936809683 40 46 44 0.029337476367922555 2 831 4 1397
173 0.9784501331624683 0.08232849670560634 -0.38160157476336176 191 191 191 0.2326495565494929 2 885 4 1460 30 819 27 531 29 559
174 1.0848240787277514 0.07360500030902133 -0.38968807673223443 108 108 108 0.17021989244474384 2 1009 4 1594 30 891
175 1.0848240787277514 0.07360500030902133 -0.38968807673223443 108 108 108 0.17021989244474384 2 1010 4 1595 30 892
176 0.9377820086150189 0.05947339968575045 -0.3823331848915786 43 43 44 0.02048908692343695 2 1040 4 1658
177 0.9377820086150189 0.05947339968575045 -0.3823331848915786 43 43 44 0.02048908692343695 2 1041 4 1659
178 0.9791726419157841 0.05173872468527837 -0.38362098294562186 56 65 65 0.03115891703703617 2 1105 4 1713
179 0.9735135039426892 0.051488246374002095 -0.384180882263226 188 196 193 0.20490232576817627 2 1106 4 1718 29 705
180 1.0916272929398756 0.04472056709484451 -0.38678676266986867 102 108 106 0.20927631009769687 2 1176 4 1768 8 1003
181 0.9622308582432767 0.03553277155160372 -0.38300108358691154 41 51 54 0.005753669509774104 2 1206 4 1829
182 1.0864415351517904 0.03716459138403995 -0.3877281851728761 152 163 163 0.02341359166462917 2 1213 4 1810
183 1.10624915582078 0.024853325722139327 -0.3869563412729312 100 103 102 0.018280857598820022 2 1301 4 1878
184 0.9471144472495294 0.019546690067969046 -0.38111001754539203 37 46 46 0.3458431553772354 2 1321 4 1947 30 1243
185 0.8318279396033332 0.018269577164788813 -0.38446820572249657 188 188 188 0.07835349117002109 2 1330 4 1986
186 1.1049424069614033 0.014048200143168446 -0.38759721632213423 129 134 133 0.28491954006825765 2 1359 4 1957 9 1102
187 0.8735091049149739 0.01311840385112069 -0.3857597169406064 23 28 28 0.24462794862895748 2 1371 4 2015 30 1312
188 1.0831486478827117 0.012067166076001518 -0.3872446258091912 154 155 158 0.02332325415724836 2 1375 4 1976
189 0.8694668747635554 0.005701507683069001 -0.38466598256782863 178 184 184 0.06988933123919602 2 1423 4 2079
190 0.9785711522800944 -0.04224608899425435 -0.3806346329549706 189 193 194 0.028482850870120188 2 1719 4 2358
191 0.9793085792847982 -0.04252560434416165 -0.3819128687572719 190 196 194 0.27854772372180275 2 1720 4 2357 31 1821
192 1.092766616234372 0.15227945429292744 -0.39060340028342244 130 132 129 0.05552135933269686 2 622 5 1117
193 1.0755096157519637 0.14706222929326582 -0.38683112728842944 106 103 102 0.0859801329167577 2 625 5 1124
194 1.0822305542998043 0.1480685598973009 -0.3891517839860026 104 103 103 0.06021513763156546 2 628 5 1129
195 1.0917633906577204 0.146325299907254 -0.3849889500241581 135 135 131 0.047096141404768074 2 631 5 1130
196 1.097626983057013 0.14581895027806688 -0.38676074491405593 121 122 118 0.06239991492777473 2 633 5 1137
197 1.0749565128430676 0.1412650090681725 -0.38288413031399965 137 138 137 0.05435727113437606 2 636 5 1142
198 1.0983156672580214 0.14509222354424087 -0.389810649943982 79 80 79 0.05050178088023591 2 640 5 1146
199 0.8329394815076306 0.09928317803155194 -0.3861499033729423 142 138 142 0.1508035853465553 2 690 5 1253 28 378 29 477 30 687
200 0.897246692081366 0.0999231584446183 -0.3833824521631634 30 36 36 0.08180460306829923 2 719 5 1284 29 484
201 1.1058193774580711 0.12028611511444039 -0.39087537094067826 112 112 109 0.0670764117613872 2 733 5 1268
202 0.9550134527813755 0.09890059112858361 -0.3850001302939399 190 198 198 0.00748604385204164 2 775 5 1321
203 1.0858810233668956 0.104265586855394 -0.3904490101451733 153 158 158 0.018964917176473844 2 812 5 1340
204 0.9783898248625512 0.08768070887028787 -0.3825466068301699 52 63 61 0.05264082067607983 2 852 5 1396
205 0.9783898248625512 0.08768070887028787 -0.3825466068301699 52 63 61 0.05264082067607983 2 853 5 1397
206 0.8313040607670941 0.07166259949380732 -0.3860838425960708 137 137 138 0.10850573127120529 2 892 5 1475
207 1.080434884792342 0.07399410405500033 -0.38549558343716994 131 132 135 0.04889578428846474 2 999 5 1534
208 1.0981781384869183 0.050640893285963835 -0.386280315650524 93 92 96 0.012536070235340036 2 1147 5 1689
209 1.093432491534586 0.0458187093581299 -0.3907651014456451 140 148 145 0.012374131989249222 2 1174 5 1716
210 1.0839797818519765 0.03590603736276097 -0.3871192046442839 102 102 102 0.07364519087341188 2 1220 5 1768 8 1039
211 1.0937558876120246 0.03324917302750526 -0.383656822106357 132 138 138 0.027490210800974347 2 1241 5 1783
212 1.0937558876120246 0.03324917302750526 -0.383656822106357 132 138 138 0.027490210800974347 2 1242 5 1784
213 1.0814213197678795 0.025741038326130665 -0.3881295649334953 156 162 162 0.012836568858846915 2 1297 5 1831
214 1.090840217210139 0.025173862558155898 -0.3906164202820977 155 163 161 0.03177635347684919 2 1298 5 1835
215 0.833252168232014 0.008610886781716136 -0.3848007000247217 115 115 119 0.10601331997772358 2 1404 5 1993 28 1125
216 0.9426470064763414 -0.0060427378164977985 -0.3845756834414727 184 192 189 0.032932852052946764 2 1493 5 2070
217 0.8849992551740867 -0.005924665228250136 -0.38311489274058463 29 35 33 0.02128902666036174 2 1505 5 2096
218 0.9526661154591791 -0.015138170190619369 -0.3847538931648407 47 52 57 0.023522457211490967 2 1549 5 2118
219 0.9789996318705289 -0.03639592664003336 -0.3805736244125987 41 49 48 0.001196796382989922 2 1680 5 2238
220 0.8593083995446792 -0.04856902831213919 -0.38463879905536175 27 27 27 0.03456471990729202 2 1808 5 2358
221 0.992839728696958 -0.0885779558366057 -0.381139056130676 26 32 32 0.11053993820362153 2 1912 5 2441 27 1282
222 0.992839728696958 -0.0885779558366057 -0.381139056130676 26 32 32 0.11053993820362153 2 1913 5 2440 27 1281
223 1.0915891179155635 0.14115803498817567 -0.39272712428063156 113 110 106 0.176594190308677 2 649 7 478
224 1.095969213240702 0.11260990703256855 -0.3872377351192889 142 147 144 0.19432768680701806 2 776 7 625
225 1.110581087624947 0.11147003703534474 -0.39743827855460706 125 130 129 0.2149836629392466 2 800 7 655
226 0.8785397152622652 0.08677609226968523 -0.3828949741567117 31 32 29 0.09774334112252805 2 802 7 553
227 0.9313659707316331 0.06696301750051359 -0.3837774637104378 40 41 43 0.30839121627483806 2 985 7 810 30 943 31 1134 3 1197 27 541
228 1.0981467628674573 0.05051539450605765 -0.3969270928804473 117 124 125 0.15844661949460812 2 1154 7 1058
229 1.1009259467128265 0.04841418997180197 -0.38893588762133574 110 113 116 0.18502099602899813 2 1160 7 1064
230 1.0952023525832817 0.028258645008458618 -0.38906516337778474 104 109 113 0.15083073784851347 2 1277 7 1184
231 0.879283376157429 0.019327608679344327 -0.38452966932594695 197 200 203 0.13533248467546252 2 1319 7 1150 29 825
232 1.087525197375671 0.012031360561692789 -0.3876487137220664 144 152 151 0.07868039655250321 2 1376 7 1281
233 1.087525197375671 0.012031360561692789 -0.3876487137220664 144 152 151 0.07868039655250321 2 1377 7 1282
234 1.0806201592092648 -0.030181308277116285 -0.38723241332375763 125 131 129 0.07578175918159692 2 1601 7 1513 9 1333
235 0.972434303230755 -0.06773481047033927 -0.38173258163109497 39 45 45 0.10424830559372547 2 1854 7 1756
236 0.972434303230755 -0.06773481047033927 -0.38173258163109497 39 45 45 0.10424830559372547 2 1855 7 1757
237 0.8778622416143115 0.11214028478220328 -0.3856691928388427 38 38 40 0.41122427781028964 2 654 8 342 11 281 31 855
238 1.0955376185317511 0.11085063280043592 -0.38865126252833987 66 67 69 0.17955644880563815 2 787 8 545 9 464
239 0.9901332605803052 0.07113884547917079 -0.3828731479799661 65 70 71 0.04666547230833009 2 975 8 704
240 0.9474255935276414 0.050883503300058024 -0.3828504517643544 189 197 196 0.39938322145467475 2 1099 8 850 12 395
241 1.1007534087050697 0.052287298243610024 -0.38643521299736294 126 132 130 0.1490485781350563 2 1130 8 967
242 1.0886576770234926 0.05087206963446707 -0.3901813562905197 149 155 153 0.13777807921954063 2 1146 8 972
243 1.1060302306588292 0.03188354855274914 -0.3872631868678962 109 111 111 0.13473356331365602 2 1254 8 1076
244 1.098842640104437 0.015309561929669455 -0.38842262605114214 125 131 129 0.13617046711669567 2 1355 8 1177
245 1.0954513101953367 0.010191487383851847 -0.388213800607498 107 107 107 0.1304742917495058 2 1380 8 1212
246 1.0962438507782974 -0.000982165616972068 -0.3897497356471885 142 148 146 0.11731922392224584 2 1441 8 1270
247 1.090652554259737 -0.0019060658751527907 -0.38789647990097964 104 104 106 0.11386708718182562 2 1451 8 1273
248 0.9046313023723607 0.09193867198148374 -0.38429994087461045 42 48 52 0.22046883970009243 2 792 9 319
249 1.0855111746425607 0.050708644984873305 -0.3892603396806226 129 137 136 0.07101686520977411 2 1145 9 852
250 1.0762179914962016 0.029066400045192235 -0.38857416080390184 174 175 174 0.0497340369193916 2 1268 9 999
251 1.0903535408509324 0.019684949331414976 -0.3862485231042703 139 145 145 0.06233709395007792 2 1327 9 1056
252 1.0903535408509324 0.019684949331414976 -0.3862485231042703 139 145 145 0.06233709395007792 2 1328 9 1057
253 1.0886853833053638 -0.010216861254729235 -0.38812555924436615 138 142 141 0.04658268636455286 2 1496 9 1221
254 0.8641602125383874 0.06708989348742403 -0.3854190441629375 185 192 193 0.07080554641532613 2 953 10 348
255 0.8738153226064792 0.06100191560144253 -0.38478879408014927 27 30 29 0.02392953841908368 2 1007 10 397
256 0.8338167411617031 0.04803492548771466 -0.38528270886884125 186 189 189 0.08776510729794301 2 1087 10 445
257 0.9694751991825193 0.02897037213186324 -0.3827342735706091 56 62 64 0.4698172404414874 2 1260 10 612 3 1355 30 1174 13 947
258 0.8473173475143828 0.017054235946354555 -0.38934242121228796 185 188 189 0.03844728780611041 2 1339 10 630
259 0.9474464879850065 0.08235136841557533 -0.38361729780331727 43 49 49 0.17740709119191392 2 873 11 642
260 0.9474464879850065 0.08235136841557533 -0.38361729780331727 43 49 49 0.17740709119191392 2 874 11 643
261 0.8327445571544917 0.10580218393855391 -0.38669704943033667 190 189 191 0.00732781594210462 2 660 12 92
262 0.843083237432187 0.06655669148580988 -0.3854359459933543 193 193 193 0.09743169619417205 2 939 12 233
263 0.966243006691407 0.046072899835960295 -0.3827419648585218 33 44 45 0.7917345070225258 2 1140 12 423 29 725 30 1074
264 0.8333277251155894 0.029742314547339783 -0.3847525037605023 195 198 198 0.18258092023208153 2 1237 12 436 18 410
265 0.8301440032549027 0.002666422547511083 -0.38444265169896347 184 190 190 0.2991204763069697 2 1450 12 577 18 585
266 0.9208090208089332 -0.0011000808768135497 -0.3827195727680076 29 35 35 0.2818291155312307 2 1468 12 633
267 1.0726400337920088 -0.009037554366671295 -0.38455057956233174 146 149 150 0.05498823240688168 2 1490 12 707
268 1.0743548455045362 -0.01989417742488108 -0.38443286448451336 150 156 155 0.054770272634549984 2 1551 12 766
269 0.8323244189837502 -0.013219180346635818 -0.38431222000997395 163 163 163 0.16280385287084082 2 1560 12 665
270 0.9273952862340828 0.07108084574736402 -0.3849074869634844 183 186 185 1.6219737853632032 2 956 18 255
271 0.950826824024038 -0.07706826950642245 -0.380906005588418 28 31 34 0.15175320281828097 2 1892 18 1024 28 1505 29 1165
272 0.8298441371962363 0.09067662285522765 -0.3854242373172863 187 190 191 0.4595894791388829 2 741 19 81 29 507
273 0.830949177656223 0.07135221666008833 -0.3846534217044569 128 125 125 0.5699415158054004 2 891 19 150 30 908 14 437 21 661 25 964
274 0.8321053193429416 -0.017201705397803798 -0.3835957900396089 171 178 180 0.2159211580506434 2 1586 19 637
275 0.8313914692051831 -0.02030618760357994 -0.3836525416546786 122 120 122 0.20930128205416754 2 1616 19 653 16 968
276 0.8327715501009837 -0.03363728139585158 -0.3840662028049254 151 159 158 0.36627286529519715 2 1722 19 761 30 1655 5 2300 25 1722
277 0.8301134696885376 0.08061214011323718 -0.3853626111039456 183 186 189 0.02959181559304962 2 818 26 479
278 0.83242183956615 0.07460031972221326 -0.3862298106765065 179 185 185 0.2946740886588074 2 867 26 509 29 570
279 0.8325889920949269 0.014037920726687914 -0.38469526149121885 178 185 186 0.05373272657620369 2 1361 26 856 28 1080
280 0.9653009647711956 -0.029810283523976064 -0.3831349854717314 167 173 173 0.3408318326415063 2 1631 26 1246 29 986 28 1297 30 1557 31 1760
281 0.9903678590711401 0.06397002515112168 -0.38216859077736265 188 191 191 0.26325106855306196 2 1029 27 651 31 1072 3 1220 28 706 30 969
282 0.8337195781305013 0.02860971765204933 -0.3860716731440943 109 109 109 0.008682827454712947 2 1243 27 599
283 0.8329916054371218 -0.02297981301541093 -0.38525274693263073 112 115 117 0.08001336386034773 2 1629 27 921
284 0.8354488301877818 -0.027877744370917813 -0.3866036662238972 165 164 163 0.09915560930233 2 1669 27 950
285 0.9725090167011364 -0.042874653728578786 -0.3820915115813417 46 52 54 0.041747326368604835 2 1725 27 1144
286 0.9671762288318585 0.10144553703085801 -0.3841660721966526 49 57 58 0.2669186050099297 2 763 28 424 26 594
287 0.9671762288318585 0.10144553703085801 -0.3841660721966526 49 57 58 0.2669186050099297 2 764 28 425 26 595
288 0.8885823995918377 0.028491175164620533 -0.384457954659191 34 37 37 0.05167357190591129 2 1252 28 954 3 1364
289 0.9315189513878093 -0.0021007387455236584 -0.3839891729600269 29 32 31 0.07399310683127973 2 1474 28 1187 29 900
290 0.8321076038518072 -0.0022098127400781943 -0.38513479838328785 178 184 184 0.3053135661878791 2 1483 28 1208 29 913 30 1451 25 1469
291 0.8322557013693653 -0.038080966913055146 -0.3849731625610811 95 96 100 0.17339024334163536 2 1760 28 1391 26 1163
292 0.8295869063829557 0.06890584307437642 -0.3874242859691895 194 197 198 0.23321191780118175 2 914 29 613 5 1499
293 0.8789115027392166 0.019288532347267927 -0.3833136219251887 174 180 180 0.09117631886530259 2 1318 29 824
294 0.979176959229519 -0.005853864985884202 -0.38173397811297755 184 191 190 0.1044595885207149 2 1484 29 906
295 0.9465669444016515 -0.011161603832685675 -0.3802062312057849 169 175 173 0.06065986463022673 2 1526 29 929
296 0.9780217492994148 -0.036231948682532246 -0.3789876182729395 35 41 41 0.0479038311918224 2 1679 29 1016
297 0.8314948141767783 -0.030769716181793874 -0.3873037305292444 149 150 152 0.04421162931594588 2 1704 29 1029
298 0.9114497246308342 -0.03770995177868995 -0.3856689175048842 159 170 166 0.04404457599656348 2 1716 29 1034
299 0.833352485173975 -0.03814982145602517 -0.3878304607161018 121 117 121 0.09112020450766299 2 1754 29 1062
300 0.9118795127460474 -0.0690492789464634 -0.38742134112922 22 28 28 0.04398369058944226 2 1880 29 1151
301 0.8797803699559087 -0.07446421774006302 -0.38465366966889786 25 25 27 0.08939289405459444 2 1906 29 1178
302 0.8894202386231282 -0.09653234280950021 -0.38408044597202384 33 32 38 0.21599465176090069 2 1943 29 1215 31 2147
303 0.8342020405730178 0.12752407326246074 -0.3862597019635414 195 195 197 0.0436497052033823 2 569 30 539
304 0.8926945201841175 0.10657014930744975 -0.38566691837748646 41 33 27 0.14465434179783826 2 685 30 654
305 0.8539818366657757 0.08827828855259942 -0.38579469047386855 34 37 38 0.4293101143096144 2 781 30 766 4 1355 29 520
306 0.9939849154822967 0.06543841780485118 -0.3830014244554362 191 197 197 0.1757238026205964 2 1021 30 952 29 654 31 1057
307 0.8302281599805709 0.05466211693041443 -0.38573476505843657 185 188 189 0.0135130317121935 2 1038 30 1036
308 0.9819101652337129 0.016487238280545595 -0.3804307598030665 39 46 49 0.02277864840367473 2 1341 30 1253
309 0.9891063545922945 0.008784888923201813 -0.38227118451853126 45 48 51 0.026259468269038445 2 1388 30 1299
310 0.8320414339311881 -0.027766713402943982 -0.38445029803596475 131 131 133 0.049192507574401266 2 1677 30 1619
311 0.8320414339311881 -0.027766713402943982 -0.38445029803596475 131 131 133 0.049192507574401266 2 1678 30 1620
312 0.9795226217228414 0.11316498950901775 -0.38297831323196346 59 66 71 0.10436241027620623 2 698 31 729
313 0.9033563305067936 0.04172420718272896 -0.38548385712585476 28 31 31 0.35161593698273585 2 1163 31 1381
314 0.9167681229118795 -0.011811738840066376 -0.3835868861948865 32 35 37 0.07607589990423697 2 1533 31 1714
315 0.8785185532070741 0.11293675209157306 -0.38738484258586403 36 36 38 0.31113118913497595 3 966 6 603 7 426 9 251
316 0.9692464280375755 0.09177407398780821 -0.3831793855029917 61 61 61 0.21594185189426066 3 1057 6 819 28 489 30 754
317 1.0051359971330254 0.04895646548611796 -0.3871709773999721 62 69 72 0.05366145512590099 3 1280 6 1173
318 0.9098508317434213 -0.005540450186199877 -0.3829142001278982 34 37 36 0.06773747861901407 3 1512 6 1547
319 0.9562249307003519 -0.01683173125666499 -0.3871937369376983 90 97 102 0.043075450910678416 3 1545 6 1623
320 0.969436387114504 -0.03363190811729568 -0.3821158299166958 44 46 52 0.06573205495144233 3 1595 6 1723 28 1308
321 0.8898458777346929 -0.09684210705327567 -0.3849306007661403 36 35 39 0.13785016339526457 3 1798 6 2123
322 0.9375999058582015 -0.059495329586980554 -0.38357629206722715 23 29 30 0.37079343676826326 3 1694 7 1718 28 1449 31 2017 6 1920
323 0.8729744616241955 -0.06244928991911189 -0.3831598326403599 28 31 30 0.4107250179398395 3 1725 7 1768
324 0.9113317416537037 -0.07464895714539142 -0.3850409455324672 163 166 165 0.24957211622242645 3 1745 7 1831
325 0.9940624161783538 0.06554015702254254 -0.38340894367704903 195 198 199 0.07262754643204379 3 1208 8 767
326 0.9734372230452224 -0.03756540198379247 -0.3825732282801457 188 191 190 0.14753142483958054 3 1609 8 1476
327 0.8918368862349101 0.10193544520363443 -0.38605434872865096 28 31 30 0.1811197022700619 3 1005 10 198
328 0.832322403389369 0.07530027818464549 -0.3854410762145026 184 187 188 0.024794000998488063 3 1108 10 282
329 0.8325532354094753 0.012218200238246968 -0.38543081629197345 121 123 121 0.042297720674984884 3 1443 10 647
330 0.8328870330447468 -0.03770187286042662 -0.3845338739012054 126 122 123 0.10429416352842558 3 1650 10 964
331 0.8334210230005149 0.10677271577546193 -0.3862410167716857 144 145 146 0.009464491806292054 3 972 11 282
332 0.8328741774388305 0.06336167131621892 -0.38696800609120924 140 141 143 0.06177099890787513 3 1202 11 787
333 0.8328741774388305 0.06336167131621892 -0.38696800609120924 140 141 143 0.06177099890787513 3 1203 11 788
334 0.8306476956211929 0.01262285652186622 -0.38621617749580056 174 181 180 0.10256080925419496 3 1441 11 1470
335 0.9271048669323373 -0.05515225711559623 -0.38247145063112103 207 213 213 0.028531337991212363 3 1681 11 2444
336 0.8323844594248601 0.038949726865786995 -0.38545645480462465 179 185 185 0.017217360461129833 3 1314 26 709
337 0.9593376362569416 0.03744070646685831 -0.3837909477976723 53 61 62 0.05565642782612664 3 1320 26 912
338 0.8328083879565792 0.03772224755191267 -0.3848020604626976 117 117 117 0.2616857243615208 3 1322 26 719 24 571
339 0.8327972256355557 0.03769497821452791 -0.38467557888489057 117 119 123 0.23822203066417805 3 1323 26 720 24 572 28 872
340 0.8322522692186234 -0.007142601004127459 -0.3846737854463157 111 114 117 0.11851613488674027 3 1529 26 990 30 1487 28 1233
341 0.8333837282417562 -0.02523019317845952 -0.38477268468140535 163 170 174 0.010787521227057239 3 1601 27 938
342 0.9326062357165705 -0.051709749072343866 -0.3821709736555255 173 176 175 0.04399105751665503 3 1662 27 1154 29 1079
343 0.8544769873009292 0.08859584030854986 -0.38827818588799823 30 36 35 0.0236078592712216 3 1051 28 475
344 0.8544769873009292 0.08859584030854986 -0.38827818588799823 30 36 35 0.0236078592712216 3 1052 28 476
345 0.9109812741167456 0.08809123224363966 -0.3860778850515178 185 191 189 0.008263869128430523 3 1065 28 502
346 0.9796196346574848 0.08802320891282012 -0.38475423283296395 72 75 76 0.09373044591889226 3 1078 28 539
347 0.9480393730062424 0.08251850693653177 -0.3842781067231111 52 58 60 0.03738483188717338 3 1097 28 565
348 0.9480393730062424 0.08251850693653177 -0.3842781067231111 52 58 60 0.03738483188717338 3 1098 28 566
349 0.8323293123334783 0.04924636569137353 -0.38594457168945645 123 123 125 0.08246002033673866 3 1274 28 785 29 713 30 1076
350 0.8323049240143086 0.04922091448748907 -0.3858230408400511 123 123 125 0.06054722753849839 3 1276 28 787 29 715
351 0.8801709427463048 -0.0064430732426059715 -0.3867358484881583 164 172 169 0.09309384616110694 3 1522 28 1221
352 0.9170492359793381 -0.03749927177778595 -0.38445081714773693 28 34 34 0.05447382666302072 3 1619 28 1348
353 0.9170492359793381 -0.03749927177778595 -0.38445081714773693 28 34 34 0.05447382666302072 3 1620 28 1349
354 0.92379099816814 -0.05408877809270488 -0.3826467199618511 162 169 168 0.15682452469278657 3 1678 28 1432 29 1096 30 1701
355 0.8791565084959009 -0.07379931161258392 -0.3826747961548852 17 18 14 0.2188415689342348 3 1751 28 1516 16 1176 25 2150
356 0.9416581986584771 0.08850742894039092 -0.38473853254094187 34 40 40 0.0845489247953238 3 1066 29 534
357 0.9416581986584771 0.08850742894039092 -0.38473853254094187 34 40 40 0.0845489247953238 3 1067 29 535
358 0.8339769644906033 0.06703102273421083 -0.38696628086563745 189 189 191 0.03943854512798831 3 1177 29 626
359 0.8320033001068597 0.05242812526091034 -0.38565046666011915 104 107 108 0.03476914021872106 3 1253 29 699
360 0.9641618503645811 0.03216844866163547 -0.38377561747713707 42 48 48 0.01705843171838319 3 1346 29 768
361 0.9162953815850969 -0.07382150672805392 -0.3815887732690565 23 26 27 0.006676862182536054 3 1743 29 1167
362 0.9162953815850969 -0.07382150672805392 -0.3815887732690565 23 26 27 0.006676862182536054 3 1744 29 1168
363 0.9051323793336249 0.09236033203937258 -0.38541656739662605 54 60 67 0.36625588212667 3 1044 30 741
364 0.9788263791084764 0.08813724974889377 -0.3827198635490136 33 41 38 0.011314360411585981 3 1076 30 784
365 0.9379334651411364 0.059942128228935514 -0.3829937193590116 34 35 35 0.24026074341705336 3 1229 30 996 31 1176
366 0.8898205927653143 0.045580500722049305 -0.3846691325892802 23 29 29 0.0005255934705418748 3 1291 30 1085
367 0.8898205927653143 0.045580500722049305 -0.3846691325892802 23 29 29 0.0005255934705418748 3 1292 30 1086
368 0.9031599597267126 0.041621198564808615 -0.38503810126286886 20 26 24 0.1057852519587265 3 1306 30 1113
369 0.8433517280795897 0.007900557205841232 -0.38117561142698103 178 181 182 0.07486656034335407 3 1464 30 1379
370 0.9271494891268554 -0.0017054154016156375 -0.38315600154879936 29 28 35 0.060285477406332014 3 1494 30 1404
371 0.8318655204840663 -0.003465852394277866 -0.3854342439321981 119 119 120 0.12296443768742897 3 1519 30 1461 28 1214
372 0.9683035139303805 -0.01626366566978126 -0.38291320155763664 28 34 36 0.04775506024574463 3 1540 30 1482
373 0.8926992190267485 -0.01951339555682254 -0.3845210561871433 42 39 40 0.04678513597216586 3 1566 30 1534
374 0.8926992190267485 -0.01951339555682254 -0.3845210561871433 42 39 40 0.04678513597216586 3 1567 30 1535
375 0.9788353550727695 -0.03655657523501519 -0.38029664326191026 28 34 32 0.10273278522440693 3 1602 30 1589
376 0.9788900718492561 -0.04232759622947669 -0.3809728371018081 165 168 167 0.0799229797989333 3 1621 30 1623
377 0.9788900718492561 -0.04232759622947669 -0.3809728371018081 165 168 167 0.0799229797989333 3 1622 30 1624
378 0.9743223667348259 -0.06887247227727594 -0.38437094763500407 22 28 26 0.1678395113873206 3 1713 30 1733
379 0.9743223667348259 -0.06887247227727594 -0.38437094763500407 22 28 26 0.1678395113873206 3 1714 30 1734
380 0.8851799819846382 -0.06858057747718918 -0.3828743660309517 24 27 26 0.03037449657700161 3 1739 30 1770
381 0.9602720585333753 -0.022645467233468494 -0.38401659070788285 183 191 192 0.5875058758955796 3 1563 31 1713 30 1516
382 1.0874418670016812 0.16520963999045873 -0.38862594414239626 145 148 145 0.11431493047597115 4 1078 6 558
383 1.1031209111579179 0.1643778530790602 -0.39162918203467356 87 85 86 0.12020522475788704 4 1091 6 571
384 1.0862177686449301 0.15638815847504894 -0.3896920911732044 150 157 158 0.06786430578483038 4 1109 6 583
385 1.0995034349408066 0.15136651565584577 -0.389748037641857 130 134 128 0.11515236708048758 4 1129 6 602
386 1.0832457488049412 0.13655631914961008 -0.39098384015496074 113 114 110 0.05324954966478835 4 1188 6 651
387 1.0915699761848836 0.111251354055893 -0.38922453805002755 149 160 156 0.06557277964795655 4 1332 6 798
388 1.0771885311354004 0.08247259626077864 -0.39065775686465304 187 192 186 0.018177192497228125 4 1518 6 1011
389 1.096933365124266 0.05942415964957881 -0.3872097762944087 150 153 154 0.021281432895999316 4 1683 6 1142
390 1.0888751510295889 0.04944885266540115 -0.38426926937332484 103 106 107 0.04184545280444039 4 1743 6 1198
391 1.0886413123827692 0.047528372726968596 -0.38997512818359864 147 155 154 0.00825769867736173 4 1752 6 1208
392 0.9035736899811342 0.04181361345179123 -0.38571533130824437 31 35 35 0.14680031122459025 4 1780 6 1179 7 1004
393 1.0947467930498391 0.029855525426548058 -0.3886398806881822 106 107 109 0.004954562185082054 4 1851 6 1314
394 1.0945335906606608 0.02043126096791885 -0.38777901780744994 112 118 120 0.034367464068945724 4 1916 6 1368 9 1053
395 0.985549431019026 0.005345682724946611 -0.38159760700016504 176 183 182 0.25600966183826634 4 2045 6 1455 27 944
396 0.9526241582215924 -0.015118444463407524 -0.3843938566648088 47 51 58 0.09730296337755574 4 2202 6 1605
397 0.9621903622087943 -0.0233017551549393 -0.3877562804900255 188 194 194 0.11433413508929022 4 2249 6 1662
398 0.8540852416864455 -0.03734126322169826 -0.3848719778457971 30 35 34 0.13307030070648945 4 2409 6 1808 31 2030
399 0.9170925983806939 -0.06875893430156234 -0.3840120380256202 168 172 170 0.0009184147920356147 4 2515 6 1994
400 0.9170925983806939 -0.06875893430156234 -0.3840120380256202 168 172 170 0.0009184147920356147 4 2516 6 1995
401 0.9817105085428184 -0.10010845559978582 -0.38363326005489934 40 46 48 0.09034774591742643 4 2595 6 2099
402 1.1035413058784915 0.09483242874416534 -0.38731459057950407 101 106 102 0.21212194817402602 4 1423 7 760
403 1.0813799814831695 0.08941291575293299 -0.38829031058314556 133 141 141 0.14921539380796725 4 1457 7 785
404 1.0813799814831695 0.08941291575293299 -0.38829031058314556 133 141 141 0.14921539380796725 4 1458 7 786
405 1.094760067908316 0.08390654565427083 -0.38578594411320055 115 118 117 0.1565062754833592 4 1508 7 844
406 0.9316766417921974 0.009404906198538775 -0.38447647788651035 196 202 204 0.1978391838279802 4 2028 7 1249 30 1322 6 1422 31 1544
407 0.8607758442593576 0.012113510129673563 -0.38548171946115256 178 184 185 0.019370096720686736 4 2030 7 1211
408 0.9185285037609852 -0.09969006544103362 -0.384063939912048 28 32 33 0.10333254227238824 4 2608 7 1954
409 1.0806716283307278 0.10666393517635012 -0.3872019897568119 120 126 126 0.14026900161285105 4 1349 8 553
410 1.0872294388943886 0.10186668947072308 -0.38812998798968973 105 108 110 0.27561519684525293 4 1375 8 590 6 861
411 1.0984486989731592 0.07665436288300122 -0.38656291374083046 138 144 144 0.1507822222735196 4 1560 8 796
412 1.0755930717806665 0.07465620377619753 -0.38896626214563107 191 195 190 0.1174806382018703 4 1581 8 793
413 0.8643637307158342 -0.05889694606723965 -0.384973981324735 172 172 175 0.24385541857106818 4 2513 8 1651
414 0.9524679428271274 -0.07784593113612075 -0.383632025842476 40 45 52 0.0854279112572795 4 2531 8 1761
415 1.0803946990839857 0.07164713743062803 -0.38768932825923413 163 174 172 0.010315757326352119 4 1607 9 676
416 1.0805003981171848 0.06445123509984017 -0.3881282013251436 160 166 164 0.014502998723198771 4 1653 9 731
417 1.1032001864854966 0.06015611213411531 -0.387797730429878 101 104 105 0.09456611713090637 4 1680 9 793
418 1.0770741831206956 0.05583474215575452 -0.39059347962886626 188 192 187 0.3683606018712838 4 1694 9 801 7 1018
419 1.0974875989363124 0.018819891979003585 -0.3868642913329179 126 130 126 0.044601596760605336 4 1922 9 1072
420 0.8311610655370106 0.07155953208659636 -0.38574998155116663 147 144 148 0.2145840735141853 4 1501 10 300
421 0.8319045607894388 -0.0022232726794759903 -0.3849571902766658 177 183 183 8.238455629166986e-05 4 2174 10 724
422 0.8740271570367708 -0.04820248070752684 -0.383662953451192 28 27 27 0.03136008355396608 4 2459 10 1018
423 0.832230228374033 0.10086665996693647 -0.38597217940755624 181 184 187 0.14762905785445318 4 1259 26 398
424 0.8338480250002203 0.05142250849197988 -0.38465693238850296 179 184 184 0.19177609067782386 4 1692 26 638
425 1.0034374863561415 0.050659313069342515 -0.3827894468811159 61 71 74 1.0525963251780532 4 1723 26 899 23 1476 24 599
426 0.8571529393018046 0.015568604586011467 -0.3845523629733533 32 32 34 0.08164108231621936 4 1999 26 889
427 0.8584730233836579 0.07642639884610207 -0.38695499732780214 35 38 39 0.27494937504642664 4 1463 27 369 29 565
428 0.832817591601967 0.04487021323473558 -0.38536379184582664 127 123 123 0.13559635434566195 4 1761 27 488 25 1178
429 0.8986709190877848 0.0068006752215408655 -0.3859674811889269 21 27 25 0.06778765329027453 4 2058 27 846
430 0.8329943961505596 -0.01579141695204512 -0.3857732241952757 171 174 176 0.0039816049957171655 4 2267 27 883
431 0.9689444841014843 0.09162328086690025 -0.382701864189597 46 49 52 0.2159774095468044 4 1383 29 524
432 0.978392277738445 0.08798183090534532 -0.3816300325936145 43 49 49 0.1036333550662713 4 1409 29 538
433 0.832473920857511 0.07327190439403797 -0.3857514612611997 137 136 140 0.23405686419418478 4 1484 29 581 28 598
434 0.8329138483217796 0.06729950716331098 -0.38718579078824844 136 133 135 0.013936528871001358 4 1550 29 625
435 0.9501146469079769 -0.033265770628616624 -0.3798556717436387 45 52 56 0.15813786762114718 4 2322 29 1009
436 0.8318696624433344 0.11856625903218004 -0.38736097584678253 175 171 174 0.06974908248941968 4 1131 30 584
437 1.0781825210392098 0.13942717024247153 -0.3870927605899646 134 134 133 0.2859092248862345 4 1171 30 545
438 1.082991923703638 0.11065949526575193 -0.3867211407446821 155 157 156 0.26244782449540544 4 1331 30 661
439 0.8642888799983003 0.06657492126046057 -0.3855912095525408 179 185 187 0.06655518971008806 4 1574 30 951
440 0.9070272865993396 0.028672604997558696 -0.3846715161850627 31 31 30 0.05085309690550149 4 1874 30 1189
441 1.087640119115097 0.025300137965543538 -0.3873855554340057 155 163 162 0.09260462465162028 4 1876 30 1172
442 1.087640119115097 0.025300137965543538 -0.3873855554340057 155 163 162 0.09260462465162028 4 1877 30 1173
443 0.879512719920393 0.019349860973770876 -0.38552866384956147 171 179 178 0.06419094965146847 4 1972 30 1267
444 0.9316766417884146 0.009404906198146256 -0.384476477876962 196 202 204 0.19783918385382102 4 2026 30 1319 6 1420 7 1248 31 1545
445 0.9315315921524305 0.00937968582564393 -0.3842160262485354 174 180 180 0.1313653064518969 4 2027 30 1321 6 1421
446 1.0849622681354487 -0.02307874338851715 -0.38704048077419584 75 72 77 0.0482679609788563 4 2191 30 1467
447 0.8326484217720325 -0.005800454246185488 -0.3849146810713912 176 179 180 0.26743105149631735 4 2192 30 1476 27 821
448 0.9545781481549199 -0.032905167268230125 -0.3822381008050613 28 27 34 0.009949776567929577 4 2318 30 1579
449 0.8852071924285592 -0.037578152942859905 -0.38391522983286785 176 182 180 0.19097555937006602 4 2379 30 1645 28 1365 31 1985
450 0.8852032047865159 -0.03757858454053352 -0.38393799022065445 163 171 169 0.19011364105398645 4 2380 30 1646 6 1792 31 1986
451 0.864210572417487 0.0036308161468560237 -0.38458128595098573 192 195 196 0.38634968508624845 4 2103 31 1700
452 0.864210572417487 0.0036308161468560237 -0.38458128595098573 192 195 196 0.38634968508624845 4 2104 31 1698
453 0.864210572417487 0.0036308161468560237 -0.38458128595098573 192 195 196 0.38634968508624845 4 2105 31 1699
454 0.832426537479357 -0.012880814840078003 -0.38571497266730076 160 156 161 0.12423682314579637 4 2251 31 1908
455 0.9976333048906738 -0.05004736346146078 -0.3828669685740862 38 46 45 0.23720030450274 4 2385 31 1838 6 1823
456 1.0888767605786174 0.12882812987259543 -0.38542215670689395 145 148 147 0.016953001589731873 5 1204 6 677
457 0.9408997218872731 0.11287076680470759 -0.3885486258969362 39 47 48 0.16719208880134304 5 1224 6 656
458 1.082126482104211 0.10199466487085149 -0.3880617401147189 141 147 146 0.016150971947926068 5 1348 6 849
459 1.0781605212416554 0.09939417763335931 -0.39153097102880074 191 195 190 0.031279635995797125 5 1362 6 881
460 1.0959774730251306 0.09555630052972434 -0.385757588094114 137 145 144 0.021965584653334758 5 1389 6 914
461 1.0959774730251306 0.09555630052972434 -0.385757588094114 137 145 144 0.021965584653334758 5 1390 6 915
462 0.9485713888435681 0.08260098817052636 -0.3851142680927051 41 47 46 0.1589646430088152 5 1425 6 885
463 0.8634962451416187 0.07456365554360624 -0.3832095858613255 199 202 206 0.018043156886780445 5 1455 6 867
464 1.0915331432049222 0.06826560899308134 -0.39147698936242864 99 101 99 0.05474973962521539 5 1583 6 1099
465 1.0058452929176867 0.0508820137760908 -0.3855515238507583 59 69 76 0.12110636452696803 5 1681 6 1156
466 1.0935557232608206 0.03559567252787766 -0.38758799269889144 104 105 108 0.10102191404428262 5 1773 6 1275
467 1.0851941902406967 0.01851323358275639 -0.38537949645176944 148 159 159 0.18056029956926437 5 1878 6 1377 8 1149
468 0.8642018942930422 0.008281839154173546 -0.38377876700687596 44 44 46 0.24239929814706468 5 1984 6 1428 29 860
469 0.8684552955872734 0.0009998504573102884 -0.38479202412027996 48 44 52 0.20922419022677505 5 2045 6 1495 30 1414 31 1709
470 0.9545212905469195 -0.018073593440766127 -0.3830678500992152 187 198 196 0.1321028862146503 5 2141 6 1633 31 1685
471 0.9598833634668397 -0.05556677084440327 -0.3812659435384497 26 32 30 0.028695900605031625 5 2341 6 1871
472 0.8855580945074987 -0.06869038311883094 -0.3838337697854556 27 30 29 0.03514243114762139 5 2427 6 2022
473 1.0846228203016173 0.12133840351297481 -0.3888308220484611 153 157 157 0.22587625402772243 5 1245 7 570
474 1.0793889362580835 0.09078802645937922 -0.3879716503055512 166 172 172 0.16645424800497738 5 1418 7 773
475 1.0924819597059627 0.06264009722422162 -0.388943588435632 100 107 108 0.164031889046521 5 1610 7 997
476 1.080160780432417 0.04135760079327188 -0.3890364395346818 159 167 166 0.24154888508441058 5 1738 7 1098 30 1087
477 1.0858860789422835 0.035365653139038895 -0.38712517173517014 153 160 158 0.14180663805536275 5 1776 7 1137
478 1.1032406239385473 0.035263408186635 -0.39032217757437204 97 97 97 0.18399043373759172 5 1777 7 1144
479 0.9903511395900712 -0.061061022776385886 -0.3818723170503396 54 49 55 0.25719626969081155 5 2346 7 1701 29 1097 31 1943 28 1435
480 1.0991378189274954 0.11358553051042575 -0.3862027471985318 132 140 139 0.2224500989672791 5 1294 8 533
481 1.0936014124512423 0.07644204952524603 -0.3842085453568024 112 117 118 0.16376490701146856 5 1516 8 789
482 0.8902118270047282 0.04570436299305376 -0.38547702278398466 29 32 35 0.10850400120590646 5 1708 8 837
483 1.084089234509902 0.030357089576207676 -0.3890266974848831 161 164 163 0.11581575031637245 5 1804 8 1078 9 994
484 0.854825764713124 -0.07536175239107164 -0.38622939781941606 36 39 42 0.5260467891322727 5 2460 8 1786 9 1653
485 0.8548992869376284 -0.07538223874704085 -0.38627074278329 28 31 34 0.5583660537719838 5 2461 8 1787
486 1.0906361737493602 0.07999068569054567 -0.3882025551195448 122 129 133 0.21940365928152972 5 1496 9 635 6 1034
487 1.1065608074978848 0.057736514052273286 -0.38904129089934875 128 133 128 0.16719195943957182 5 1646 9 823
488 0.8328422782397245 0.12307369724488512 -0.3862384703302369 137 136 136 0.1724515713521036 5 1114 29 414 26 335 28 293
489 0.8323167175711894 0.10098537400685141 -0.3864071851549102 187 190 192 0.04750551164655829 5 1234 29 471 30 674
490 0.9045514352098586 0.09162497515942833 -0.3836338021116346 36 39 42 0.6425093208932702 5 1338 29 515
491 0.9814103902717318 0.07909713186205851 -0.3813786388019987 56 61 63 0.005796561435205994 5 1461 29 569
492 0.9794301358321339 0.05667787374590175 -0.38309830924033195 182 188 186 0.26196529891972226 5 1638 29 695 26 843 28 752 30 1011
493 0.9030821998160864 0.04167064712509675 -0.3847326716316288 22 28 26 0.025240234903059922 5 1733 29 738
494 0.8780425585804738 0.11232910315196369 -0.38554475776302555 31 37 37 0.18043261646849723 5 1192 30 619 26 427 29 446
