# 3D point list with one line of data per point:
#   POINT3D_ID, X, Y, Z, R, G, B, ERROR, TRACK[] as (IMAGE_ID, POINT2D_IDX)
# Number of points: 433
219 1.1056381421541848 0.05062519558303877 -0.3912446229082285 136 140 139 0.09947010991401259 4 1737 7 1052
220 1.0933939161294068 0.03962739651523326 -0.3882995650432783 97 103 103 0.4058050220585743 4 1800 7 1117 9 939
221 1.0800001550689247 0.10644116466741971 -0.38645001363840487 122 125 128 0.2932571101254536 4 1349 8 553 6 814
222 0.8985840754152054 -0.08611100899558811 -0.387335811290622 31 30 34 0.40170782297035423 4 2592 8 1840
223 1.0986430336198247 0.10371876022351259 -0.3892786118597325 140 146 144 0.0014835950867821013 4 1371 9 508
224 1.0859811592927717 0.0729098437453709 -0.3881650591360874 152 161 159 0.42501101720508444 4 1603 9 675 7 921
225 1.0813225810213047 0.06459370976559659 -0.3888856513586313 160 166 164 0.08302458162081769 4 1653 9 731
226 1.098694179786973 0.01886020531523909 -0.38794248608831733 126 130 126 0.06721592650536727 4 1922 9 1072
227 0.8311881056363895 0.07152523174020857 -0.38559550929304776 147 144 148 0.06545955447260733 4 1501 10 300
228 0.9858263250817697 -0.05291773508271377 -0.3811527022828557 185 193 192 0.07207808501344914 4 2416 10 1041
229 0.832448982733314 -0.038025592813641956 -0.3852944527798828 110 110 112 0.19121863272371067 4 2429 10 968
230 0.8315573393292636 0.1366219272906648 -0.3859521562715573 142 137 135 0.14958703205136115 4 997 26 282 24 105
231 0.8315145512519244 0.13291453460909208 -0.3852465361230896 135 131 126 0.1470561443372935 4 1046 26 290 29 395
232 0.8315145512519244 0.13291453460909208 -0.3852465361230896 135 131 126 0.1470561443372935 4 1047 26 291 29 396
233 0.8322607633674455 0.10086311045840367 -0.3858787439121954 195 197 198 0.21710341418575166 4 1259 26 398 30 674 28 365 29 471
234 0.8337490295288902 0.05138576645392805 -0.3839143774701516 179 184 184 0.02953428869273607 4 1692 26 638
235 1.0028489598368557 0.05072403003234527 -0.38103903652252574 63 76 76 0.16967442112213318 4 1723 26 899
236 0.8324568392111272 0.07262475443841603 -0.38625737850813846 191 190 186 0.0515199728779455 4 1491 27 353
237 0.9849527979320428 0.005518738949199709 -0.38058678045901323 176 183 182 0.003140881604250304 4 2045 27 944
238 0.8986289399383421 0.006838224716008672 -0.38552921878232016 21 27 25 0.07351840886002244 4 2058 27 846
239 0.8669649084644718 -0.0634558327955103 -0.3825798874516661 18 24 24 0.10826855035486825 4 2529 27 1160
240 0.853981176779202 0.08826367078905142 -0.3856674844121686 38 44 44 0.35152096849679143 4 1355 29 520 30 766 31 1076
241 0.8329829277365869 0.06726374796669918 -0.3869761675951105 136 133 135 0.0009293468798475484 4 1550 29 625
242 0.8739386721043925 0.06106247497152438 -0.38450108631931096 28 31 30 0.10823242395823478 4 1631 29 663
243 0.8318958436872235 0.1205262272068046 -0.3857517948484566 201 200 202 0.11562070839981212 4 1120 30 576
244 0.8317703704340716 0.108405746533872 -0.38603858437334454 197 197 199 0.05034794517610291 4 1193 30 635
245 0.833526506585039 0.10687634184648452 -0.3865787089612361 147 144 149 0.06556079894858394 4 1209 30 645
246 0.9482698313017591 0.08826743163486947 -0.38489085088177183 193 199 199 0.22811428774954193 4 1398 30 777 31 947
247 0.9479139074914575 0.08813015912355007 -0.3840719502333413 183 191 189 0.20363851965109597 4 1399 30 778
248 0.8547065736853687 0.04858077298499342 -0.3847422320443691 28 34 33 0.06548302310169855 4 1728 30 1080
249 0.9467988559474159 0.019677232851371816 -0.38015822019559925 23 29 29 0.02277037402475144 4 1947 30 1243
250 0.8308068580008116 -0.011969540071884615 -0.38599195626126664 179 182 184 0.10645573231848575 4 2240 30 1517
251 1.0789032355226145 -0.03698930801977561 -0.38308443442321505 74 77 79 0.17255011150104627 4 2270 30 1541
252 0.9547065084352159 -0.03285126053924654 -0.3822112120076332 28 27 34 0.045534570813645155 4 2318 30 1579
253 0.9793124676203706 -0.0423848550989867 -0.38157271913735463 165 168 167 0.06383249390766578 4 2357 30 1623
254 0.8797281651652301 -0.03750014951133285 -0.3855582213492866 34 33 33 0.17058977128549432 4 2383 30 1648 31 1999
255 0.9363497463868805 -0.054657712375001805 -0.3833702733426628 159 167 166 0.07575560253828535 4 2450 30 1694
256 0.8644327895688251 0.0036412993698085885 -0.38484995133088706 192 195 196 0.2770677003087888 4 2103 31 1700
257 0.8644327895688251 0.0036412993698085885 -0.38484995133088706 192 195 196 0.2770677003087888 4 2104 31 1698
258 0.8644327895688251 0.0036412993698085885 -0.38484995133088706 192 195 196 0.2770677003087888 4 2105 31 1699
259 0.8543997503388934 -0.012736789415650835 -0.3852338109306767 37 37 39 0.07046427293278133 4 2234 31 1857
260 0.9415468570370851 0.11327005091654359 -0.38988789999675255 39 47 48 0.12352749215343688 5 1224 6 656
261 1.0033208551990953 0.09030777991315775 -0.38333048826432764 69 81 81 0.148328093244576 5 1387 6 869
262 0.9492325267508176 0.08289587135753379 -0.38638879280082017 41 47 46 0.12526136043274294 5 1425 6 885
263 0.8641290865816864 0.07493396550295127 -0.3853296257568378 184 190 190 0.13427556577912264 5 1455 6 867 30 883
264 1.0809057609911366 0.0742043926446527 -0.386029677118752 146 150 152 0.028347679937251524 5 1534 6 1060
265 1.1036128298548376 0.06231167344372528 -0.39043293773002363 135 143 142 0.29362016046821615 5 1614 6 1135 9 773
266 1.0880734238217717 0.05354514289489945 -0.38734005503358476 103 103 102 0.03311320394393678 5 1665 6 1176
267 1.00662163371349 0.05108539623224311 -0.3866988108309948 59 69 76 0.08673909922094154 5 1681 6 1156
268 1.0783734480402483 0.04523351928014414 -0.38269762982976363 145 147 148 0.005728201132412212 5 1717 6 1217
269 0.8861809076896181 -0.04353448407694032 -0.38527320081959604 29 32 31 0.030931171242998216 5 2324 6 1834
270 0.8861809076896181 -0.04353448407694032 -0.38527320081959604 29 32 31 0.030931171242998216 5 2325 6 1835
271 0.9964174946785255 -0.05911714857185208 -0.3832182974096963 195 198 197 0.10575136525830431 5 2340 6 1872
272 0.9372412584574903 -0.05492694210485611 -0.3852560314715027 175 182 179 0.07846373251503189 5 2345 6 1876
273 0.8810138330707561 -0.07515779024663605 -0.38774748996785113 25 25 27 0.07354163493119804 5 2446 6 2057
274 1.080904224009218 0.0912330820832808 -0.3895757427437552 166 172 172 0.0006027761176356588 5 1418 7 773
275 1.1057244605269978 0.08521505885692149 -0.3900642041694299 131 140 138 0.072524004924203 5 1469 7 850
276 1.0876792001575173 0.03557810616416636 -0.38897193644112077 153 160 158 0.021886385389134618 5 1776 7 1137
277 1.1051810169106828 0.0354817658775607 -0.39224235433799437 97 97 97 0.02661686254811078 5 1777 7 1144
278 0.9924606740157472 -0.061663949495464054 -0.3849122269196794 54 49 55 0.22972637222877923 5 2346 7 1701
279 1.002900255283584 -0.06519077673927118 -0.3837432711894002 53 54 62 0.26598043775442887 5 2356 7 1726
280 0.9113887666781926 -0.06880618538542518 -0.3855126362059724 27 30 31 0.10750012601085603 5 2413 7 1794
281 1.0987179536830258 0.11360995287874964 -0.3858015682816422 132 140 139 0.19308368466699508 5 1294 8 533
282 1.1046485087047024 0.0474736556756038 -0.3882704996493016 112 120 119 0.19244348911873252 5 1706 8 994 6 1213
283 1.0839727134770702 0.03471329445297636 -0.38866255226982077 164 166 166 0.02491354362353884 5 1780 8 1051
284 1.085631551670059 0.01861875058226721 -0.38577922306667717 139 147 146 0.04000328992309066 5 1878 8 1149
285 0.8553642358758609 -0.07579740142094621 -0.3882034691192487 28 31 34 0.9032498163710366 5 2460 8 1786
286 0.8553642358758609 -0.07579740142094621 -0.3882034691192487 28 31 34 0.9032498163710366 5 2461 8 1787
287 0.8907740484325122 -0.0975200161969426 -0.3875933625479863 35 34 37 0.5424609262144218 5 2495 8 1907
288 1.0794401521974593 0.060338369879915664 -0.39309199375717135 188 195 189 0.03960184748366265 5 1629 9 768
289 1.1078178783720238 0.05800943795384691 -0.3902266492723864 128 133 128 0.02473527974244165 5 1646 9 823
290 0.904365989381462 0.0915988361789677 -0.38301980968540417 36 39 42 0.556199713663285 5 1338 29 515
291 0.833705959416095 0.05511939504794211 -0.3874409934687063 110 110 112 0.052597054199170594 5 1625 29 693
292 0.8996803173807144 0.03551100158030244 -0.3849093610532709 34 32 29 0.2593675089380089 5 1782 29 759
293 0.8293266116106816 0.12001044810178554 -0.38436730486646453 195 195 195 0.07946492382890727 5 1119 30 575
294 0.8782679473102927 0.11253227904844314 -0.38617036894978585 32 32 34 0.056349266885196966 5 1192 30 619
295 0.8328702218635994 0.10583417461709327 -0.3870939880753108 190 193 195 0.4441311495237541 5 1206 30 650 27 256
296 0.9818855907315935 0.11193960567241105 -0.3828074502640444 35 43 44 0.11318318072052841 5 1244 30 640
297 0.9292049835816488 0.10372534001317722 -0.3862630605684017 24 30 28 0.0086383394068608 5 1278 30 675
298 0.8322854449550915 0.08163173598080602 -0.38653943082621645 193 193 196 0.020831682515914725 5 1377 30 825
299 0.8324400012692613 0.07217876378074861 -0.38584840567682294 191 194 197 0.29386838653702857 5 1473 30 904 26 519 29 593 28 610
300 0.9291951977856749 0.07186219053429761 -0.385563288955161 183 190 189 0.0196578124316239 5 1506 30 906
301 0.9521407207367041 0.045848681980000534 -0.3840174043332701 31 34 34 0.03834451010331352 5 1714 30 1081
302 1.081329598503385 0.04159705498350882 -0.3903218675882405 144 151 153 0.18404808533004716 5 1738 30 1087
303 0.8326214759324666 0.038961021655414596 -0.386220509564712 182 184 187 0.07628309642297142 5 1753 30 1138
304 0.8304928382550552 0.024248233568862156 -0.38677023971909225 185 188 191 0.16541275237654235 5 1879 30 1251
305 0.93158786994384 -0.0018505038870645478 -0.38379179270203756 31 34 33 0.038297222804056896 5 2044 30 1401
306 0.8728356009609439 -0.0010226825374949572 -0.3840115533652511 24 30 29 0.12245926016961582 5 2060 30 1423
307 0.9523394070817096 -0.0158407465921625 -0.37939810871354385 80 88 90 0.006396711663643337 5 2134 30 1485
308 0.8892357682037126 -0.03391167330321133 -0.3845374530992029 31 31 31 0.2661369862460503 5 2269 30 1621 31 1956
309 0.8331915183842881 -0.03387817323284066 -0.3860516075528878 176 176 180 0.2907207982677228 5 2300 30 1655
310 0.9704395246220009 0.11105708367455758 -0.38553284754129274 61 61 65 0.04870971075401305 5 1249 31 757
311 0.9954559841976868 0.10437041026928245 -0.3877553950862459 31 39 36 0.044257610445922205 5 1303 31 788
312 0.9954559841976868 0.10437041026928245 -0.3877553950862459 31 39 36 0.044257610445922205 5 1304 31 789
313 0.8887564740290136 0.091456937204008 -0.38603355144147417 37 40 43 0.20849233996162167 5 1336 31 1009
314 0.9904551284788466 0.07097994313229967 -0.3828835017738168 49 43 37 0.10025965839862806 5 1533 31 1024
315 0.9243240490435154 0.0017088645974260215 -0.38460793127608456 44 33 31 0.1639225231197538 5 2017 31 1596 30 1382
316 0.8340460710168393 -0.007686708867895198 -0.38581619485790625 137 131 137 0.15258336622937657 5 2126 31 1865
317 0.9550253775526986 -0.018078512189054437 -0.3840697239495067 184 190 190 0.22011442615542764 5 2142 31 1686
318 0.8332892597337778 -0.022808061852924146 -0.3860890193066336 139 139 141 0.28998520620044466 5 2231 31 1990 29 989
319 0.8669377365308694 -0.05580285257694704 -0.38493312435846067 186 186 186 0.004095511902983233 5 2387 31 2084
320 0.8669377365308694 -0.05580285257694704 -0.38493312435846067 186 186 186 0.004095511902983233 5 2388 31 2085
321 0.8545021553647976 0.04974489625693123 -0.3874917026681459 37 37 41 0.18523266334033223 6 1102 7 896 30 1070
322 0.8613822951140878 0.005474469914000737 -0.38648160410353866 192 195 198 0.07910243829370824 6 1452 7 1255
323 0.8613822951140878 0.005474469914000737 -0.38648160410353866 192 195 198 0.07910243829370824 6 1453 7 1256
324 0.9184594122620708 -0.011915470148281147 -0.38665322495791404 34 35 37 0.0023882872887880865 6 1584 7 1398
325 0.9184594122620708 -0.011915470148281147 -0.38665322495791404 34 35 37 0.0023882872887880865 6 1585 7 1399
326 0.9128081297592271 -0.04312733410837937 -0.3876613060786209 32 31 30 0.020747303652504042 6 1815 7 1602
327 0.8682691962126758 -0.06467339547792648 -0.3886208498095362 26 26 26 0.20048918415213357 6 2003 7 1783
328 1.0804905919611574 0.10980684747071523 -0.38679351448001315 133 140 134 0.06052388208293923 6 788 8 540
329 1.0929122964184919 0.10975616049970918 -0.38593563763345745 89 92 90 0.05819977760056259 6 804 8 545
330 0.9787995877067807 0.08821361617072429 -0.38184390590465306 52 63 61 0.07704074877350969 6 858 8 555
331 0.948121184867791 0.08233604795484484 -0.38423079483949163 44 51 54 0.14181836896656427 6 886 8 566
332 1.0800652426657897 0.09633740277641402 -0.3834583390348591 166 172 170 0.08188227688217244 6 895 8 606
333 0.978797222663821 0.08232331630250657 -0.38236252459370684 193 200 200 0.43636752381885563 6 918 8 600 11 677
334 0.978797222663821 0.08232331630250657 -0.38236252459370684 193 200 200 0.43636752381885563 6 919 8 601 11 678
335 1.1022937052986577 0.08676306022463574 -0.38669404797093043 137 145 142 0.05460008029945375 6 998 8 719
336 1.0934931921630406 0.0820079526780486 -0.38740512963818274 153 161 158 0.025752091127090638 6 1021 8 752
337 0.9861185398983496 0.06432697353742209 -0.38245350269630607 74 68 69 0.0684106869202637 6 1068 8 769
338 0.9861185398983496 0.06432697353742209 -0.38245350269630607 74 68 69 0.0684106869202637 6 1069 8 770
339 1.0988406725189053 0.06862015839563945 -0.3890727427573507 126 134 135 0.023336850910719156 6 1098 8 859
340 1.0761835226687686 0.0264450654565701 -0.3860067940222674 116 122 122 0.06745828613928481 6 1331 8 1092
341 1.1012429547073335 0.018457719529221026 -0.3868858435769092 94 100 100 0.08229700511118354 6 1382 8 1159
342 1.0844247310505968 0.009116017891018369 -0.3872727016577872 111 114 113 0.06624600874230209 6 1435 8 1215
343 1.089596970078111 0.00821868740822065 -0.38427947226155534 154 163 162 0.07740749758661365 6 1439 8 1219
344 0.8996724201433023 0.006986166351845817 -0.3884767984616671 25 31 31 0.24255450745133134 6 1442 8 1156
345 1.101212227876078 -0.007033527807692926 -0.3824508642755685 126 132 129 0.11891087993222418 6 1533 8 1296
346 0.9287458973490909 -0.050700977959306975 -0.3851215928582503 53 45 50 0.10637461199682961 6 1854 8 1565
347 0.9287458973490909 -0.050700977959306975 -0.3851215928582503 53 45 50 0.10637461199682961 6 1855 8 1566
348 0.8806306852827857 -0.06941085205270593 -0.3874164725908748 186 192 194 0.28592027197189307 6 2029 8 1734 9 1588
349 0.903892090382696 -0.08203377851144078 -0.3845773620577178 44 44 40 0.18012577673086877 6 2077 8 1809
350 1.0908100534974818 0.07997076639534531 -0.38840774634292285 122 129 133 0.13280870597976224 6 1034 9 635
351 1.0944555924321855 0.057468369209506626 -0.3906760317301859 116 119 120 0.13449569147003537 6 1153 9 809
352 0.9039885359288536 0.03239701718656305 -0.3866497806335597 191 196 201 0.09365963734482018 6 1246 9 794
353 0.8590981174610892 -0.001004033458425612 -0.387466577295845 35 38 41 0.3448342654707354 6 1512 9 1046
354 0.8590981174610892 -0.001004033458425612 -0.387466577295845 35 38 41 0.3448342654707354 6 1513 9 1047
355 1.0757074024969075 -0.004131680102107356 -0.38937351929459413 193 198 196 0.19248341338929018 6 1523 9 1183
356 1.097922866981684 -0.01223089246307427 -0.39005025863111675 142 149 148 0.23716182330679986 6 1562 9 1237
357 1.001356723880342 -0.057498055752077136 -0.38590052800011004 192 200 201 0.19804648268276578 6 1857 9 1474
358 0.947742949144154 0.051063992580290235 -0.383448251292156 195 203 204 0.18217741589796407 6 1130 10 489
359 0.8584800810875111 0.07240749822415898 -0.3852910094470907 31 34 35 0.17622626899667732 6 892 30 897
360 0.854491872538823 -0.012768617427155264 -0.38571956132405005 24 27 28 0.08790990694667937 6 1610 30 1511
361 0.9952009203082538 -0.024543813233964505 -0.3843900281517734 26 32 30 0.31766888051484965 6 1663 30 1512
362 0.980206224336217 -0.036938126132204076 -0.3827552355512859 28 34 32 0.2672172557105262 6 1746 30 1590
363 0.8729550639246827 -0.05398011851137588 -0.3847334628669572 156 163 164 0.19502359958197923 6 1925 30 1723 31 2072 28 1454
364 0.8574357814529878 0.060120268890553594 -0.3868522165498984 44 43 48 0.03329532720777977 6 1026 31 1313
365 0.8797001644774907 0.019397506736474397 -0.3856419161971107 192 194 200 0.11114687733936847 6 1341 31 1556 30 1266
366 0.8856569956894359 0.01917423275363522 -0.3848256292007462 34 37 38 0.22417765565977224 6 1348 31 1549
367 0.959067801310086 -0.03357964113065381 -0.38256331177614933 42 48 50 0.050043506343836267 6 1724 31 1801
368 1.0859803977690003 0.09470347930391686 -0.38752210150863875 122 126 127 0.006421862151512318 7 729 9 529
369 1.0872022022575618 0.07955219695176169 -0.3899569501069845 162 172 172 0.013521406335111692 7 873 9 637
370 1.079832035364363 0.05776635050676726 -0.3884863158388741 170 179 177 0.059404869746861585 7 1010 9 784
371 1.07401778472588 0.05448829974499257 -0.3868471700069181 190 195 194 0.05593182249581788 7 1018 9 801
372 1.0870242134721135 0.046054962880755675 -0.39195148569939636 156 162 163 0.06962419729636012 7 1073 9 888
373 0.8550588446209141 0.026996454599455388 -0.3867977070982043 39 45 47 0.306138174492218 7 1075 9 772 31 1548
374 0.9675906333258028 0.03251954578401454 -0.3847063594576878 190 200 203 0.009278424840788505 7 1096 9 872
375 0.9707870594077856 0.028942963191405945 -0.38444336082866054 56 59 58 0.02125414049807967 7 1126 9 897
376 0.8804097021038861 0.019693371906897062 -0.3878625061957357 197 200 203 0.14954641625830936 7 1149 9 894
377 1.0940470228996793 0.03214762647496482 -0.390148189211873 151 160 159 0.0868344201110333 7 1157 9 987
378 0.9496732504564371 0.020294029397106263 -0.38659830179358334 46 51 54 0.054413968697261006 7 1176 9 962
379 1.1038697758146405 0.02665154513882954 -0.3873538685049632 128 136 135 0.0957512094427881 7 1203 9 1021
380 1.1022680206841007 0.014517953528098943 -0.38691572047158274 95 102 103 0.08093162211239219 7 1265 9 1094
381 1.0951285111942861 0.014298675197103376 -0.39043865601663613 153 165 165 0.07403089636420447 7 1268 9 1095
382 1.0897946920743755 -0.003937849859694474 -0.389195752040898 161 172 172 0.09013818487710598 7 1367 9 1186
383 0.8865112220020356 -0.011937422118563589 -0.3878029772248972 192 194 200 0.13506253834083398 7 1387 9 1157
384 0.8865112220020356 -0.011937422118563589 -0.3878029772248972 192 194 200 0.13506253834083398 7 1388 9 1158
385 1.0992800378579124 -0.016528743769272033 -0.3906677834770366 145 151 151 0.13494702478271514 7 1431 9 1266
386 1.1000778349175155 -0.01810515023411711 -0.38972789822271564 102 107 108 0.13060342132751632 7 1443 9 1275
387 1.0788290802301541 -0.0335336912448858 -0.38875554882498337 165 173 174 0.13935831785524896 7 1530 9 1353
388 0.8868687746429941 -0.07524020866850745 -0.3883449785003914 185 188 189 0.1803515036334038 7 1851 9 1630
389 0.8556847180770958 -0.07605280622030296 -0.39045790162312877 31 31 33 0.29361745203119655 7 1874 9 1653
390 0.9640241347013131 -0.08930680645438317 -0.3851593182359377 194 202 203 0.0052984946457455455 7 1899 9 1712
391 0.9063393309614942 0.046544423514450275 -0.383176741255301 41 38 42 0.40288322879596467 7 971 10 493
392 0.9567804487249646 -0.0338822850811473 -0.37878553307939455 44 54 57 0.47539975960856423 7 1544 10 953
393 0.8685886202840329 -0.058975606232231276 -0.3810327699262083 185 189 190 0.07718004225218451 7 1742 10 1094
394 0.8685886202840329 -0.058975606232231276 -0.3810327699262083 185 189 190 0.07718004225218451 7 1743 10 1095
395 0.937881684833527 0.11017384679330448 -0.3800894329111969 42 48 52 0.15414346954651248 7 469 11 311
396 0.9505763203454833 0.029229610963771375 -0.37940125328016194 49 55 57 0.41478715498327723 7 1108 11 1328
397 0.9459180513130122 0.02455883862769946 -0.3796474339786338 203 203 203 0.3998656778542062 7 1140 11 1390
398 0.9262921161609148 0.06721715792913184 -0.3842717745926316 195 201 203 0.10223852196543715 7 798 31 1139
399 0.9262921161609148 0.06721715792913184 -0.3842717745926316 195 201 203 0.10223852196543715 7 799 31 1140
400 0.8959820125933476 0.03980121431654763 -0.38517238892986344 47 46 53 0.01716150370893762 7 1012 31 1407
401 0.9078670358735459 0.028991844698748936 -0.3861078764924881 37 39 40 0.29055506179367535 7 1087 31 1448
402 1.1007746221323058 0.01641752024984446 -0.3832781883868172 172 178 177 0.3377418190851793 7 1252 31 1266
403 0.9820136546272491 -0.04633711973163111 -0.37978400087800424 42 45 51 0.3040490355154241 7 1606 31 1841
404 1.0346882883948156 -0.06099155725961341 -0.37945600752904235 203 204 200 0.3086372609376711 7 1685 31 1850
405 0.9417610081143571 -0.0686324294501274 -0.3812939064297802 181 187 185 0.3966439022687552 7 1780 31 2049
406 0.9417610081143571 -0.0686324294501274 -0.3812939064297802 181 187 185 0.3966439022687552 7 1781 31 2050
407 0.8877355738197735 -0.04361108439145083 -0.3902423029704428 33 36 39 0.008580135815836297 8 1518 9 1367
408 0.8877355738197735 -0.04361108439145083 -0.3902423029704428 33 36 39 0.008580135815836297 8 1519 9 1368
409 0.9311132396319157 0.07798620947066275 -0.3839362994980342 46 47 53 0.1221294806872913 8 577 10 330
410 0.9469427437717544 0.019295527477956778 -0.38138621416092366 40 48 50 0.14960946686481008 8 1073 10 644
411 0.9469427437717544 0.019295527477956778 -0.38138621416092366 40 48 50 0.14960946686481008 8 1074 10 645
412 0.9201528536329033 -0.0015586637403662386 -0.3811393037868255 35 41 43 0.11436667010907153 8 1228 10 740
413 0.9201528536329033 -0.0015586637403662386 -0.3811393037868255 35 41 43 0.11436667010907153 8 1229 10 741
414 0.9201528536329033 -0.0015586637403662386 -0.3811393037868255 35 41 43 0.11436667010907153 8 1230 10 742
415 1.0029349019471088 -0.03633906898974778 -0.37999970672915884 68 78 81 0.30812784470121973 8 1464 10 978 13 1264
416 0.9698066318180835 -0.07357159573296902 -0.37571392631616995 188 194 194 0.37894442932926203 8 1733 10 1158
417 0.9625356143360527 -0.08041491170882005 -0.37484667001366767 185 191 191 0.08127762928189203 8 1776 10 1198
418 0.9625356143360527 -0.08041491170882005 -0.37484667001366767 185 191 191 0.08127762928189203 8 1777 10 1199
419 0.8788392104541083 0.08160114651975055 -0.3842941135077376 203 203 207 0.19716992713608786 8 500 11 577
420 0.9688193106277961 0.07937829359885973 -0.37787717839287244 51 57 59 0.08256007406383627 8 598 11 679
421 0.9688193106277961 0.07937829359885973 -0.37787717839287244 51 57 59 0.08256007406383627 8 599 11 680
422 0.8730650493669064 -0.04846811975938421 -0.38016609724173817 31 34 35 0.04898494713553754 8 1557 11 2344
423 0.8730650493669064 -0.04846811975938421 -0.38016609724173817 31 34 35 0.04898494713553754 8 1558 11 2345
424 0.8756955412446984 0.11002520374184052 -0.3825613790710215 29 32 33 0.034507030033226124 8 343 12 95
425 0.8540710579985604 0.08946291631621738 -0.38418422658033735 32 35 34 0.10636985437809952 8 418 12 127
426 0.8781552357077174 0.05585127745194947 -0.38260338377787395 184 187 188 0.21393939906196774 8 698 12 326
427 0.8781552357077174 0.05585127745194947 -0.38260338377787395 184 187 188 0.21393939906196774 8 699 12 327
428 0.9697384528033588 0.02420981248980692 -0.3772186229123865 182 188 186 0.39577522296985773 8 1049 12 521
429 0.9446451334973691 -0.006785093479453478 -0.37689297350438566 34 42 41 0.30140479994206487 8 1263 12 663
430 0.9072866155649966 -0.07384736584032148 -0.37459055081895154 168 179 177 0.22643756974276397 8 1757 12 975
431 0.8323137066610855 0.1118652566322938 -0.38264753659157175 186 186 186 0.5582058523699512 10 125 13 538
432 0.8315464149027595 0.10895231012218722 -0.38461033571097747 117 109 108 0.5852439854642028 10 135 13 546
433 0.9279155567001969 -0.05036218620966904 -0.3832366927373793 41 47 47 0.29110186817225386 10 1033 13 1324 25 2110
434 0.9279155567001969 -0.05036218620966904 -0.3832366927373793 41 47 47 0.29110186817225386 10 1034 13 1325 25 2109
435 0.9902305429665503 -0.052956812022218365 -0.38072529807646677 40 49 49 0.25373504451970785 10 1042 13 1320 14 1053
436 0.9514487237057563 -0.0772434040822587 -0.38182040876352324 25 28 29 0.14368243224925498 10 1184 13 1431
437 0.965558030068675 -0.08932586035048108 -0.3808602939757492 38 36 38 0.059235384078778944 10 1229 13 1470
438 0.965558030068675 -0.08932586035048108 -0.3808602939757492 38 36 38 0.059235384078778944 10 1230 13 1471
439 0.9896614041720507 0.07127936631214696 -0.38212654052403167 67 74 68 0.34761971542970177 11 831 13 751 16 498
440 0.8732180982735457 0.013179653659897001 -0.384863649747239 12 18 17 0.6157914639796156 11 1498 13 1009
441 0.8540015923793479 -0.012692477728964048 -0.3841746373768919 15 21 19 0.7246427429832928 11 1845 13 1143
442 0.9652774078265539 -0.08401711695819605 -0.3799937557536893 39 37 42 0.23401653603792888 11 2801 13 1451 14 1148
443 0.8976734186835272 0.10066724420161222 -0.38481048242182053 31 34 33 0.4608788568703544 11 387 14 279
444 0.8976734186835272 0.10066724420161222 -0.38481048242182053 31 34 33 0.4608788568703544 11 388 14 280
445 0.8636345276598444 0.07483292511108951 -0.38461926032724386 177 183 183 0.7614077167089474 11 660 14 417
446 0.8636345276598444 0.07483292511108951 -0.38461926032724386 177 183 183 0.7614077167089474 11 661 14 418
447 0.9577031051979964 0.03733199613113117 -0.3812418595439321 56 58 59 0.34794171305263666 11 1229 14 637 22 856
448 0.8895223521538315 0.03095948628351525 -0.38488439825526094 41 33 26 0.5836154126507425 11 1268 14 677
449 0.8895223521538315 0.03095948628351525 -0.38488439825526094 41 33 26 0.5836154126507425 11 1269 14 678
450 0.8337163080737684 -0.020346669759760672 -0.3838409959498245 113 113 115 0.824993323368791 11 1954 14 963
451 0.8839837532217584 0.08785072476064489 -0.3844693448964618 164 172 171 0.0589451072713509 12 160 13 621
452 0.8839837532217584 0.08785072476064489 -0.3844693448964618 164 172 171 0.0589451072713509 12 161 13 622
453 0.8724276599071826 0.07555902251008571 -0.3842694590972252 26 29 30 0.10073731932739272 12 212 13 669 15 659
454 0.9810270442347034 0.07903836071334175 -0.3812689832676714 57 64 64 0.17402008296859448 12 269 13 706 16 453
455 0.9410861164353743 -0.06812964829940336 -0.38061564159720523 154 162 161 0.03469193241879026 12 950 13 1399
456 0.8310760075043953 -0.007769734699435106 -0.3839010317044613 165 168 168 0.11514697840248492 12 640 14 899
457 0.8310760075043953 -0.007769734699435106 -0.3839010317044613 165 168 168 0.11514697840248492 12 641 14 900
458 0.8903424605073152 -0.02847737219387312 -0.38127718027095114 156 162 160 0.1778050026260654 12 776 14 981
459 0.9359396435447235 -0.0625336861129423 -0.38095081282947557 29 35 35 0.7954311334625237 12 934 14 1095 13 1378 22 1388
460 0.9641126259297543 -0.08830100368045016 -0.37787651886935103 43 43 45 0.006653249788664587 12 1019 14 1167
461 0.830738079934601 0.07168310962506573 -0.3851057681482182 130 127 128 0.2551590378681635 12 190 15 671
462 0.830738079934601 0.07168310962506573 -0.3851057681482182 130 127 128 0.2551590378681635 12 191 15 672
463 0.8314366324583127 0.028344392075096907 -0.38414723897284975 107 107 111 0.2622543587250134 12 444 15 936
464 0.9853181521423666 -0.05279526250578757 -0.3806037828216559 178 186 183 0.210834048295858 12 881 15 1280 22 1322
465 0.9892135101785899 -0.05677639829908833 -0.37972423391632326 188 189 185 0.07491499289178792 12 896 15 1293
466 0.8295177075607125 0.0476627799796886 -0.382274080974716 176 182 182 0.027210358396795527 13 792 14 589
467 0.8332656988817134 0.04795057651881462 -0.38407521400758654 173 175 174 0.011898169838789736 13 796 14 588
468 0.8979639144329794 0.03511182775605596 -0.38177837015987204 29 34 32 0.10104744898398847 13 895 14 655
469 1.0032196014485169 0.02617137865381897 -0.3807729923780183 70 81 81 0.12962188341328307 13 975 14 699
470 0.9191698067899965 0.016264193320336313 -0.3821515380909294 27 33 33 0.4092762680506664 13 1002 14 754 22 1006 25 1617 28 1048
471 0.8320500228776845 0.001627263107107737 -0.38324962518704575 155 155 155 0.05607879644282283 13 1065 14 851
472 0.8323203797563142 -0.015706211343781532 -0.38327547010612567 151 157 159 0.13766816007785218 13 1160 14 941 19 624 25 1570
473 0.8323550717208146 -0.022712070943997943 -0.38328185887391353 128 128 128 0.0677421671097054 13 1208 14 974
474 0.8335412837477626 -0.027675228675382715 -0.38349023376978175 99 98 98 0.05173592105342831 13 1244 14 994 16 1013
475 0.8317245773662396 -0.03269112113915904 -0.38396300558447394 86 86 85 0.10318741473782915 13 1272 14 1020
476 0.8787541813251236 -0.06824442823527029 -0.38213690328278715 163 162 162 0.21593083714841763 13 1419 14 1135 18 1000
477 0.8317557340217329 0.10013245309511404 -0.3852188029572325 189 192 193 0.314481071100765 13 557 15 518
478 0.8330376395914807 0.028585539485792656 -0.3842502386180324 100 96 99 0.14629235252505104 13 909 15 933
479 0.9410042842464155 0.02008767599346448 -0.3819455411772236 170 178 175 0.007569620551344294 13 984 15 967
480 0.8327591868742692 -0.004125811405592496 -0.384221703276121 130 126 129 0.06229155285595991 13 1099 15 1123
481 0.8326727937712404 -0.009751651062697741 -0.3841856685775652 100 99 101 0.07358296220300688 13 1120 15 1150 16 910
482 0.8331830949548938 -0.025010932280095693 -0.3847692755609348 160 160 160 0.007098970892865393 13 1224 15 1230
483 0.963450958870789 -0.029520893841364863 -0.3803070714176293 184 190 188 0.12154616006541474 13 1230 15 1199 18 822
484 0.8292443160153559 0.12547730453359499 -0.3876152553356593 193 192 192 0.22187587902905853 13 521 16 177 15 443
485 0.8287805815244043 0.12014488316656081 -0.3854665603522477 194 193 193 0.017146288862452962 13 530 16 197
486 0.8292315101506249 0.10973908774778292 -0.38473907752006525 194 193 193 0.03843205995839824 13 544 16 222
487 0.9574369004001928 0.09804168414373957 -0.3813152581966259 43 46 47 0.05410511625279887 13 612 16 341
488 0.941369691603699 0.05114176581840107 -0.38341697771033983 32 38 36 0.20722816085005422 13 827 16 582 15 822
489 0.8309047991012248 0.038331782509468795 -0.38403255005918835 124 121 123 0.05904706983155767 13 856 16 621
490 0.9651723655443607 -0.018908970877111422 -0.3812900485207269 33 38 38 0.07639758980514279 13 1172 16 938
491 0.8883262488938354 -0.07740993473513237 -0.38232139657007264 18 21 22 0.16516497530783927 13 1452 16 1184 19 954
492 0.9955349015976427 0.07129883981397557 -0.37994235069043714 62 65 66 0.14127205769052012 13 753 18 295
493 0.8299696537115347 -0.029579171923956496 -0.38382499502702316 157 163 164 0.09150469450741804 13 1255 18 787
494 0.8334105790782896 -0.033989764409387134 -0.3829149326183923 107 110 111 0.07006391276459316 13 1280 18 815
495 0.8962480735051659 -0.05515291980998707 -0.3797041862145331 11 18 12 0.12032938723326271 13 1346 18 927
496 0.8684391877065516 -0.058282735310389265 -0.38244400170246845 142 150 147 0.07724569727560807 13 1380 18 952
497 0.8685106115909299 -0.05828529893717033 -0.3828707918195067 166 173 173 0.20927847041410194 13 1381 18 953 22 1417
498 0.878577163920625 -0.06820043577654061 -0.3814610744457817 142 150 149 0.12944147530339692 13 1420 18 1001
499 0.8782353312086695 0.08686901661118852 -0.3827938548289963 21 24 23 0.10346550847513161 13 618 19 115
500 0.8312383184100061 0.07966815311592587 -0.38446130382809335 182 182 182 0.10965251812637966 13 624 19 119
501 0.8315437132637332 0.0660992616689427 -0.3840154967030634 187 187 189 0.31161342060659103 13 691 19 180 16 448 25 1004 20 834
502 0.8906681191517885 0.03145209054346192 -0.3820262561672826 139 155 154 0.11413668243011818 13 911 19 365
503 0.9778718330940933 0.02011489421672198 -0.3803378506991006 181 182 178 0.1122166535051665 13 992 19 472
504 0.8328635874690566 0.0086683288817422 -0.3834576334564612 99 99 95 0.04640206198259007 13 1024 19 481
505 0.8672193787475175 0.0013488271748809408 -0.3828187385006097 24 24 26 0.09365254569553495 13 1068 19 542
506 0.8916897485526836 -0.019522725034819322 -0.38150970311172644 27 24 21 0.09773579952464882 13 1182 19 668
507 0.8916897485526836 -0.019522725034819322 -0.38150970311172644 27 24 21 0.09773579952464882 13 1183 19 669
508 0.8335958626537634 -0.024563105039699048 -0.3831342583445964 110 116 118 0.062027916639666426 13 1222 19 683
509 0.9536865986609366 -0.029915310197964454 -0.3809219336988242 167 173 171 0.14282164174782477 13 1240 19 755 25 2035
510 0.9063682408528102 -0.03389307613555441 -0.3814617861601872 18 24 22 0.09563980252877544 13 1266 19 777
511 0.9152911359563786 0.05641193507360725 -0.38275014409880137 187 193 195 0.01110092044586409 13 787 22 755
512 0.9064384004446566 0.047404600494312846 -0.3835643127113832 22 23 23 0.17169591148913058 13 829 22 810 25 1392
513 0.9931794945803848 0.04371423206108467 -0.3798369725540732 51 62 60 0.10548018019928619 13 882 22 816
514 0.9153568885963405 -0.036825937143545505 -0.38072727719224025 27 31 26 0.08405016770494064 13 1282 22 1308
515 0.9057187749752048 -0.07898680110329738 -0.38356479757289597 20 23 24 0.47894529722605483 13 1448 22 1460 14 1150
516 0.9057187749752048 -0.07898680110329738 -0.38356479757289597 20 23 24 0.47894529722605483 13 1449 22 1461 14 1151
517 0.8315996359302722 0.07193513825407925 -0.3831919157895915 184 184 180 0.18024089368247384 13 653 25 962
518 0.852938403188034 0.04839610578902345 -0.38153904604445077 26 29 28 0.111924044376489 13 801 25 1220
519 0.9422299154752284 0.02563299366273472 -0.38409246073142567 47 55 54 0.03447876643902861 13 967 25 1625
520 0.8783211905376477 0.01933131047644784 -0.38229856972265386 167 170 169 0.01542582115227411 13 979 25 1478
521 0.8310441662961672 -0.02760201479349416 -0.3809650759823719 102 108 108 0.01435421319399827 13 1246 25 1652
522 0.9402781827297636 -0.09876148724309466 -0.38118130771182523 22 29 27 0.21077097658099503 13 1494 25 2290
523 0.8319664036762885 0.0627351926936891 -0.3837461084627265 171 170 174 0.005188305892600721 14 500 16 476
524 0.8318616580272861 0.03287090893228481 -0.38366875115234184 189 189 189 0.05635575113431864 14 667 16 653 17 619
525 0.8322971329717134 0.025035698765535873 -0.3834169472496982 141 138 141 0.01287475615593329 14 723 16 704
526 0.9418403352231607 0.02004680826644684 -0.383672008215622 175 178 177 0.0984553279392515 14 734 16 754
527 0.9418403352231607 0.02004680826644684 -0.383672008215622 175 178 177 0.0984553279392515 14 735 16 755
528 0.8323130047652487 0.020838866804831633 -0.38385571188404805 107 106 110 0.034797726311353555 14 742 16 739
529 0.8323130047652487 0.020838866804831633 -0.38385571188404805 107 106 110 0.034797726311353555 14 743 16 740
530 0.8320990590412329 0.012904887474570212 -0.3839427623793417 133 136 138 0.046535791984493195 14 783 16 775 17 749
531 0.8321120926434894 0.012903340976699975 -0.3839926114129027 154 153 159 0.011006925435290069 14 784 16 776
532 0.9852581111645663 0.0022571304619816873 -0.3804071087332854 64 67 72 0.2196036485087707 14 815 16 833 18 662 17 848
533 0.8790079159202736 -0.01163502309051328 -0.38396064963288945 21 24 21 0.11685647881017 14 905 16 914
534 0.8790079159202736 -0.01163502309051328 -0.38396064963288945 21 24 21 0.11685647881017 14 906 16 915
535 0.8318167033484283 -0.012923531381259495 -0.38373541817586204 130 132 133 0.02610406411457727 14 921 16 929
536 0.833251181657386 -0.01617154029024569 -0.38354864705962194 166 166 164 0.007777503851438013 14 943 16 947
537 0.8953977909931542 -0.030806259583052636 -0.3816358012634633 155 161 159 0.09301892331546961 14 986 16 1007 24 1112
538 0.8953977909931542 -0.030806259583052636 -0.3816358012634633 155 161 159 0.09301892331546961 14 987 16 1008 24 1113
539 0.8879958927824282 -0.033516052265450756 -0.38166551392500364 23 27 23 0.05206260473863753 14 999 16 1028
540 0.9724104305176765 -0.04221220683008983 -0.3808749742335928 31 33 39 0.2563542848223965 14 1008 16 1040
541 0.8324387652818608 -0.03457939561642429 -0.383027577221546 86 84 87 0.10865801887959371 14 1035 16 1051 24 1142
542 0.8731604568941135 -0.048001288032974244 -0.38265539500025525 19 22 21 0.05622568648889494 14 1064 16 1091
543 0.8731604568941135 -0.048001288032974244 -0.38265539500025525 19 22 21 0.05622568648889494 14 1065 16 1092
544 0.8309917031932577 0.009966660917166808 -0.38349616885426435 142 141 143 0.03209961998557336 14 796 17 765
545 0.8309917031932577 0.009966660917166808 -0.38349616885426435 142 141 143 0.03209961998557336 14 797 17 767
546 0.8784863541493625 -0.005950678852041826 -0.3827551116889101 160 166 164 0.033807052370565 14 881 17 864
547 0.8333238333580141 -0.01384659099278392 -0.3830797668715003 128 128 130 0.10695801133816868 14 924 17 907
548 0.8306587196741517 -0.02929082285430055 -0.38352728158157723 140 141 145 0.17137782854597705 14 1000 17 1012
549 0.8306587196741517 -0.02929082285430055 -0.38352728158157723 140 141 145 0.17137782854597705 14 1001 17 1013
550 0.8311113818694651 -0.03182002426061246 -0.3833543935388686 174 181 185 0.16381205068729543 14 1016 17 1035
551 0.9089512354312158 0.08732649091666227 -0.38190708421407804 181 187 184 0.07337093423397804 14 346 22 524
552 0.9465450308278636 0.08783466977973002 -0.382101413971899 184 191 185 0.043820578729323614 14 359 22 533
553 0.9313103056837979 0.0097108764453328 -0.3846181247000446 169 174 174 0.05493164960019685 14 785 22 1047
554 0.9313103056837979 0.0097108764453328 -0.3846181247000446 169 174 174 0.05493164960019685 14 786 22 1048
555 0.9409368036520418 -0.005834909498432346 -0.38149816797364905 169 175 173 0.06100289729778667 14 863 22 1149
556 0.9298094259825719 -0.04875589234368906 -0.38126537447380954 153 159 153 0.027702588503013596 14 1055 22 1341
557 0.8330424481358606 0.1070521433596194 -0.3865097530069689 131 125 127 0.19217652316891576 15 492 16 229
558 0.8311505095679879 0.08419542426998969 -0.38528368927417034 189 190 190 0.17475364132265298 15 590 16 336
559 0.9411399693516738 0.08268694911660576 -0.38323656841153575 184 190 190 0.03598593790146088 15 644 16 410
560 0.9411399693516738 0.08268694911660576 -0.38323656841153575 184 190 190 0.03598593790146088 15 645 16 411
561 0.8316006972866462 0.06397272017316051 -0.3850964382091199 185 185 187 0.14549264065068387 15 727 16 460
562 0.8314776675501379 0.05246586446361219 -0.38503942533169705 112 111 114 0.0984245442326205 15 800 16 541
563 0.9096634741612172 0.050799000197590954 -0.3832206141617296 175 183 180 0.0031819274761006044 15 818 16 576
564 0.9096634741612172 0.050799000197590954 -0.3832206141617296 175 183 180 0.0031819274761006044 15 819 16 577
565 0.942052895159955 0.05129800165129189 -0.3847675329415542 32 38 36 0.04004523437698791 15 821 16 581
566 0.8296061807472953 0.023905107604500223 -0.38308471348661927 178 181 182 0.16327416558013866 15 961 16 711 24 660
567 0.8333977754888324 0.022069714709435022 -0.3849321314818744 173 175 176 0.07348999926501794 15 971 16 737
568 0.9105432017459097 0.020061538520514403 -0.38406320872719346 25 25 25 0.011474189493051068 15 972 16 746
569 0.8310961159843208 0.008559616209978029 -0.3847036040801932 125 125 127 0.07038003188516842 15 1056 16 803
570 0.8318103797760952 0.005507910164444022 -0.38363170182540546 176 177 181 0.1837946439040605 15 1076 16 820 19 493
571 0.8318463325993007 -0.004295007286533441 -0.38387981658365505 179 179 176 0.13467819528242797 15 1125 16 886 19 566
572 0.8327040361324615 -0.009794088910431587 -0.38455548471504314 100 99 101 0.0004936091476652736 15 1149 16 909
573 0.9095183916832368 -0.0371668320601799 -0.381371223510369 166 169 168 0.009821467126042833 15 1254 16 1035
574 0.8723597826166224 -0.05390146258693301 -0.3841229154525853 160 160 160 0.005426610738425533 15 1328 16 1122
575 0.9645074916680082 -0.08816791857839214 -0.3788825372150789 38 38 42 0.04459889034688981 15 1391 16 1188
576 0.9648280491180905 -0.09163144411159382 -0.3786789914891183 183 189 191 0.048047151834708715 15 1399 16 1197
577 0.8528937402761255 0.08763960267662443 -0.38268964352463036 25 29 28 0.11087203089619402 15 579 17 322
578 0.9518283263191762 0.03031028199962927 -0.3822410275946281 33 39 39 0.140328131256085 15 918 17 691
579 0.8341054383895241 0.010553094524466124 -0.3831988401419678 172 175 176 0.019782817725931937 15 1035 17 761
580 0.830247395922471 -0.0029234828113496197 -0.38403534412890694 116 115 116 0.043418081360891654 15 1117 17 843
581 0.950927527365496 -0.02592743313527389 -0.3816729459738052 30 36 35 0.09015875266030972 15 1185 17 989
582 0.9535799287484106 -0.029950814173724215 -0.3808198824210429 184 187 186 0.05833860512359812 15 1200 17 1017
583 0.8329269443091248 -0.024956091322174887 -0.38418393342460183 160 164 163 0.11612978368606405 15 1232 17 978
584 0.8318068550386098 -0.02491462483912274 -0.3837636676821302 169 175 175 0.2228729360622027 15 1233 17 976 18 763
585 0.9233153577106996 -0.06040053005319954 -0.38171834856522874 35 23 30 0.0005410182797588929 15 1331 17 1152
586 0.8317710052843712 0.025335246872616197 -0.3837282499848427 182 182 184 0.15114719120689055 15 954 18 430
587 0.8600507326166993 0.01226870529624739 -0.38378374824834666 167 173 173 0.1263083347261814 15 1021 18 549
588 0.8334872136853856 0.013061530915354629 -0.3838056200675679 167 164 165 0.09335651106496584 15 1023 18 508
589 0.8327577829442013 0.008742709671184814 -0.3835130240631165 95 94 94 0.10315248759666899 15 1051 18 551
590 0.8916571480831704 -0.08087553930282217 -0.3820941925030564 160 159 163 0.04192102387360852 15 1402 18 1044
591 0.8600739804055894 0.06605156894946582 -0.38295344043327284 43 33 28 0.14439995638145225 15 716 22 688
592 0.9369963886980213 0.059799265056953835 -0.38154866267940496 34 41 35 0.011917573016479133 15 770 22 727
593 0.9369963886980213 0.059799265056953835 -0.38154866267940496 34 41 35 0.011917573016479133 15 771 22 728
594 0.8880925288871623 0.03115670638187389 -0.3812840405323333 46 32 20 0.11629534348696983 15 914 22 922
595 0.9478877494257599 0.02014377002366679 -0.38393412113178726 31 38 37 0.007823412186305941 15 965 22 972
596 0.9157198875858217 -0.005874008055549198 -0.38236998731222144 159 168 165 0.02135241633859238 15 1103 22 1171
597 0.9157198875858217 -0.005874008055549198 -0.38236998731222144 159 168 165 0.02135241633859238 15 1104 22 1172
598 0.9259396845094489 -0.04958555785057753 -0.38052116110054435 24 27 26 0.034392713784983556 15 1294 22 1347
599 0.9613752179834202 -0.08813576092790781 -0.380953674854073 189 192 193 0.051076435252067794 15 1390 22 1455
600 0.8994876150849076 -0.08084057249332245 -0.3821229825078275 160 159 161 0.0801163187668011 15 1396 22 1474
601 1.080970723828871 0.09179961248388475 -0.38541867506305416 88 91 92 0.351003893808375 16 437 17 481
602 1.0032668770575848 0.050858327587781395 -0.3820946181505286 58 69 69 0.12127378262015691 16 599 17 615
603 0.8325512410560528 -0.0013026158169088288 -0.3830249079985654 118 118 118 0.11079531473988621 16 867 17 834
604 0.8894274525711791 -0.016657150016622897 -0.38232216290155263 23 26 25 0.2599914860157434 16 940 17 927 25 1793
605 0.8895568483050929 -0.016676748868028474 -0.382777780582806 23 26 25 0.3479671933545933 16 941 17 928 18 732 25 1794
606 0.9294418855683203 -0.05460944231835713 -0.38352584514092536 154 155 154 0.08745758462062142 16 1100 17 1123
607 0.9784730975972638 -0.06818590226628735 -0.37997578967567747 181 187 185 0.1003289813260343 16 1136 17 1166
608 0.8765881421114682 0.11184834601813612 -0.3858944615895005 26 29 28 0.05514114034135062 16 233 18 85
609 0.9167137175282993 0.11177876441872933 -0.38291053172401046 31 34 35 0.07746011142477154 16 246 18 98
610 0.8318077413409953 0.03630932467893807 -0.38354564699165516 117 113 114 0.017668942546263857 16 637 18 362
611 1.000124156702716 0.03493587326400261 -0.37924818297362317 58 69 69 0.07457208227671393 16 675 18 494
612 0.9984612037795974 0.014575287874719164 -0.3805054782227714 63 71 72 0.11475978602553935 16 772 18 605
613 0.9855558663184303 0.0023394726531362083 -0.38087405322148804 66 68 69 0.13774841948882768 16 834 18 663 17 849
614 0.9365165729813177 -0.05903152587709527 -0.38172534589650275 28 36 36 0.014181491264581205 16 1118 19 885
615 0.8604451335609684 0.07414202329119421 -0.38316470161451355 35 27 20 0.2684988657471128 16 413 20 855 17 406 19 154
616 0.970480081929519 0.08166102569905959 -0.38005415746457766 45 53 54 0.09040563819809093 16 427 20 1070
617 0.8332671380840869 0.04771106100701043 -0.38367160878174983 194 194 198 0.19182240652986443 16 564 20 938
618 0.8316951244340203 0.04627142277836541 -0.3838916400166838 148 147 149 0.2303193669852488 16 573 20 940
619 0.8316951244340203 0.04627142277836541 -0.3838916400166838 148 147 149 0.2303193669852488 16 574 20 941
620 0.9760977490536803 0.05108529529732937 -0.3792692971956285 54 62 61 0.251831141709179 16 588 20 1267
621 0.8895876263509871 0.03114630050386009 -0.3789953609765662 192 195 196 0.1534826927440378 16 673 20 1217
622 0.8895876263509871 0.03114630050386009 -0.3789953609765662 192 195 196 0.1534826927440378 16 674 20 1218
623 0.8320801304116243 0.026973732804714847 -0.38268953080168355 193 193 194 0.4488863684073178 16 689 20 1105
624 0.8309028290330092 0.02577932070316004 -0.3825394909998896 145 145 149 0.4491747832683335 16 699 20 1111
625 0.9679928917482858 -0.010702195007114557 -0.37497758536674247 203 203 203 0.5085901119271156 16 892 20 1716
626 0.8728940156063165 0.01311854351000184 -0.38376174651741046 19 25 23 0.19302039569088664 16 777 24 777 25 1501
627 0.8342566395938442 0.010573059143099493 -0.38208740115292383 173 176 177 0.10443105380609126 16 785 24 774
628 0.8324698210807481 0.0036634907853920003 -0.38233931612274946 123 120 119 0.12301837597135051 16 832 24 840
629 0.831926062507143 -0.008271712485387 -0.3838610091937126 107 104 105 0.24661652610701054 16 902 24 942 25 1508
630 0.8949088451967007 -0.018242543134807936 -0.381453482052943 160 167 167 0.044209310961622415 16 945 24 1030
631 0.8949088451967007 -0.018242543134807936 -0.381453482052943 160 167 167 0.044209310961622415 16 946 24 1031
632 0.8317607230979497 -0.01706829320439139 -0.3817919769963708 173 173 176 0.06354569756085847 16 957 24 1011
633 0.8333236158841276 0.10900533990938986 -0.3838638549446488 184 178 180 0.21805549446061628 16 224 25 689
634 0.8629589292266969 0.10038343869209462 -0.3819313050346872 19 22 21 0.33640471851179743 16 261 25 883 26 448
635 0.8629589292266969 0.10038343869209462 -0.3819313050346872 19 22 21 0.33640471851179743 16 262 25 884 26 449
636 0.8975863652358672 -0.02243560912344552 -0.38172939808912276 154 165 162 0.08292535821740045 16 965 25 1853 24 1058
637 0.9161319065090288 0.11355965720627836 -0.3842456711978349 33 36 35 0.025776856837651626 17 282 18 96
638 1.0715130453936341 0.023993058147467616 -0.3826215664599196 114 117 116 0.03946797033094011 17 771 18 598
639 0.9722683527171392 -0.03700463090307022 -0.3808898537200809 170 177 174 0.10267878931363322 17 1063 18 864
640 0.8312936242340082 0.13516083688388988 -0.3840783874234928 177 177 181 0.3085579052196742 17 208 19 28
641 0.8312936242340082 0.13516083688388988 -0.3840783874234928 177 177 181 0.3085579052196742 17 209 19 29
642 0.8314434221964425 0.13218877676207386 -0.38472690280468147 178 177 179 0.294840647791507 17 217 19 32
643 0.8944131367170056 0.10560347669068788 -0.3825565604708468 176 176 172 0.18461667858971573 17 293 19 70 25 987
644 0.8288411471169702 0.0753101891149206 -0.3840446544513923 200 200 200 0.20166829430077132 17 369 19 131
645 0.8315743621225982 0.06608879220222455 -0.3840330037836896 197 196 203 0.31871350108060886 17 429 19 181 20 835 25 1005
646 0.8874470281764076 0.028444166104486926 -0.3823148899806248 24 25 21 0.017904619102430682 17 661 19 383
647 0.8534416265127829 0.025619692971591147 -0.3829424270280817 23 28 26 2.5785219461577462e-05 17 662 19 381
648 0.8318500315809432 -0.008204682547316933 -0.38369316673740766 108 107 108 0.003888997511332088 17 873 19 589
649 0.9967249915596075 -0.009440047801531445 -0.3795050721674798 69 74 76 0.5016496407786823 17 900 19 630
650 0.909653441659367 -0.03722968232321589 -0.38156153128466097 167 177 170 0.21762622749289431 17 1076 19 799
651 0.9512320666673442 0.09216923434597088 -0.3809029428687921 29 32 33 0.003754319805937279 17 386 20 947
