# 3D point list with one line of data per point:
#   POINT3D_ID, X, Y, Z, R, G, B, ERROR, TRACK[] as (IMAGE_ID, POINT2D_IDX)
# Number of points: 433
58 0.875606092244376 0.01590649882072429 -0.38421134573705823 24 29 30 0.007104153965797137 2 1352 3 1417
59 0.8334904593103329 -0.027755060975024275 -0.3827415033699026 116 118 119 0.023654369660734996 2 1675 3 1613
60 0.8401979821427623 -0.05498961153624911 -0.3799483538983405 166 169 168 0.4916008113655842 2 1853 3 1716 26 1266
61 0.832991496083897 -0.021432137860307232 -0.3864662680984433 177 176 180 0.051257409505704545 2 1620 4 2314
62 0.8324882905338286 0.007847884860788128 -0.3844965229485682 176 175 178 0.15621021766849874 2 1414 5 2000
63 0.8353708010549178 -0.02793424429689508 -0.3863899885817145 171 168 169 0.18752296272905072 2 1669 5 2261
64 0.8544907275065317 -0.03714672972282014 -0.3853145284291119 27 31 26 0.07589669273842901 2 1743 5 2309
65 1.0969865639785634 0.028587773480007555 -0.3910045521052018 104 109 113 0.2633786261754815 2 1277 7 1184
66 1.0889639664638582 0.012242959714310197 -0.38923231078891757 144 152 151 0.19147575731050973 2 1376 7 1281
67 1.0889639664638582 0.012242959714310197 -0.38923231078891757 144 152 151 0.19147575731050973 2 1377 7 1282
68 1.0843028698759878 -0.03032359772462817 -0.39127486327676375 125 131 129 0.41642355742654236 2 1601 7 1513 9 1333
69 0.9721547253223174 -0.0675980468505927 -0.3811069578534423 39 45 45 0.14578252094412855 2 1854 7 1756
70 0.9721547253223174 -0.0675980468505927 -0.3811069578534423 39 45 45 0.14578252094412855 2 1855 7 1757
71 1.105969521412178 0.03853756244996759 -0.41126075064331574 106 109 110 0.42713787397590885 2 1221 8 1040
72 1.1323681997424089 0.03445083533677229 -0.4141967490832083 109 111 111 0.579766149767546 2 1254 8 1076
73 1.1231608205812265 0.016485335901154342 -0.41391643386757665 125 131 129 0.5023149954603682 2 1355 8 1177
74 1.118912072968678 0.010965134717280868 -0.4130329710029099 107 107 107 0.4717827534949017 2 1380 8 1212
75 1.1201495260783312 -0.0010292040378728504 -0.41505636946001956 142 148 146 0.43496966076588617 2 1441 8 1270
76 1.106480030018128 0.056685135824476034 -0.39275260897054703 127 135 135 0.1777784629289996 2 1112 9 826
77 1.0894657140106252 0.05152495255200625 -0.3935585377524024 129 137 136 0.03681446173300299 2 1145 9 852
78 1.1039014176028343 0.049066676121527666 -0.39209768086396973 111 111 111 0.2523348196152879 2 1160 9 882 7 1064
79 1.0799898912845032 0.029580865248224834 -0.3927722304088848 174 175 174 0.031961783346959226 2 1268 9 999
80 1.0943717029905107 0.020094476541780246 -0.390482828135648 139 145 145 0.06056260939291543 2 1327 9 1056
81 1.0943717029905107 0.020094476541780246 -0.390482828135648 139 145 145 0.06056260939291543 2 1328 9 1057
82 0.9717352617773317 0.08218514342748329 -0.3819783728946581 42 47 52 0.39144392149332397 2 882 10 331
83 0.8635624828523221 0.06676837645599502 -0.3837043085763393 185 192 193 0.018853434651061058 2 953 10 348
84 0.9089145029106244 0.08110568849992864 -0.38291713425880297 37 40 43 0.00976455706631493 2 862 11 619
85 0.9089145029106244 0.08110568849992864 -0.38291713425880297 37 40 43 0.00976455706631493 2 863 11 620
86 0.8332298647270657 0.0649251641332224 -0.38442658060188306 190 190 186 0.06162196687560144 2 952 11 748
87 0.8320508512438232 -0.01721694831798285 -0.3836398937065595 186 186 188 0.4783802646125564 2 1586 11 1904 26 1053 14 947 24 1009
88 0.8299845064778981 0.11078854314320336 -0.3875882561255669 191 191 193 0.29562489503411415 2 641 18 64
89 0.9262718236512731 0.07552525763451871 -0.38348629518003163 185 185 184 0.3753068003798254 2 908 18 227 30 873 13 696
90 0.8328890742548039 0.04305031967552435 -0.3838632616271848 191 190 190 0.2495668351307904 2 1126 18 302
91 0.8295769619973263 0.08011326169416857 -0.3832865204690333 183 186 189 0.049080799418140364 2 818 26 479
92 0.952957250519825 -0.016395721206382354 -0.38105204076255206 174 185 185 0.05780260185503486 2 1555 27 1015
93 0.8654808108296462 -0.06292640110897242 -0.3784685216139421 18 24 24 0.11130800404242418 2 1877 27 1161
94 0.8318648686970866 0.09180313329608966 -0.3858712097868661 132 130 132 0.0938353924100011 2 732 30 737
95 1.0866257148974898 0.10499705914708068 -0.39139549636689536 151 154 153 0.4385282203258246 2 813 30 702
96 0.9793852166005156 -0.005730594395543052 -0.3821033639654516 172 177 179 0.06175694955384455 2 1485 30 1411
97 0.8852196040972976 0.05657382495066947 -0.38493573570777145 34 40 42 0.08787280466076847 2 1046 31 1296
98 1.005561435724904 0.04903128387880086 -0.3875391678490391 62 69 72 0.15887026442806457 3 1280 6 1173
99 0.9093785481456338 -0.0055130465218080175 -0.3815995443668218 34 37 36 0.15294918792519435 3 1512 6 1547
100 0.9534940141383927 -0.016312141656715955 -0.38209760745521176 90 97 102 0.6603087790485528 3 1545 6 1623 30 1485
101 1.0815540539413877 0.10177207705779077 -0.39070518291267636 155 161 161 1.0416950231194162 3 1045 7 681
102 0.853640433871092 0.08804782092723809 -0.38478704080402637 34 37 37 0.40521048257648457 3 1051 7 521
103 1.0020046047397533 -0.035525555070088144 -0.37941448165459474 43 49 49 0.2487086401529226 3 1594 7 1548
104 0.9642836646320565 -0.08875834567401113 -0.378904419035106 52 54 60 0.3256891342850833 3 1770 10 1229 13 1470
105 0.829429070077404 0.12110392782892479 -0.3872912217861909 192 196 196 0.09273883174331002 3 933 11 196
106 0.9266311404327019 -0.05513218160020344 -0.3812520319947736 207 213 213 0.2273730455132476 3 1681 11 2444 31 2013
107 0.8334227207235987 0.06666883099307729 -0.38437096969790585 185 186 187 0.37054555734009254 3 1177 26 543 29 626 28 656
108 0.9552787546937553 0.043559560530286257 -0.38203342695012044 179 185 185 0.08727605722865062 3 1299 26 873
109 0.9588258114055802 0.03743322389081383 -0.38265326191139437 53 61 62 0.10176526824096675 3 1320 26 912
110 0.9482824878346361 -0.005521292509895732 -0.3827787377759062 38 44 44 0.11200881338641781 3 1506 26 1123 28 1204
111 0.9482824878346361 -0.005521292509895732 -0.3827787377759062 38 44 44 0.11200881338641781 3 1507 26 1124 28 1205
112 0.8310918415752361 -0.03708563225458978 -0.38298892499364584 169 176 179 0.12499532064198166 3 1649 26 1161
113 1.0029778774393274 -0.07455649235966773 -0.37979100097756163 44 46 51 0.15759152862130385 3 1720 26 1410
114 0.8433997084268819 0.007739427798201019 -0.3820921382964025 172 178 178 0.24318013878429542 3 1464 27 740 30 1379
115 0.9545540974341405 0.043528050280509184 -0.38074412974879623 188 191 192 0.1514585748690458 3 1300 28 821
116 0.9101577436602069 0.019597531876552207 -0.3836492398345078 28 31 32 0.41222110654022537 3 1401 28 1028 25 1574
117 0.9701030943306661 -0.06693422738574464 -0.3770431835572588 34 37 38 0.02570767102631193 3 1713 28 1475
118 0.9701030943306661 -0.06693422738574464 -0.3770431835572588 34 37 38 0.02570767102631193 3 1714 28 1476
119 0.9758982406762391 -0.07212535537419948 -0.3755938372302806 28 34 37 0.0005260697129776685 3 1724 28 1489
120 0.9017162363778669 0.10543413748617059 -0.38264891382886485 185 191 191 0.14889408132018586 3 989 29 470 27 321
121 0.9103383118229842 0.08805891621962367 -0.3845664763570872 180 188 185 0.4032826692639106 3 1065 29 532 31 1005 25 1181 28 502
122 0.9097687525087133 0.08188250206602056 -0.38416905646899335 30 36 36 0.015673985933944527 3 1093 29 551
123 0.9097687525087133 0.08188250206602056 -0.38416905646899335 30 36 36 0.015673985933944527 3 1094 29 552
124 0.8295386434134979 0.06889696418047814 -0.38519528547115006 187 190 191 0.010955790228398366 3 1161 29 612
125 0.8334594085260347 0.06289293791118947 -0.38431504018193796 181 183 182 0.24444156680197077 3 1206 29 647 26 560
126 0.9161710145022895 0.050535869202227184 -0.38311361791580945 26 32 30 0.07479550560444832 3 1269 29 710
127 0.9161710145022895 0.050535869202227184 -0.38311361791580945 26 32 30 0.07479550560444832 3 1270 29 711
128 0.8326886508911845 0.09926263919647797 -0.385980695882412 142 138 142 0.013181743275797778 3 1000 30 686
129 1.0790653856603332 0.11298751692122638 -0.38412269045695135 98 97 100 0.0229835142876538 3 1004 30 653
130 0.9285504746657864 0.10337571375353966 -0.3848657479172199 24 30 28 0.11149224436113331 3 1007 30 675
131 0.9781284397913254 0.08802919491291228 -0.3813180812843767 33 41 38 0.0052435678050902134 3 1076 30 784
132 0.8310981637667404 0.08095843365294537 -0.38623255379993804 139 140 144 0.08041611708461811 3 1082 30 833
133 0.9379295687154349 0.06011601676974823 -0.382973367817036 34 35 35 0.38691223697516697 3 1229 30 996 29 669 31 1176
134 0.8302830557595393 0.02121664414425323 -0.3867039396985431 176 182 182 0.0037983321200812086 3 1403 30 1272
135 0.9269376701455166 -0.0016876487859955533 -0.3824824042199384 29 28 35 0.06793144842861468 3 1494 30 1404
136 0.9737291815829294 -0.00547913380878037 -0.38412918758747294 30 36 34 0.12175632008269084 3 1501 30 1413
137 0.8728997409718948 -0.0012103476327209363 -0.38560156061254225 24 30 29 0.14444895567629726 3 1502 30 1423
138 0.9681783090740814 -0.01619921146963645 -0.38230604964079823 37 44 45 0.20237787248554034 3 1540 30 1482 31 1651
139 0.8322617140312859 -0.02717139832152092 -0.38448222017821765 176 176 177 0.08451992933854319 3 1611 30 1613
140 0.8852172777826532 -0.0687515308302414 -0.38287045181146406 24 27 26 0.22999467488234407 3 1739 30 1770
141 0.8545198888841667 -0.013424816479478597 -0.3835645085948964 37 38 39 0.11328570408092266 3 1552 31 1866
142 0.9900940350840659 -0.04645687551962607 -0.38066968965138137 36 42 44 0.10411833885956427 3 1634 31 1829
143 1.082243889632627 0.08299779521718798 -0.3901382893798822 160 169 168 0.002735941367970489 4 1516 6 1009
144 1.0776310029336131 0.08253523173103554 -0.39111168912895783 187 192 186 0.04806257637769084 4 1518 6 1011
145 0.8602429322698325 0.06600883314616968 -0.3825624136424779 48 35 35 0.2849215621947716 4 1575 6 962
146 0.8602429322698325 0.06600883314616968 -0.3825624136424779 48 35 35 0.2849215621947716 4 1576 6 963
147 1.099455259031504 0.059742637424847755 -0.3898333478223307 141 145 144 0.19760849426623595 4 1683 6 1142 9 791
148 1.0891919840949518 0.049456578093699 -0.38456120846943737 103 106 107 0.0933207224188901 4 1743 6 1198
149 1.0889415549592096 0.04753166171481108 -0.3902536825547005 147 155 154 0.04182553863935679 4 1752 6 1208
150 1.1079608535940235 0.032149020831888614 -0.38902275299919614 110 110 110 0.1448566604837998 4 1840 6 1301
151 1.006219996740189 0.024093647461563027 -0.38221829461135204 78 81 84 0.03230091638264746 4 1898 6 1334
152 1.006219996740189 0.024093647461563027 -0.38221829461135204 78 81 84 0.03230091638264746 4 1899 6 1335
153 1.096973680559818 0.020453010131704127 -0.39031562928032526 112 118 120 0.22918766675454513 4 1916 6 1368 9 1053
154 0.8568546807769426 0.015588457940814324 -0.38343901080291737 39 39 42 0.23793898177675 4 1999 6 1370 10 641
155 0.8608351726206337 0.01210813457946719 -0.3851858090511511 178 184 185 0.26608901238115323 4 2030 6 1404 7 1211
156 0.9523264749680186 -0.015075152427332551 -0.38369337652793806 47 51 58 0.09680000977885023 4 2202 6 1605
157 0.948603227468106 -0.043082783884138984 -0.38215045345904336 32 37 42 0.11126196332706038 4 2372 6 1803
158 0.948603227468106 -0.043082783884138984 -0.38215045345904336 32 37 42 0.11126196332706038 4 2373 6 1804
159 0.9166752084579028 -0.068495238576788 -0.3828480390000727 168 172 170 0.005097256937422257 4 2515 6 1994
160 0.9166752084579028 -0.068495238576788 -0.3828480390000727 168 172 170 0.005097256937422257 4 2516 6 1995
161 0.904409028803153 -0.08228968220895147 -0.37876305020509315 28 28 28 0.07626899967778626 4 2586 6 2081
162 1.0847849613228717 0.10206190726630292 -0.38857749446621387 153 159 159 0.3277367745069846 4 1374 7 678
163 1.103990959179457 0.09491738754474907 -0.38781246122783863 101 106 102 0.34960077514994176 4 1423 7 760
164 1.0817884434044456 0.08948320421200599 -0.38875880154816955 133 141 141 0.26300682729243535 4 1457 7 785
165 1.0817884434044456 0.08948320421200599 -0.38875880154816955 133 141 141 0.26300682729243535 4 1458 7 786
166 1.0888710370132582 0.013285067987415283 -0.3864385262117493 97 101 96 0.2646374683689247 4 1967 7 1273
167 0.9801970433357502 -0.037460652399862564 -0.3830777586774581 44 52 53 0.03161678031472178 4 2329 7 1557
168 1.1125095187150746 0.07876426417814925 -0.40143360052845506 138 144 144 0.4889693754834549 4 1560 8 796
169 1.0871690266203422 0.0764434529444349 -0.4022018678105542 191 195 190 0.3923692447348035 4 1581 8 793
170 1.1037663166906089 0.04526753394368562 -0.3998364685669979 100 106 105 0.28204629918762714 4 1767 8 1002
171 1.112291590020637 0.04045080917718019 -0.40239932901735326 135 141 140 0.3010399378542801 4 1792 8 1027
172 1.1058447892665244 0.024135199902440056 -0.40047259749558684 96 99 94 0.1816246930141767 4 1881 8 1105
173 1.1058447892665244 0.024135199902440056 -0.40047259749558684 96 99 94 0.1816246930141767 4 1882 8 1106
174 1.0979531337213444 0.01963631539529508 -0.4019060451050377 106 110 108 0.1689454946233296 4 1918 8 1130
175 0.9538137154981047 -0.07874681840461867 -0.3862300476414736 40 45 52 0.5771284177585394 4 2531 8 1761 9 1650
176 1.082564609218646 0.07194147822843565 -0.3900139052545759 163 174 172 0.02745338356077282 4 1607 9 676
177 1.0826805040510326 0.06469629391656366 -0.39046490459713096 160 166 164 4.311713229859685e-06 4 1653 9 731
178 1.099880192434199 0.01874566565823089 -0.38928085815735997 126 130 126 0.04595070972060608 4 1922 9 1072
179 0.831525638003944 0.0913928725188901 -0.38424818796426113 130 129 133 0.10744422758457779 4 1326 10 201
180 1.0020967699646572 0.05054443578202898 -0.3798673710634008 63 76 76 0.000699232789017172 4 1723 26 899
181 0.8326262155648224 0.03768106658503005 -0.384094947260418 117 117 117 0.03543633758869393 4 1813 26 718
182 0.9566770906119921 0.10557170422018242 -0.38042260721363386 55 51 51 0.13796282822582429 4 1303 27 386
183 0.8299382180052858 0.04809754568472758 -0.3848665370625066 185 185 185 0.3554897974565097 4 1730 27 460
184 0.9539352032774294 -0.07825905493588432 -0.3789255739846293 174 184 182 0.04559471450146995 4 2538 27 1262
185 0.8326433858911014 0.06707560201955044 -0.38544592109955766 136 133 135 0.13400059160675312 4 1550 29 625 30 950 26 539
186 0.8349719458505758 -0.026262488218619207 -0.38267062791357137 178 178 180 0.10596701473439502 4 2354 29 1007
187 0.8578243007004154 0.07611132272494682 -0.38419261349348405 33 34 35 0.16810793384277486 4 1463 30 860
188 0.8639705802445179 0.06638498035183289 -0.38427561138506144 179 185 187 0.07990947321453751 4 1574 30 951
189 0.8326132083838762 0.020961227476663437 -0.3853080985185419 129 129 133 0.14533839168657145 4 1963 30 1274
190 0.8324734320562436 0.004013821688337214 -0.38512113842422946 144 140 145 0.1500727645840979 4 2109 30 1407
191 1.084862323732226 -0.022925392068239743 -0.3867209755046956 75 72 77 0.2509330273958854 4 2191 30 1467
192 0.8329389228513894 -0.02280601875016504 -0.38436299342812763 120 122 121 0.3012584081439339 4 2324 30 1583 29 988 31 1989
193 0.8911172530531947 -0.028885359403119548 -0.3822289566591355 163 169 171 0.1051569504580213 4 2331 30 1591
194 0.9068306542184601 0.1099717919714098 -0.3852727583166983 42 41 43 0.2559086080638822 4 1240 31 832
195 0.9592160993516365 0.09514607763704108 -0.3837815160058631 43 33 25 0.14670200695241095 4 1356 31 892
196 0.8852810941659881 0.019147495683608115 -0.3836288291047983 30 30 32 0.22749118648739566 4 1969 31 1549 6 1348
197 0.8852999291712076 0.019120141204984818 -0.38380537236968043 34 37 38 0.1695019022669149 4 1970 31 1550
198 0.8641232976906794 0.0036440976266072954 -0.3839716251555659 192 195 196 0.27838189590408235 4 2103 31 1700
199 0.8641232976906794 0.0036440976266072954 -0.3839716251555659 192 195 196 0.27838189590408235 4 2104 31 1698
200 0.8641232976906794 0.0036440976266072954 -0.3839716251555659 192 195 196 0.27838189590408235 4 2105 31 1699
201 0.9412027488837929 0.11301000463733282 -0.3890344725075938 39 47 48 0.24710240810262746 5 1224 6 656
202 0.9488781200388918 0.08270857287164997 -0.38558204586948014 41 47 46 0.2160244882177903 5 1425 6 885
203 1.0932262826634245 0.08054903742762515 -0.39095738466238156 122 129 133 0.14619306728981726 5 1496 6 1034 9 635
204 1.092885366922821 0.06852493265730397 -0.39292801420519563 99 101 99 0.0745248157987824 5 1583 6 1099
205 1.0064493519184297 0.051001143277710326 -0.38636384279216274 59 69 76 0.13170770703521836 5 1681 6 1156
206 1.0948409661193208 0.03572501637094242 -0.38893710194021835 104 105 108 0.1377515722518539 5 1773 6 1275
207 1.103577377171845 0.02964633998302157 -0.39030216464241535 97 96 100 0.20762998334730542 5 1805 6 1318
208 1.094937985739538 0.0242466698196292 -0.38871926853690064 97 96 99 0.18991848021136862 5 1842 6 1352
209 0.8805405835504433 -0.07481617834646244 -0.3862936950278744 25 25 27 0.1645554971819087 5 2446 6 2057
210 1.0993333491559782 0.08293661706429409 -0.39081036754381404 112 115 114 0.36478054285002354 5 1480 7 866
211 0.8608667982495494 0.06615123526563443 -0.3844011720107688 47 32 23 0.2479664494281557 5 1535 7 693 30 957 31 1243
212 1.1157515602576185 0.11808637320715168 -0.4037882647500908 132 140 139 0.75717702943516 5 1294 8 533
213 1.1073935697611894 0.07864596068574667 -0.3988836078227371 112 117 118 0.5223725372804165 5 1516 8 789
214 0.8891209850972752 0.045544599314758634 -0.38225996694479597 29 32 35 0.009997618663246485 5 1708 8 837
215 1.0871598139473346 0.03037564298303573 -0.39233481591178204 161 164 163 1.7138029683562086 5 1804 8 1078 9 994
216 1.109172267823828 0.05792755895630416 -0.39166341044816405 125 133 131 0.34418539084924504 5 1646 9 823 6 1159
217 0.8542319787967505 0.08901133332484774 -0.3830306826554979 29 35 35 0.6239210752067973 5 1333 29 516
218 0.8330162641090156 0.05476271587683226 -0.384164851289987 114 114 114 0.4479694300621473 5 1625 29 693 30 1033 24 424 26 613
219 0.8330385134283951 -0.02277773977077968 -0.385055017940477 139 139 141 0.23478777276534452 5 2231 29 989 31 1990
220 0.8292943541957178 0.12452873427028412 -0.38427894715954297 195 195 197 0.16489812558234995 5 1099 30 548
221 0.8289864470612371 0.1193949388581479 -0.3823512552513398 195 195 195 0.08009493362394303 5 1119 30 575
222 0.8323355186217885 0.03881126065930938 -0.38460400046780224 182 184 187 0.12610775779955422 5 1753 30 1138
223 1.0871408072516502 0.02780732926440602 -0.3876172993936595 147 153 153 0.40566230419279403 5 1821 30 1162 31 1218
224 0.830227163483341 0.02416000282209303 -0.38521352140614773 185 188 191 0.23041669726506364 5 1879 30 1251
225 0.8847621892334351 0.019378697204544156 -0.38258790906621193 25 28 29 0.14597041614822878 5 1902 30 1265
226 0.8329679290216244 -0.033781975316997594 -0.3847898405456866 176 176 180 0.4113562123545274 5 2300 30 1655
227 0.8893205567475183 0.031080977406908628 -0.3830382870275566 83 65 63 0.013377956434314444 5 1809 31 1466
228 0.8870880556813848 0.019628697723882097 -0.38882944578109874 36 38 44 0.1230987511997509 6 1349 7 1152
229 0.8870603271909212 -0.011832483862141288 -0.3892328967762831 199 202 205 0.27879263617250477 6 1595 7 1388 9 1158
230 0.8975335472932935 0.006812845780698924 -0.3827964461023488 25 31 31 0.4645450949548541 6 1442 8 1156
231 0.9035559529351772 -0.08190025001471579 -0.38425028558742635 44 44 40 1.2113788757930195 6 2077 8 1809
232 1.1042616356039083 0.08175088880590914 -0.39330372553548754 138 147 143 0.006029818514580265 6 1036 9 643
233 0.8595410206224304 -0.0008982842657005598 -0.38891285041208795 35 38 41 0.13341719670928595 6 1513 9 1047
234 1.0771602761267394 -0.004208856902033792 -0.39109727618573714 193 198 196 0.06967376492373008 6 1523 9 1183
235 1.0994323173903666 -0.0123662790683488 -0.3917437852095732 142 149 148 0.0991155413829218 6 1562 9 1237
236 0.8897380295517249 0.031515790153250824 -0.3850247540376609 94 86 80 0.12841688279390323 6 1247 30 1176
237 0.9289325274468107 -0.054242544127923564 -0.380961902162696 175 183 182 0.36971561632814764 6 1881 30 1699 27 1164 28 1431
238 0.9829983224010069 -0.06485673888960411 -0.38135584843283926 32 35 36 0.01260494857143128 6 1935 30 1718
239 0.8792951409007301 0.019340296043351402 -0.38427346821330455 190 196 198 0.14897726014800475 6 1341 31 1556 30 1266
240 0.8809890171296243 0.08919971920210314 -0.39002878513436184 31 32 29 0.004161385447266043 7 552 9 308
241 1.0909221467140664 0.09681285207917216 -0.39321171180448866 122 126 127 0.15617767326572274 7 729 9 529
242 0.8610662853202321 0.06415697153062608 -0.3893250197469244 201 202 206 0.15154460473625303 7 736 9 466
243 1.0919669132562881 0.047450715091664736 -0.39770777202516966 156 162 163 0.20401568480899604 7 1073 9 888
244 0.8548874535469166 0.026759396855112912 -0.3856850734127206 37 40 41 0.4811924223020038 7 1075 9 772 31 1548
245 0.9698817756325504 0.03338773336091391 -0.38877886603651096 190 200 203 0.13913356537999813 7 1096 9 872
246 0.8814831651571338 0.02025611281295111 -0.39091823726180464 197 200 203 0.0730885007041674 7 1149 9 894
247 1.099168249078544 0.03335693472635711 -0.39596456398500735 151 160 159 0.21837594940958735 7 1157 9 987
248 0.9516852897641503 0.021008687013369123 -0.3905091111018898 46 51 54 0.06031270712061109 7 1176 9 962
249 1.1092404689661934 0.027799277230850315 -0.39323771528555257 128 136 135 0.22726053939937654 7 1203 9 1021
250 1.107605890523903 0.015480414732279372 -0.39278774953786033 95 102 103 0.21018737070009502 7 1265 9 1094
251 1.1008177608683118 -0.0005479648878602162 -0.3955885080028403 154 162 159 0.27120288161276684 7 1359 9 1177
252 0.8877006264512293 -0.011574498524401901 -0.39111506508422694 192 194 200 0.08938235699905335 7 1387 9 1157
253 0.9574636882225591 -0.016556161963488095 -0.38998944745042197 198 205 209 0.02746928575720458 7 1428 9 1213
254 1.10464206005741 -0.01603065638390071 -0.39668228033374964 145 151 151 0.25414440069825844 7 1431 9 1266
255 1.0052715596104211 -0.06292396293153946 -0.3914706883340047 187 198 196 0.09985124432260335 7 1709 9 1522
256 1.0052715596104211 -0.06292396293153946 -0.3914706883340047 187 198 196 0.09985124432260335 7 1710 9 1523
257 0.8783848536139026 0.049593110923790144 -0.38347500957663694 33 33 35 0.8105716506438588 7 913 10 467
258 0.8783848536139026 0.049593110923790144 -0.38347500957663694 33 33 35 0.8105716506438588 7 914 10 468
259 0.9052349235802999 0.04597946882904574 -0.3805422581097445 41 38 42 0.6883410541251814 7 971 10 493
260 0.9572324564705359 -0.05527360112089137 -0.3772615665829539 39 47 46 0.9883716356879524 7 1666 10 1056
261 0.9638184530923816 0.03138962367635271 -0.37835847553519314 202 202 204 0.17037658324417318 7 1093 11 1301
262 0.9504430647535522 0.0292777298183498 -0.37923497950008156 49 55 57 0.396681149976145 7 1108 11 1328
263 0.9458533677580094 0.024639596121021238 -0.3796020683481654 203 203 203 0.3933306381685252 7 1140 11 1390
264 0.8678254374299207 0.104961278589065 -0.3929302958349164 26 31 30 0.009240424229239772 7 455 31 940
265 0.870679768397252 0.061962828185904005 -0.38767808298818707 33 39 39 0.1848897464469812 7 782 31 1277
266 1.0878690842396765 0.026568685819808528 -0.385998831351691 104 107 110 0.22356706168644375 7 1198 31 1220
267 0.9822154791797894 -0.046185149033967386 -0.38030270341138467 42 45 51 0.14886358799500587 7 1606 31 1841
268 0.8834258318773787 -0.03680001265009588 -0.39831127424044777 32 35 36 0.9903974898820173 8 1488 9 1339
269 0.8893034681258268 -0.03705606122912885 -0.39757170610904197 189 195 197 0.9164063534409875 8 1489 9 1341
270 0.8881996254602136 -0.06943836909734868 -0.39336819739050005 30 35 36 1.3468104475654092 8 1728 9 1586
271 0.9599377540552638 0.09546253327439529 -0.3715552188527785 38 44 43 1.0589733891310245 8 480 10 237
272 0.9582519317982942 0.04175292528327804 -0.37540388172185235 48 51 50 0.7143816642588243 8 934 10 532
273 0.9448027481264315 0.018616980140942006 -0.37747542552420277 40 48 50 0.41863823409511736 8 1073 10 644
274 0.9448027481264315 0.018616980140942006 -0.37747542552420277 40 48 50 0.41863823409511736 8 1074 10 645
275 0.9564676738448175 -0.026065172011815813 -0.3729676380482965 51 59 60 0.41676352936101285 8 1391 10 903
276 0.9867997825922135 -0.05034029579829699 -0.3661888723841184 61 71 74 0.7741340606759349 8 1549 10 1031
277 0.963928847597415 -0.07305867933074602 -0.3663188179805125 188 194 194 0.5378547370484482 8 1733 10 1158
278 0.8865355132233648 0.05840706652608827 -0.38804800626307207 34 37 38 0.3188609660336751 8 711 11 920
279 0.8867965619408373 0.02049820280395235 -0.3889109370825791 35 37 43 0.20830017864400854 8 1045 11 1425
280 0.8867965619408373 0.02049820280395235 -0.3889109370825791 35 37 43 0.20830017864400854 8 1046 11 1426
281 0.8706487520676175 0.06305530854285442 -0.3884543023160714 30 30 32 0.6524235357842628 8 634 12 293
282 0.879653349482752 0.05782547687461812 -0.3871588002169539 184 187 188 0.622458973303576 8 698 12 326
283 0.8795074753960773 0.05132776621938043 -0.38706183355038376 32 31 33 0.49075784749134765 8 779 12 365
284 0.8795074753960773 0.05132776621938043 -0.38706183355038376 32 31 33 0.49075784749134765 8 780 12 366
285 0.9450488489494511 -0.006637324012670883 -0.3778249892294665 34 42 41 0.1832237424886756 8 1263 12 663
286 0.8317576798898123 0.11549068856470936 -0.3850420094516639 191 187 187 0.1063184066486403 10 113 13 536
287 0.8323475725999983 0.04479519825178961 -0.38395385931142034 137 133 134 0.218417877664901 10 470 13 817 19 290
288 0.8317790115514898 0.04318481823899307 -0.3833146056566562 171 174 177 0.18146691499714745 10 477 13 823
289 0.964202813259558 -0.08874981510900408 -0.3788970452685676 38 36 38 0.17346881179596313 10 1230 13 1471
290 0.8909021556207004 -0.09178011578186297 -0.3796665476621052 149 153 148 0.39686487621165917 10 1242 13 1492
291 0.8292795340120839 0.09081479248967514 -0.3844955008333947 186 186 186 0.4858405328452148 11 418 13 584
292 0.8322407016965185 -0.021109500149023054 -0.383663012231747 152 162 161 0.6439630895771864 11 1963 13 1193
293 0.8295915963495235 0.07710846283536132 -0.38411003809772665 181 187 187 0.01946999292635758 11 579 14 392
294 0.8461704489920117 0.05923743953333256 -0.3864604225242373 179 185 183 0.1558695964943497 11 859 14 523
295 0.8893259428558792 0.030928569686873124 -0.3845669427374006 41 33 26 0.47193512012132777 11 1268 14 677
296 0.8893259428558792 0.030928569686873124 -0.3845669427374006 41 33 26 0.47193512012132777 11 1269 14 678
297 0.833090026622336 0.10696683801232493 -0.38610066879959903 136 128 131 0.3456633772463944 12 90 13 550
298 0.909100787032313 0.08148274421988405 -0.38349051135356665 28 31 32 0.06911253998947936 12 204 13 654 16 396
299 0.909100787032313 0.08148274421988405 -0.38349051135356665 28 31 32 0.06911253998947936 12 205 13 655 16 397
300 1.0022430148600336 -0.035496081147174 -0.3802655409972527 61 71 74 0.432591702953552 12 828 13 1260 16 1000
301 0.9040162094267166 -0.0946463441888527 -0.38154759769236085 17 22 20 0.11015769121081592 12 1031 13 1493
302 0.95529507549612 0.04369890153028335 -0.3828404928177854 184 188 189 0.08421132262326592 12 429 14 609
303 0.95529507549612 0.04369890153028335 -0.3828404928177854 184 188 189 0.08421132262326592 12 432 14 612
304 0.8902432132210482 -0.028578404722743322 -0.38127018301521126 178 186 185 0.3242151420385095 12 776 14 981 22 1296
305 0.8296853528255893 0.0481611606396825 -0.3845908413005214 179 182 185 0.3220606598386965 12 341 15 828 17 529
306 0.8334759319054925 -0.03240544495767187 -0.384082039862205 89 81 86 0.4118284648241148 12 786 15 1266
307 0.9816541685050798 0.07939760171773098 -0.38225907560002986 61 69 70 0.10125267630937046 13 705 14 419
308 0.8294592582488903 0.04760877048166086 -0.3821382532820752 176 182 182 0.03284322047890391 13 792 14 589
309 0.8332040021791017 0.047897004182995535 -0.38394215387487274 173 175 174 0.04240841954130909 13 796 14 588
310 0.8332176688028601 0.00945551062687362 -0.38333016266928727 160 160 160 0.09843280463853749 13 1020 14 798 19 477
311 0.8317741274092645 -0.011905131663982218 -0.38323992634176013 166 167 163 0.12383309610249453 13 1139 14 915 19 610
312 0.8327567506671666 -0.014479096791423762 -0.38301103063669306 162 168 166 0.01253531766529688 13 1149 14 930
313 0.8322402132966704 -0.01567698833257899 -0.3830530894353405 172 178 181 0.048489429341784504 13 1160 14 941 19 624
314 0.8322677599315719 -0.022668865550406085 -0.3828949528496089 128 128 128 0.05923731994878851 13 1208 14 974
315 0.8334463222670823 -0.027641976026030274 -0.38310246917439617 98 89 92 0.13828857748661122 13 1244 14 994 16 1013
316 0.8298428621617879 -0.02939870260617079 -0.38245973315477694 165 168 167 0.5054059829675354 13 1255 14 1003 16 1022
317 0.8660668251805652 -0.05540249268519479 -0.38257418672269417 161 161 161 0.02661795903231744 13 1362 14 1093
318 0.9354481136499775 -0.06240859267848554 -0.3802489537673615 22 25 24 0.1899955466185869 13 1378 14 1095
319 0.8314995513353985 0.06228244741798056 -0.3839333562820041 189 187 188 0.12238607123576196 13 719 15 739
320 0.8534775453232011 0.04943454308300128 -0.3848306577208709 26 32 30 0.26153221767590046 13 801 15 820 19 279
321 0.8337529725580807 -0.012309528260548569 -0.38314758728446996 168 168 170 0.3308596389192921 13 1142 15 1161 19 611
322 0.8330903207537396 -0.024962878311205732 -0.38424177124491543 160 160 160 0.040999069353928094 13 1224 15 1230
323 0.8330582407295412 0.09865067528331851 -0.3854454377210757 190 188 190 0.24549658343547393 13 562 16 256
324 0.8324353459209799 0.037661748238214186 -0.38394449327092894 114 113 112 0.21090172922561537 13 860 16 627 25 1218
325 0.8329400743651912 0.036561775818042236 -0.38305500571226353 177 176 178 0.082612124588848 13 864 16 636
326 0.8329910264835452 0.02846992387973456 -0.38398107012719995 107 103 106 0.2375647263085746 13 909 16 680 25 1281 15 933
327 0.8310172320133162 0.02586739815867988 -0.3832043950162964 143 144 146 0.09350191824844666 13 924 16 699
328 0.9832171689492352 0.014255302137428073 -0.3822781222708071 48 61 60 0.03530720748218935 13 1019 16 774
329 0.8909783846448348 -0.028626079842288925 -0.38307775035627417 157 164 162 0.02221464554932708 13 1242 16 995
330 0.9261012748423323 -0.0611542574294492 -0.3798286684660464 149 155 149 0.174152497070308 13 1374 16 1132
331 0.9261012748423323 -0.0611542574294492 -0.3798286684660464 149 155 149 0.174152497070308 13 1375 16 1133
332 0.8838792786385061 0.08219435915513768 -0.3844409906238824 21 27 29 0.12033341720092415 13 640 18 158
333 0.8797870148233999 -0.07418057690856744 -0.38492331391265805 17 17 17 0.2533349996933618 13 1439 18 1019
334 0.9163331068970947 0.11418513546330365 -0.38531489062455004 27 33 35 0.18830497153882814 13 556 19 64
335 0.8312542753488187 0.07993861199518881 -0.38526128559603773 182 182 182 0.031174301641853034 13 624 19 119
336 0.8298927139305246 -0.022823044596271536 -0.3840189083032615 159 167 168 0.05505696187427854 13 1210 19 677
337 0.8335284675173884 -0.02451603033582866 -0.3830046322561137 110 116 118 0.03517086075769315 13 1222 19 683
338 0.8299742136376492 -0.025086181798458857 -0.38154965693437465 155 166 166 0.06521338790128756 13 1225 19 684
339 0.9060133841369123 -0.03383143363872117 -0.38100171557856144 18 24 22 0.10579534388200663 13 1266 19 777
340 0.9312687849757669 0.010329578945470428 -0.3822675630205796 137 155 151 0.22487471430621522 13 1031 22 1038
341 0.931638543476538 0.01039776684927503 -0.38311584554316114 173 179 177 0.25256644511563464 13 1032 22 1039 25 1719
342 0.931638543476538 0.01039776684927503 -0.38311584554316114 173 179 177 0.25256644511563464 13 1033 22 1040 25 1718
343 0.8322613219724048 0.06327333131348636 -0.3849512672652937 121 120 116 0.22493304048133855 13 710 25 1032
344 0.8837172073162496 0.024751354590972566 -0.38207654939246366 167 175 172 0.11365713764990154 13 951 25 1462
345 0.9413901578647317 0.025339824575887928 -0.3827342118752388 47 55 54 0.02172136934786708 13 967 25 1625
346 0.8315900665197373 0.005316884475826317 -0.3827445855565489 163 170 173 0.3432320716624509 13 1045 25 1416
347 0.8318884200179847 0.06267227006180995 -0.3836208383769921 171 170 174 0.0026618954192076452 14 500 16 476
348 0.8318268515631326 0.03282858206909545 -0.3838572623803847 182 181 183 0.15873703656737745 14 667 16 653 17 619 18 389
349 0.8322509227097831 0.02079985693419392 -0.38385805646114673 107 106 110 0.018712821790368577 14 743 16 740
350 0.8310736598387297 0.014963904729424774 -0.3842300867318236 122 123 125 0.1038680594181492 14 771 16 765 17 737
351 0.8312442799312736 0.0036805881591988852 -0.38322146135378843 143 143 145 0.08091943297581461 14 837 16 831 24 839
352 0.8301405335304854 0.000269274899469522 -0.3836255567759757 168 173 175 0.12908116880847761 14 856 16 855
353 0.8332041050978455 -0.016226143954696955 -0.38366693226688786 166 166 164 0.03577406608260998 14 943 16 947
354 0.8311929152078811 -0.020170212646964197 -0.3834418500577711 122 126 129 0.14935693157485405 14 964 16 968 19 653
355 0.833264231843067 -0.023020035864642567 -0.38335712464422267 107 106 108 0.07067120854285 14 976 16 981
356 0.833264231843067 -0.023020035864642567 -0.38335712464422267 107 106 108 0.07067120854285 14 977 16 982
357 0.8955216778893705 -0.03092118580945956 -0.3820170565163183 155 161 159 0.3030317252879612 14 986 16 1007 24 1112
358 0.8955216778893705 -0.03092118580945956 -0.3820170565163183 155 161 159 0.3030317252879612 14 987 16 1008 24 1113
359 0.9410085581553382 -0.04243496031395132 -0.3810972748858627 170 173 172 0.10159454264794943 14 1028 16 1054
360 0.831920644550784 -0.03656762024837045 -0.3833405599788884 111 110 112 0.23038630538765317 14 1045 16 1062 17 1080 19 784
361 0.9370929861706436 -0.05938552127769247 -0.38301457424129265 19 25 22 0.022179314503487438 14 1082 16 1119
362 0.8844863891219766 -0.068501343798967 -0.3819558791306719 20 24 19 0.04242701322768783 14 1132 16 1164
363 0.8785338194321389 -0.006033901633938499 -0.3831557290113208 160 166 164 0.010993917770448454 14 881 17 864
364 0.8333229191739943 -0.013942130477555041 -0.3834436912729092 128 128 130 0.05470629135901151 14 924 17 907
365 0.833040897420567 -0.028382308790290717 -0.38395744042374824 175 175 177 0.062373463258907434 14 996 17 1005
366 0.8306517282087075 -0.02939353857049798 -0.3838292618005201 140 141 145 0.11613828253125337 14 1000 17 1012
367 0.8306517282087075 -0.02939353857049798 -0.3838292618005201 140 141 145 0.11613828253125337 14 1001 17 1013
368 0.9072428396137227 0.0863425698385721 -0.37762136735999197 181 187 184 0.34111804892422004 14 346 22 524
369 0.9586586859207346 0.03750022615577654 -0.38285811597894487 41 47 47 0.47637302988036245 14 637 22 856
370 0.8332976611595552 0.1320964854746383 -0.3870373011501007 195 195 195 0.32753444230460355 15 416 16 150
371 0.831498494881684 0.09677902176619527 -0.3854972245352489 128 125 120 0.2389213102239367 15 532 16 267
372 0.8329183572204879 0.09016849562567658 -0.38408884668568727 189 189 191 0.20431828821685372 15 558 16 291
373 0.8525328120460933 0.08712898622262999 -0.380974235926864 25 29 28 0.13634362681053105 15 578 16 325
374 0.8310219627231005 0.08388289278507681 -0.3844290457703655 181 177 175 0.1429669018510079 15 590 16 336 25 864
375 0.8298244281895464 0.08077346183456503 -0.3859562035727431 185 188 189 0.17704101472693026 15 618 16 360
376 0.941747981590851 0.05117786143763329 -0.3843516464738994 32 38 36 0.046703595634056204 15 821 16 581
377 0.8315313358192875 0.04796797527462654 -0.3835440172711519 178 177 179 0.20735461621034473 15 829 16 563 24 474
378 0.831085174046881 0.024564344833310714 -0.383807450685823 115 116 117 0.14320658884355836 15 957 16 709
379 0.831085174046881 0.024564344833310714 -0.383807450685823 115 116 117 0.14320658884355836 15 958 16 710
380 0.8332952915506606 0.021993048063316006 -0.384448189701524 173 175 176 0.0300591913559045 15 971 16 737
381 0.9103471336215957 0.019999175549315778 -0.38375804827175997 25 25 25 0.043567493996536734 15 972 16 746
382 0.8325950856452672 0.005957372990215284 -0.3844499619300496 128 127 131 0.0877236448288525 15 1072 16 812
383 0.8317410065632027 0.005456161115962131 -0.3834300309432672 176 177 181 0.12950458182207705 15 1076 16 820 19 493 24 819
384 0.8678135973579207 0.0009915028798029057 -0.38305658139802246 25 25 25 0.1442924721023042 15 1092 16 851
385 0.8313170982260697 -0.012591414511963895 -0.38432316601911365 108 104 108 0.18226865516607046 15 1168 16 927 24 965
386 0.8535433320089594 -0.03733547792052256 -0.38413508738371316 20 23 22 0.0820675077553267 15 1277 16 1060
387 0.9677937654583928 -0.09529385402680313 -0.37864632034071066 41 47 47 0.3653865146669909 15 1405 16 1202 17 1237
388 0.8292190651912928 0.06889854647128191 -0.3855430970699625 186 188 188 0.12585017702750984 15 695 17 418
389 0.8340973354315055 0.010450089099353995 -0.3834576214532921 172 175 176 0.01239025950324192 15 1035 17 761
390 0.8313686154129044 -0.009701966652741943 -0.384042494468233 108 108 107 0.15743179564229098 15 1148 17 882 25 1520
391 0.8304093990117986 -0.012203597143044167 -0.3847140835934134 165 167 169 0.150736000836793 15 1158 17 890 18 677
392 0.8329251829418101 -0.025089985399489773 -0.384368994266666 160 164 163 0.18058805674145978 15 1232 17 978 16 994
393 0.8318531677567695 -0.025069773732231578 -0.38426801726200266 176 178 181 0.07583466648808224 15 1233 17 976 18 763
394 0.8319864333478564 0.04099349661785107 -0.38491290302534936 129 128 131 0.13457315024978456 15 858 18 322
395 0.8601535440997015 0.012151334688366985 -0.3843096958583879 167 173 173 0.08657097727754708 15 1021 18 549
396 0.8333730602093912 -0.016296366224496407 -0.3841871345671386 164 164 164 0.16857850877999958 15 1184 18 710
397 0.8951648753541065 0.036097359543776054 -0.38287614691628885 172 178 178 0.30935657166861574 15 890 22 878 19 350
398 0.8872181054558682 0.031056236939071905 -0.3787098365135879 46 32 20 0.10493800764639384 15 914 22 922
399 0.9471741796402107 0.020148658313927655 -0.3825689698269477 31 38 37 0.39528836028502085 15 965 22 972
400 0.915485776942549 -0.0058617934370719955 -0.3819086992344172 159 168 165 0.13160396514554082 15 1103 22 1171
401 0.9266873209041321 -0.05013415104542249 -0.38224344396106885 24 27 26 0.1233747149440854 15 1294 22 1347
402 0.9170149041990939 0.11215939065085638 -0.38374655183060347 31 34 35 0.36643165154200164 16 246 17 286 18 98
403 1.003678882373348 0.050931722479215534 -0.38273517397886037 58 69 69 0.27303897450291065 16 599 17 615 18 421
404 0.8321649718096487 0.04042863076471374 -0.38464283968756224 176 176 178 0.10415258865958459 16 610 17 582
405 0.8321761531247921 0.04040837988507526 -0.38453351931537316 191 191 191 0.14655676592391695 16 611 17 583 18 325
406 1.002008680078598 0.026131534411987095 -0.3800001087557708 66 77 77 0.2278956199032963 16 732 17 738
407 0.9720421154701121 0.025391717413387065 -0.38136606588654615 181 187 185 0.11637507981346107 16 734 17 730
408 0.9103069332852 0.01999892772232481 -0.3837598937922236 21 24 23 0.17036046572997338 16 747 17 740
409 0.8846934641541059 0.019474178119008864 -0.384431780732123 23 26 27 0.08335886261159707 16 748 17 732
410 0.9539699753258456 -0.03003019116051435 -0.38172710373396107 176 184 183 0.12298052240214899 16 989 17 1016
411 0.8328739207109092 -0.025102408042656704 -0.3840664533500622 170 176 178 0.13606150585131546 16 993 17 977 18 765
412 1.0027499081954934 -0.03625700126824225 -0.38023632485003833 48 54 54 0.10176454903682221 16 1002 17 1053
413 0.8314094104920629 -0.02770392327736761 -0.3834159513427949 108 108 110 0.2231620914392477 16 1015 17 1000 25 1652
414 0.9158451516456605 -0.04272642789856786 -0.38243738945656436 157 160 159 0.09342086661303213 16 1064 17 1097
415 0.8316905237910517 -0.03794552545207141 -0.3841055934761212 88 87 89 0.13357536181982152 16 1071 17 1085
416 0.8953035289952689 -0.08166788768857125 -0.381913276154407 23 23 19 0.11780116055938147 16 1194 17 1224
417 0.8768230280971542 0.11220097826672988 -0.38681009753351153 26 29 28 0.25557086203958496 16 233 18 85
418 0.8318834036354055 0.036389700935111804 -0.38444445883895956 117 113 114 0.21383428757645231 16 637 18 362
419 1.0007965553966511 0.03501314721410563 -0.3801340400491163 58 69 69 0.2506027924275414 16 675 18 494
420 0.8323807660328996 0.02464881898481368 -0.3843527243638564 116 112 115 0.1065818901936488 16 706 18 435
421 0.8324021037336533 0.02471601372053292 -0.38446028316982833 120 114 116 0.24066316132818916 16 707 18 436 24 653
422 0.8331927613218277 0.009549567902774222 -0.3842944069516851 169 167 170 0.07371420995109516 16 793 18 544
423 0.8335219507292541 -0.013112496115967558 -0.3842141640026009 162 165 164 0.3409371429716209 16 930 18 687 24 975
424 0.8317444725926733 -0.004420492346124863 -0.38333944300080924 179 179 176 0.20560364226049146 16 886 19 566 25 1482
425 0.831539551398684 0.034153748821440774 -0.3824451272710324 178 178 180 0.07434050386676398 16 647 24 593
426 0.8321222145720244 0.027551884701774446 -0.38285607425331164 174 174 178 0.07395603330457952 16 688 24 633
427 0.8321858035946864 0.02448080802280752 -0.3824397669404253 116 112 115 0.05136135524501381 16 708 24 654
428 0.831171687381768 0.013250335567984852 -0.38232703139376933 112 111 114 0.05085610186528969 16 770 24 752
429 0.831171687381768 0.013250335567984852 -0.38232703139376933 112 111 114 0.05085610186528969 16 771 24 753
430 0.8316527965311072 0.010256720319263904 -0.3822511242004535 181 183 184 0.3002273431334612 16 787 24 776 27 711
431 0.8326886192238756 0.008607802590686246 -0.38261015451420227 101 95 99 0.058676372899706807 16 801 24 791
432 0.8325139233435386 -0.009778997761281074 -0.383106857300168 115 115 117 0.05800489843861811 16 911 24 952
433 0.832290884107531 -0.021138851915639332 -0.3835051909909534 171 172 174 0.19080123570272536 16 973 24 1044
434 0.8631365992245947 -0.0245006747734 -0.38288023938228355 18 21 20 1.131995526693706 16 980 24 1067
435 0.8336329300810716 -0.03407093227107216 -0.383986255217175 121 117 120 0.0973126503301831 16 1044 24 1137
436 0.833306443388027 0.07118829585549587 -0.3863577402428599 125 121 122 0.04112145399360281 16 421 25 980
437 0.8784582041838349 0.019399079235819423 -0.3827530794903262 167 170 169 0.10382557279458227 16 745 25 1478
438 0.832352275357117 0.0022611369934700007 -0.38341962346976893 108 110 118 0.22518846979071208 16 842 25 1434
439 0.832352275357117 0.0022611369934700007 -0.38341962346976893 108 110 118 0.22518846979071208 16 843 25 1435
440 0.8319375810005063 -0.002040534474087983 -0.3841963010539307 161 172 172 0.3439810093125197 16 869 25 1470 24 887
441 0.8974612350193032 -0.022487970390853047 -0.3814971462180179 154 165 162 0.20359633628067908 16 965 25 1853
442 0.8324561077531417 -0.022807250583658355 -0.38413938868596437 135 132 133 0.18938937136073386 16 978 25 1612
443 0.8298312188775687 -0.02271383091383355 -0.38349416749490467 167 170 171 0.256199698732078 16 979 25 1607
444 0.9603024519266944 -0.05592976100898265 -0.3822266768461104 29 35 33 0.3640557055880853 16 1094 25 2202
445 0.9164135061355734 0.11378500102916282 -0.38473353158652496 29 32 33 0.6611243556661127 17 282 18 96 25 1022
446 0.8782197814107242 0.08640219107759511 -0.38254851337408663 27 27 27 0.02838040840264429 17 350 18 134
447 0.8782197814107242 0.08640219107759511 -0.38254851337408663 27 27 27 0.02838040840264429 17 351 18 135
448 1.0822043844511398 0.04029452902795516 -0.386694329392628 119 123 118 0.2253917569703961 17 699 18 529
449 1.0721331444394313 0.036233653998496054 -0.38027298795610953 120 126 124 0.21428844241715653 17 708 18 539
450 1.0728805885660586 0.024202515658962455 -0.384049704506251 114 117 116 0.29840876002279376 17 771 18 598
451 0.832811243527322 0.0051334819737933 -0.3843619986884469 132 129 126 0.07041594095987921 17 787 18 570
452 0.989321203941687 -0.001192332983452261 -0.38144073311508586 55 59 59 0.3163973125659322 17 859 18 686
453 0.9111573960609349 -0.04254473935924282 -0.38486244131930925 20 23 22 0.280211245872478 17 1094 18 878
454 0.9827448687023191 -0.06471103957523122 -0.3814649558542621 41 49 49 0.35927153472759704 17 1161 18 983
455 0.9519621022191169 -0.07730131846781611 -0.3830979801800014 29 34 36 0.4936911635123948 17 1199 18 1024
456 0.8330825638440492 0.10606891644786678 -0.3850523111113124 146 142 143 0.3036095585776794 17 269 19 54
457 0.8312443368386115 0.10087649148024917 -0.38527616249654556 199 194 194 0.21836799522323125 17 275 19 61
458 0.8315111302364041 0.06600168970633873 -0.38410273044599874 176 176 176 0.2811402015107175 17 429 19 181 25 1005
459 0.8837471514412536 0.05571203022481015 -0.3816020082711498 24 27 26 0.21849781443695449 17 524 19 257
460 0.8747809674593912 0.015583743730861176 -0.38186426990255495 22 23 19 0.10966565032281439 17 747 19 457
461 0.8747809674593912 0.015583743730861176 -0.38186426990255495 22 23 19 0.10966565032281439 17 748 19 458
462 0.9144735928037879 -0.011423949450203497 -0.3805113349369807 24 30 30 0.10266512526407855 17 898 19 621
463 0.9144735928037879 -0.011423949450203497 -0.3805113349369807 24 30 30 0.10266512526407855 17 899 19 622
464 0.9088281278858746 -0.03730213594655749 -0.37993369121719606 167 177 170 0.04692460106557883 17 1076 19 799
465 0.9595770541630195 -0.09150815758787784 -0.37800837403713805 32 37 39 0.17229428079237585 17 1232 19 984
466 0.8298410527906172 0.07232888135012082 -0.3849334922036521 178 180 177 0.23753132227598164 17 391 25 953
467 0.8312710754403502 -0.027734862313575963 -0.38251323257463027 120 124 124 0.05894447036479822 17 999 25 1651
468 0.8314425450534269 -0.030562710812727108 -0.3824911806325716 176 179 182 0.0568889654771975 17 1028 25 1686
469 0.8311045726640613 -0.03481899971793541 -0.3831470630042167 174 180 179 0.1481170691687295 17 1059 25 1729
470 0.928355513343017 -0.05423781075896572 -0.381039158353104 166 174 171 0.4340129954508925 19 857 22 1366
471 0.8287573101723289 0.07557041957527948 -0.38483734309095724 183 183 179 0.01627434422855265 19 131 25 930
472 0.8296505521621855 0.07109313245648383 -0.3840680627360036 181 182 179 0.010541090189951613 19 149 25 961
473 0.8310849979844068 0.07015196671571292 -0.3841061301580437 176 175 173 0.07473491704265835 19 157 25 972
474 0.8294823903529409 0.0209356935741407 -0.38253651958523305 170 174 173 0.08204897869734777 19 406 25 1313
475 0.8316447257574676 0.009122074342680529 -0.3825646480066747 161 169 169 0.14540151035510546 19 476 25 1395
476 0.8310023853987016 0.008426239488474126 -0.38301100429855145 109 114 116 0.1059995393373642 19 479 25 1397
477 0.831013104913037 0.0010049350453870086 -0.38287551801762343 117 123 125 0.025970263567601272 19 527 25 1438
478 0.8310760875562185 -0.018001215338644235 -0.3819268332472309 110 113 112 0.04770033876340123 19 643 25 1580
479 0.9521643212793931 -0.03263628428486029 -0.37911696705150083 45 44 46 0.32653997617452163 19 775 25 2064
480 0.9303181061742375 0.07467674106115968 -0.3830117228969592 198 204 204 0.3192391234829069 20 1006 23 1318
481 0.8744070307675167 0.04856250067711266 -0.3816190702775201 29 32 33 0.03748856565355204 20 1045 23 1564
482 0.9038734670087948 -0.007111300860867081 -0.3780893294526694 32 35 34 0.3640212686889575 20 1573 23 1950
483 0.9416739648537507 -0.006258046363941862 -0.3775150939151714 41 47 47 0.5128313363984981 20 1633 23 1882
484 0.9633460766591108 -0.00677957587527735 -0.37505059136454383 56 59 62 0.32290026895234153 20 1683 23 1855
485 0.9043338518773281 -0.03826656628147311 -0.37910649211706765 176 175 176 1.2676043502534697 20 1801 23 2082
486 0.9951578723771252 0.03928141363752647 -0.3842729375523897 60 71 69 0.5835136444150861 22 847 24 658
487 0.9671488862500152 0.032904030853053316 -0.3841796799119216 185 196 192 0.2852423692755643 22 885 24 684
488 0.8787343039776526 0.025385844012810452 -0.38425674717904235 25 31 29 0.34758049053206536 22 968 24 687
489 0.8529486040964258 -0.03674786627686775 -0.38091244153420784 23 26 25 0.746168292261114 22 1343 24 1167
490 0.8780049550542101 -0.04278992096081437 -0.38056902933065817 169 169 169 0.40136917265168315 22 1356 24 1195
