# 3D point list with one line of data per point:
#   POINT3D_ID, X, Y, Z, R, G, B, ERROR, TRACK[] as (IMAGE_ID, POINT2D_IDX)
131 0.952133 0.062966 -0.393725 191 197 197 4.607036 1 298 2 343 4 469 5 445 6 326 7 291 8 248 10 223 11 241 12 225 13 274 14 272 15 295 16 292 17 252 18 265 22 231 23 273 24 299 25 450 26 323 27 354 29 253 30 451 31 439
132 1.110863 0.078819 -0.412575 154 162 161 1.653469 5 405 6 324 7 303 8 274
133 1.107073 0.071446 -0.400171 105 104 104 0.336262 1 319 5 433
134 0.949587 0.056581 -0.393318 39 42 43 4.968441 1 321 8 279 9 265 10 243 11 291 15 334 27 382 28 355 31 470
135 0.918168 0.055097 -0.397281 36 39 42 5.639581 1 323 2 370 3 369 4 511 5 480 6 351 7 309 9 248 12 238 13 301 14 314 15 338 16 324 17 282 18 284 19 302 21 336 22 263 23 315 24 325 25 425 27 346 28 359 29 276 30 510 31 536
136 0.918168 0.055097 -0.397281 36 39 42 5.786974 1 324 2 371 3 370 4 512 5 481 6 352 7 310 8 273 9 249 12 239 13 302 14 315 16 325 17 283 18 285 19 303 21 337 22 264 23 316 24 326 25 426 27 347 28 360 29 277 30 511 31 537
137 0.985889 0.059362 -0.395841 190 196 196 4.538007 1 327 2 365 3 356 4 499 5 469 9 271 12 249 13 305 14 300 15 332 16 321 19 312 22 242 23 279 24 341 26 383 27 418 28 337 30 476 31 434
138 0.990542 0.058885 -0.393715 56 64 65 3.928501 1 330 2 367 4 501 9 277 10 252 11 293 12 250 14 301 16 322 18 310 19 314 29 264 31 423
139 0.906158 0.050907 -0.398067 190 196 196 4.229132 1 334 2 382 6 361 7 318 8 280 9 255 10 254 11 303 12 243 13 316 15 348 17 291 24 336 25 417 26 319 27 353 29 286 30 532
140 0.907895 0.050850 -0.398073 190 196 196 5.832110 1 335 2 384 3 378 4 528 6 363 7 319 8 282 9 256 10 255 11 304 12 245 13 318 15 349 17 293 21 344 23 326 24 338 25 418 26 320 28 369 29 288 30 534 31 575
141 1.096419 0.066785 -0.402683 167 173 173 0.457420 1 336 2 358 4 476 5 452
142 0.963176 0.054903 -0.395904 43 49 51 4.312622 1 338 2 378 3 371 4 517 5 482 6 360 7 326 8 293 9 276 11 299 12 252 13 324 15 343 16 336 17 302 18 313 19 319 22 260 23 300 24 347 25 516 26 375 27 415 28 361 29 278 30 501 31 477
143 0.975406 0.052343 -0.390265 47 53 55 5.060373 1 343 3 372 4 522 5 489 6 369 11 309 12 262 14 318 15 347 16 342 19 328 22 262 23 297 25 568 26 403 27 442 29 280 30 506 31 464
144 0.902196 0.046845 -0.397226 189 195 195 4.203697 1 347 2 400 3 390 4 541 5 510 6 376 7 331 8 296 9 270 10 265 11 325 12 255 13 337 15 364 16 351 17 305 18 306 19 327 22 280 25 423 26 336 28 387 29 301 30 552 31 606
145 0.970497 0.051889 -0.395660 189 197 196 4.072649 1 348 2 391 3 376 4 526 5 493 6 373 7 334 8 303 9 284 10 269 11 314 12 265 14 321 15 350 17 309 18 324 19 330 24 357 26 398 27 438 28 368 29 285 30 515 31 491
146 0.906240 0.046695 -0.397312 47 46 50 4.229850 1 349 3 391 4 544 5 511 6 379 7 333 8 298 9 272 10 268 11 328 12 258 13 339 15 366 16 352 17 307 18 309 19 329 25 435 26 341 27 373 28 388 29 302 30 554 31 603
147 1.107058 0.060607 -0.399401 105 106 102 0.149558 1 356 4 507
148 1.112996 0.061079 -0.407662 105 106 102 2.632236 1 357 2 379 4 508 7 348 9 324
149 1.106134 0.058525 -0.406681 154 160 158 2.657371 1 359 2 381 4 513 6 382 8 319 9 328
150 0.977138 0.047966 -0.395765 190 196 196 4.268471 1 362 2 407 4 540 5 506 6 389 7 352 8 315 9 303 10 283 11 343 12 284 13 345 15 365 16 357 17 328 18 349 19 346 22 272 23 317 24 374 25 584 28 384 31 508
151 0.903493 0.042615 -0.396851 194 197 198 4.518327 1 363 2 419 3 403 4 569 5 542 6 393 7 344 8 309 9 283 10 277 11 357 12 275 14 358 15 385 16 362 18 322 18 323 19 342 22 295 24 364 26 357 27 389 28 401 29 316 30 577 31 628
152 0.966504 0.043999 -0.395985 187 198 196 4.313221 1 368 2 425 3 399 4 565 5 531 6 402 7 358 8 320 9 310 10 296 11 372 12 289 13 359 14 353 15 380 16 370 17 335 18 356 19 355 22 288 23 328 24 381 25 581 26 425 28 395 29 309 30 561
153 0.966069 0.043908 -0.395230 187 198 196 4.365818 1 369 2 426 3 400 4 566 5 532 6 403 7 359 8 321 9 311 10 297 11 373 13 360 15 381 16 371 17 336 18 357 19 356 22 289 23 329 24 382 25 582 26 426 28 396 29 310 30 562
154 0.981765 0.044382 -0.395522 48 54 56 4.339331 1 375 2 427 3 396 4 563 5 530 6 404 7 363 8 326 9 318 10 305 11 376 12 290 14 352 15 379 16 373 17 341 18 361 19 360 22 283 23 319 24 384 26 436 30 560 31 526
155 1.111546 0.053184 -0.405315 98 106 107 2.373246 1 376 2 404 4 529 6 397 8 340 9 347
156 1.118220 0.055598 -0.411927 98 106 107 2.471389 1 377 2 405 6 398 9 348
157 1.105708 0.052368 -0.399401 146 157 155 0.373055 1 378 2 409 4 536 5 500
158 1.092011 0.051009 -0.384851 141 149 146 0.829606 2 410 4 537 5 501 31 370
159 0.911619 0.038991 -0.396728 188 196 197 5.296235 1 384 2 440 3 417 4 584 5 562 6 413 7 360 8 317 9 302 10 301 11 383 12 287 13 366 14 369 15 398 16 377 17 337 18 350 19 359 21 403 23 371 24 380 25 477 26 388 27 421 28 414 29 327 30 600 31 631
160 0.839914 0.033392 -0.396753 193 196 199 5.563770 1 385 2 470 3 440 4 628 10 295 11 392 12 283 13 368 14 388 15 425 16 390 19 351 24 376 25 342 26 310 27 338 28 440 29 343 30 662
161 0.968266 0.040857 -0.396918 53 49 52 5.631909 1 388 3 407 4 576 6 418 7 369 8 335 9 326 10 319 13 369 14 360 16 380 17 349 18 369 21 421 22 296 23 345 24 393 25 594 28 405 29 319 30 584 31 560
162 0.964962 0.040249 -0.394945 53 49 52 4.651819 1 389 3 408 4 577 5 555 6 419 7 370 8 336 9 327 10 320 11 389 13 370 14 361 15 390 16 381 17 350 18 370 19 374 21 422 22 297 23 346 24 394 25 595 28 406 29 320 30 585 31 561
163 1.089046 0.048096 -0.386478 155 163 162 0.714720 2 418 5 508 31 386
164 0.905373 0.035940 -0.397792 34 34 38 4.779056 1 392 2 465 3 427 4 604 5 585 6 428 7 367 8 331 9 308 10 318 11 402 12 296 13 379 14 379 15 413 16 391 17 348 18 358 21 408 22 323 23 384 24 391 25 473 26 394 27 429 28 429 29 335 31 659
165 0.899110 0.035472 -0.397267 38 38 40 3.322785 1 394 4 610 5 591 8 329 10 317 11 403 12 295 16 393 17 347 18 354 26 387 27 420 28 432
166 0.968037 0.039540 -0.394436 189 197 196 4.722678 1 395 2 450 3 416 4 581 5 560 6 421 7 372 8 341 9 332 10 324 11 394 12 300 13 375 14 367 15 396 16 385 17 353 18 373 19 380 21 428 22 301 23 348 24 397 25 609 26 438 27 480 28 411 29 326 30 590 31 559
167 1.104539 0.048724 -0.400287 100 103 102 0.513145 1 396 2 423 4 542
168 1.109935 0.048529 -0.408000 100 103 102 4.038703 1 397 2 424 4 543 6 415 7 382 9 364 30 531 31 381
169 1.115271 0.048936 -0.410610 147 158 158 2.549838 1 398 2 421 4 545 5 512 6 416 8 359
170 1.115271 0.048936 -0.410610 147 158 158 2.549838 1 399 2 422 4 546 5 513 6 417 8 360
171 0.971665 0.039647 -0.393906 53 53 47 4.428970 1 400 2 451 3 413 5 558 6 422 9 333 10 326 11 395 12 301 13 372 14 365 15 393 16 383 18 374 19 381 21 431 23 343 24 398 25 614 26 442 27 481 28 409 29 324 30 588 31 556
172 0.971665 0.039647 -0.393906 53 53 47 4.497027 1 401 2 452 3 414 5 559 6 423 9 334 10 327 11 396 12 302 13 373 14 366 15 394 16 384 19 382 21 432 23 344 24 399 25 615 26 443 27 482 28 410 29 325 30 589 31 557
173 1.113016 0.048236 -0.406955 94 100 102 2.410882 1 406 4 548 7 384 9 366
174 0.915711 0.036214 -0.398344 36 39 40 6.115976 1 408 2 468 3 430 4 607 6 431 8 334 9 316 10 325 11 404 12 298 13 384 14 382 17 351 18 362 19 378 21 413 22 322 23 380 24 396 25 498 26 411 27 449 28 430 29 337
175 1.120756 0.046932 -0.407062 96 99 102 2.508415 1 409 2 428 4 552 5 516 6 420 7 390 8 366 9 377
176 0.962082 0.037543 -0.394960 39 45 45 5.092312 1 410 2 462 5 571 6 432 7 378 8 348 9 341 10 333 11 408 12 308 13 386 14 374 15 405 17 361 18 377 19 390 21 433 22 302 24 413 25 604 27 487 28 421 29 330 30 598 31 590
177 1.107497 0.046001 -0.407670 154 162 159 2.292137 1 411 2 432 4 558 5 526 7 394 8 364 9 373
178 1.107497 0.046001 -0.407670 154 162 159 2.292137 1 412 2 433 4 559 5 527 7 395 8 365 9 374
179 1.097250 0.045685 -0.405298 109 112 111 0.169985 1 414 2 435
180 0.972162 0.036394 -0.395001 42 49 43 4.523195 1 415 2 471 3 424 4 596 5 576 6 438 8 358 9 346 11 416 13 391 15 408 16 397 17 366 18 387 19 400 21 441 22 308 23 357 24 420 25 638 26 462 28 427 29 332 30 607
181 1.107800 0.044864 -0.401197 146 154 151 0.693061 1 417 2 437 4 564 5 536
182 1.110723 0.043352 -0.404527 117 120 121 3.416594 1 418 2 443 5 535 7 398 9 382
183 1.119456 0.044710 -0.402955 89 92 93 0.437182 1 421 5 537
184 1.105046 0.041197 -0.403218 119 122 125 0.509109 6 436 7 400 8 376 9 385
185 1.091235 0.042080 -0.398696 98 106 105 3.447202 1 424 2 454 3 406 4 575 5 548 6 439 7 402 8 373 9 383 12 336 22 282 23 306
186 1.093790 0.040529 -0.403808 112 115 118 0.668788 6 440 9 384
187 1.101557 0.041935 -0.401709 96 97 93 0.430997 1 430 2 459 5 549
188 1.101557 0.041935 -0.401709 96 97 93 0.430997 1 431 2 460 5 550
189 1.114383 0.042114 -0.409314 145 151 151 2.623020 1 432 2 456 5 547 6 442 7 404
190 0.957309 0.032483 -0.394624 188 199 197 4.653923 1 436 2 489 3 438 4 625 5 607 6 455 7 399 8 362 10 351 11 436 12 318 13 406 14 395 15 426 16 418 17 372 18 398 19 410 21 450 22 324 23 372 24 425 25 620 26 463 27 509 28 444 29 347 30 636 31 617
191 0.957233 0.033007 -0.396345 188 199 197 5.217789 1 437 3 439 5 608 6 456 8 363 11 437 14 396 17 373 19 411 21 451 24 426 25 621 26 464 27 510 30 637 31 618
192 1.119571 0.041508 -0.412328 108 111 112 2.374429 1 438 5 551 6 444 7 412
193 1.119495 0.041749 -0.411949 102 105 106 2.173584 5 552 7 413
194 1.054178 0.022092 -0.347485 152 160 159 18.767039 1 440 2 469 4 578 4 673 5 645 6 448 7 415 7 501 8 382 9 399 30 569
195 1.097832 0.039754 -0.401772 155 161 159 0.561830 1 442 2 472 4 582
196 1.114995 0.036594 -0.400723 100 100 102 3.628993 1 449 4 589 5 567 6 458 9 415
197 2.022512 0.216290 -1.307439 105 100 98 2.789549 1 450 4 416 6 390 7 432 9 515
198 0.891487 0.022852 -0.379799 31 34 37 1.002653 1 453 6 472
199 1.109351 0.036606 -0.411267 102 102 104 2.687844 1 455 2 481 5 579 7 430
200 1.109351 0.036606 -0.411267 102 102 104 2.687844 1 456 2 482 5 580 7 431
201 1.112625 0.035818 -0.409351 108 111 110 2.070888 4 599 5 582 7 437 8 400
202 1.092968 0.035247 -0.387104 106 113 107 3.382245 1 460 4 600 5 583 7 438 30 594 31 451
203 1.089438 0.034777 -0.396311 116 116 120 2.411239 1 463 3 426 4 602 6 465 8 396 12 356
204 1.096979 0.034707 -0.406511 115 121 121 0.957875 6 466 7 435 8 397 9 416
205 1.120590 0.035328 -0.405734 91 91 93 2.212979 1 465 4 598 5 581 6 467 7 441 8 401 9 422
206 0.951175 0.027395 -0.395474 190 198 197 5.117390 1 466 3 459 4 657 8 383 10 370 11 457 15 452 19 432 21 461 25 636 26 482 27 522 29 364 30 681
207 0.951590 0.027367 -0.395925 190 198 197 4.898133 1 467 2 510 4 658 6 478 7 425 8 384 11 458 12 338 15 453 17 391 18 419 19 433 21 460 22 344 24 449 25 635 26 481 27 521 29 365 30 682
208 0.865259 0.022174 -0.397797 45 45 49 5.956901 1 472 2 529 3 480 4 691 5 664 6 487 7 424 8 372 9 351 12 330 13 434 14 443 15 485 16 456 17 388 18 393 19 424 21 424 22 378 23 463 24 443 25 447 26 410 27 448 28 489 29 385 30 730 31 788
209 1.111486 0.031788 -0.404629 103 103 105 0.806380 6 474 9 439
210 1.098140 0.032678 -0.387893 107 107 109 2.245098 1 477 4 613 5 597 30 608 31 459
211 1.055996 0.019024 -0.359402 112 115 116 4.719151 1 478 4 682 5 660 7 449 8 411 9 432 12 370
212 1.137205 0.034505 -0.416229 104 100 101 2.453172 1 481 8 420 9 444
213 0.948131 0.023665 -0.396577 45 45 47 4.944717 1 484 2 523 3 470 4 675 5 646 6 492 7 447 8 398 9 393 10 387 11 480 12 355 13 443 14 435 15 470 17 407 18 435 19 449 21 475 22 356 23 406 24 464 25 652 26 496 27 534 28 481 29 376 30 701 31 669
214 0.881690 0.019887 -0.398181 25 28 29 6.082245 1 486 2 542 3 482 4 703 6 500 7 443 8 392 9 370 10 385 11 488 12 348 13 447 14 453 15 492 16 467 17 404 18 418 19 448 21 452 22 384 23 460 24 461 25 496 27 476 29 391 30 737 31 781
215 0.868686 0.018698 -0.396857 186 192 194 5.788115 1 487 2 546 3 489 4 714 5 672 6 504 7 444 8 391 9 369 10 386 11 490 12 347 13 449 14 460 15 503 16 478 17 405 18 415 19 446 21 444 22 392 23 484 24 463 25 469 26 431 27 469 29 395 30 749 31 801
216 1.090577 0.028416 -0.396925 106 109 110 3.485861 1 488 2 516 4 639 6 489 7 457 8 425 12 381 23 342
217 1.082135 0.028102 -0.387454 106 109 110 4.159963 1 489 2 517 4 640 6 490 7 458 8 426 30 640 31 501
218 1.111262 0.030847 -0.418004 164 172 169 1.865215 1 492 9 449
219 1.107575 0.027121 -0.406236 153 161 158 2.323855 1 494 2 520 4 646 5 618 6 493 9 455
220 1.093914 0.027186 -0.397916 174 182 181 3.622558 1 495 2 519 4 647 6 494 7 466 8 436 9 452 12 392 30 648 31 509
221 1.011823 0.022559 -0.395780 70 80 85 3.887049 1 500 2 531 3 471 4 674 5 643 6 499 7 462 8 424 9 436 10 404 12 377 13 456 14 438 15 471 16 465 18 466 19 472 21 518 22 347 24 481 26 562 28 483 29 377 30 694 31 613
222 1.113307 0.026476 -0.399884 142 150 149 0.497149 1 501 5 621
223 1.098303 0.025297 -0.397850 107 110 111 3.275602 1 502 2 524 4 656 5 624 6 498 7 479 8 446 9 460 12 396 30 663 31 517
224 0.997000 0.020911 -0.394135 191 197 195 4.272082 1 503 5 652 6 507 7 470 8 428 9 437 10 405 11 508 14 442 15 478 16 475 17 429 18 467 19 473 21 517 22 353 23 395 25 789 26 557 27 595 28 488 29 383 30 706 31 635
225 0.996490 0.020661 -0.393051 191 197 195 3.992430 1 504 5 653 6 508 7 471 8 429 9 438 10 406 11 509 15 479 16 476 17 430 18 468 19 474 22 354 23 396 25 788 27 594 29 384 31 636
226 1.126515 0.026380 -0.403189 74 74 70 0.309971 1 505 2 522
227 0.876552 0.016141 -0.399006 184 192 193 6.960574 1 506 3 503 4 727 5 684 6 519 7 460 8 406 9 387 10 399 11 512 14 475 16 489 17 422 18 433 19 461 20 437 21 459 23 492 24 476 25 504 26 444 29 405 31 808
228 0.995477 0.020705 -0.386728 190 198 195 6.542044 1 507 13 463 21 519 25 800
229 1.003674 0.020423 -0.394322 190 198 195 4.324790 1 508 2 543 3 476 4 680 5 654 6 510 7 472 8 437 9 442 10 410 11 519 12 390 13 464 14 445 16 479 17 433 18 474 19 485 21 520 22 355 23 394 24 492 25 801 27 605 28 490 30 709
230 1.110866 0.023461 -0.402686 109 113 108 0.541765 6 502 7 482 8 451 9 464
231 0.942559 0.017852 -0.398526 190 196 196 3.975974 1 514 8 430 9 425 10 408 11 532 12 375 13 467 14 457 15 498 16 482 18 455 19 476 21 502 22 371 23 433 24 488 25 673 26 513 27 554 28 501
232 0.941324 0.017585 -0.398790 190 196 196 6.100778 1 516 4 712 6 516 7 475 7 476 9 427 9 428 10 412 10 413 13 471 14 465 18 461 19 482 22 376 23 436 23 437 23 439 25 674 26 515 27 556 29 399 30 738 31 720
233 0.879902 0.014344 -0.396527 43 43 47 5.634560 1 518 2 569 3 507 4 736 6 530 7 468 8 417 9 400 10 402 11 527 12 368 13 475 14 484 15 518 16 504 17 425 18 439 19 467 21 469 22 406 23 498 24 482 25 529 26 458 27 503 28 515 29 411 30 774 31 817
234 1.115617 0.022620 -0.409525 143 149 149 2.417389 1 520 5 632 6 509 8 464
235 0.932519 0.016079 -0.395966 45 40 38 5.388857 1 521 2 556 3 493 4 716 5 675 6 521 7 478 8 434 9 424 10 411 12 379 13 474 14 467 15 506 17 437 18 458 19 481 21 503 24 493 24 494 25 657 26 508 27 550 28 504 29 401 30 743
236 0.930057 0.016074 -0.396687 37 40 43 4.906245 1 522 2 557 3 494 4 717 5 677 9 423 11 540 12 378 13 477 14 468 15 507 16 492 17 436 18 457 19 484 21 499 22 386 23 443 25 649 26 505 27 549 29 402 30 746 31 736
237 1.109097 0.021388 -0.405515 94 97 98 2.936950 1 523 2 537 4 669 5 641 6 511 7 496 9 476 23 360
238 0.852292 0.014376 -0.402876 191 194 195 6.472036 1 525 2 572 3 511 5 694 14 493 19 466 25 456 26 433 29 417 30 796
239 0.995625 0.016936 -0.397394 55 63 62 4.126577 1 528 2 550 3 485 4 698 5 669 6 522 7 493 8 452 9 453 10 429 13 481 14 459 15 494 16 488 17 448 18 481 22 366 23 409 24 507 25 793 27 610 28 498 29 394 30 726 31 661
240 1.124408 0.021757 -0.400646 98 98 92 0.387866 1 530 5 642
241 0.999992 0.016598 -0.394586 70 75 82 3.983904 1 532 2 555 3 486 4 700 7 498 9 458 11 560 12 401 13 482 14 461 15 496 16 493 17 450 18 488 19 500 21 527 23 403 24 509 25 812 26 579 27 617 28 499 29 397 30 729 31 654
242 0.868921 0.011754 -0.396520 186 192 194 5.794648 1 533 2 578 3 518 4 748 5 703 6 534 7 484 8 427 9 409 12 371 13 489 14 500 15 537 16 514 17 438 18 447 19 478 21 473 22 423 23 510 24 496 25 509 26 455 27 500 29 430 30 795 31 844
243 0.970136 0.014294 -0.395816 33 39 37 4.717212 1 535 2 568 3 499 4 721 5 679 6 533 7 503 8 461 9 457 10 431 12 403 13 492 14 472 15 508 16 507 17 451 18 485 19 505 21 524 22 380 23 427 24 512 26 558 27 599 28 509 29 404 30 742 31 704
244 0.880715 0.011095 -0.396815 185 191 191 6.202325 1 537 2 583 3 520 4 752 5 708 6 547 7 495 8 444 10 424 11 570 12 384 13 495 14 502 15 540 16 521 17 445 18 453 19 496 20 474 21 493 22 418 23 507 24 504 25 560 26 478 28 531 29 432 30 797 31 833
245 1.076188 0.015300 -0.376241 172 175 176 1.024192 1 538 6 526
246 1.112320 0.020146 -0.417567 110 113 114 4.047391 1 539 2 549 6 527 8 480 9 486 30 703
247 0.934179 0.012258 -0.396071 183 194 194 4.139964 1 540 2 575 3 512 4 738 5 691 6 540 7 504 8 457 9 447 10 432 11 580 13 499 16 515 17 452 18 477 19 501 22 397 26 531 27 568 28 524 29 420 30 768 31 753
248 0.933734 0.012252 -0.398484 183 194 194 5.097984 1 541 2 577 6 541 8 458 10 433 16 517 19 503 23 459 25 683 26 533 27 570 28 526 29 422 31 754
249 1.094379 0.017399 -0.401396 106 109 112 0.357311 1 542 5 663
250 1.101249 0.014734 -0.404148 104 110 112 3.176645 1 547 2 559 7 520 8 489 23 375
251 1.110115 0.016418 -0.412277 104 110 112 2.278983 1 548 2 560 7 521 8 490
252 0.869253 0.007818 -0.396644 43 28 29 5.958419 1 551 2 597 3 541 4 772 5 730 6 560 7 508 8 462 9 435 10 434 11 590 12 394 13 507 14 517 15 565 16 546 17 457 18 469 19 506 21 497 22 445 23 525 24 513 25 543 26 479 27 519 28 552 29 449 30 814 31 876
253 0.869253 0.007818 -0.396644 43 28 29 6.012182 1 552 2 598 3 542 4 773 5 731 6 561 7 509 8 463 10 435 11 591 12 395 14 518 15 566 16 547 17 458 18 470 19 507 21 498 22 446 23 526 24 514 25 544 26 480 27 520 28 553 29 450 30 815 31 877
254 0.876001 0.007634 -0.395398 46 45 54 6.011768 1 553 2 599 3 539 7 511 10 436 11 592 12 397 13 508 15 563 17 461 19 512 20 490 21 506 24 521 25 561 26 484 27 526 28 548 28 550 29 447 31 861
255 0.876063 0.007672 -0.395986 46 45 54 5.817801 1 554 2 600 3 540 4 769 5 729 7 512 8 467 9 441 10 437 11 593 12 398 13 509 15 564 17 462 17 463 18 473 19 513 21 507 24 522 25 562 25 563 26 485 27 527 28 551 29 448 30 813 31 862
256 0.940841 0.008637 -0.395374 48 42 44 4.840822 1 556 2 589 3 524 4 747 5 709 6 559 7 525 8 479 9 465 10 455 11 608 12 417 13 518 14 507 15 543 16 541 17 475 18 493 19 529 21 526 22 410 25 727 27 593 28 537 29 436 30 787
257 1.115826 0.012762 -0.406255 100 103 106 2.277829 1 557 4 701 6 545 9 499
258 0.936653 0.007988 -0.396085 182 193 191 5.144649 1 560 2 593 3 531 4 757 5 714 6 562 7 528 8 481 9 467 10 456 11 611 12 418 13 522 14 512 15 549 16 542 17 476 18 495 19 534 21 528 22 415 23 483 24 533 25 719 26 552 27 591 29 446 30 799 31 772
259 0.944497 0.008329 -0.396891 183 194 192 6.315212 1 561 3 528 4 753 5 711 6 563 7 531 8 484 9 468 10 457 11 617 12 419 14 510 16 543 17 479 18 500 19 536 20 548 21 533 22 413 23 472 24 534 25 740 26 560 27 601 28 541 29 442 30 791 31 759
260 0.944611 0.007948 -0.395614 183 194 192 5.069113 1 562 3 529 4 754 5 712 6 564 7 532 8 485 9 469 10 458 11 618 12 420 13 523 14 511 15 547 16 544 17 480 18 501 19 537 21 534 22 414 23 473 24 535 26 561 27 602 28 542 29 443 30 792 31 760
261 0.839868 0.003975 -0.396817 194 197 200 5.239816 1 565 3 558 4 793 5 750 12 406 14 542 15 588 16 563 17 472 18 471 24 530 25 471 25 474 26 460 27 505 28 566 29 466 30 834
262 1.102052 0.010030 -0.398188 158 164 164 0.588474 1 566 4 724 5 682
263 0.994159 0.006592 -0.392968 55 66 66 4.537415 1 568 2 596 3 527 4 746 5 706 6 568 7 544 8 499 9 489 10 472 11 636 12 442 13 532 15 545 17 490 18 519 19 554 21 555 22 402 23 442 24 553 25 853 28 543 29 441 30 785
264 0.998575 0.007894 -0.397846 55 66 66 3.863199 1 569 3 525 4 744 5 704 9 491 10 474 11 637 13 533 18 520 19 555 22 400 24 554 29 439 30 783
265 0.947693 0.004957 -0.395009 44 44 40 4.855770 1 571 2 616 3 546 4 767 7 547 8 498 9 483 10 470 11 642 12 436 13 539 14 526 15 562 16 557 17 489 18 515 19 548 21 542 22 422 23 486 24 551 25 765 26 580 27 620 29 454 30 806 31 775
266 1.102256 0.003270 -0.400825 160 168 167 0.575546 6 582 7 565 8 519 9 524
267 1.102166 0.003333 -0.403824 113 113 109 0.440248 6 580 7 566 8 520
268 0.951660 0.001299 -0.395273 189 197 194 4.827403 1 585 2 629 3 555 4 781 5 741 6 604 7 559 8 514 9 495 10 489 12 454 13 551 14 537 15 578 16 578 17 510 18 528 19 579 21 557 22 439 23 505 24 575 25 791 28 565 29 463
269 1.111860 0.002589 -0.401634 106 109 112 0.526976 6 585 7 569
270 0.840844 -0.000882 -0.398248 129 129 131 6.869355 1 594 2 661 3 584 4 812 10 478 12 430 13 563 14 569 16 596 18 498 19 552 24 565 25 507 26 494 27 531 28 590 30 857 31 950
271 0.997178 0.002682 -0.412540 52 60 61 1.205193 1 596 9 508
272 0.838942 -0.001727 -0.395789 192 195 198 4.670508 1 597 2 663 14 570 15 617 17 499 24 563 26 490
273 0.838764 -0.001694 -0.395364 192 195 198 5.025395 1 598 2 664 3 586 14 571 15 618 16 597 17 500 19 546 24 564 25 500 26 491 27 529 28 592 30 865
274 1.081898 -0.000111 -0.384853 166 174 175 0.685965 6 593 7 571 8 521
275 1.078551 -0.000495 -0.373756 152 163 161 1.038579 1 602 6 594
276 1.102350 0.000099 -0.403763 103 105 111 0.613518 6 597 7 572 8 540 9 533
277 1.102350 0.000099 -0.403763 103 105 111 0.613518 6 598 7 573 8 541 9 534
278 1.112553 -0.000008 -0.408519 101 107 107 2.454493 1 605 2 627 6 610 8 542
279 1.092538 0.000237 -0.385693 101 107 107 3.520337 1 606 2 628 6 611 8 543 30 794 31 638
280 1.112720 -0.001359 -0.410709 138 141 140 2.159585 2 636 7 588
281 0.983884 -0.003406 -0.394357 191 197 195 4.147148 1 614 2 656 3 572 4 790 5 753 6 623 7 583 9 523 10 521 11 708 12 485 13 580 14 559 15 592 16 595 22 448 23 501 24 601 25 893 26 645 27 684 28 585 29 481 30 833 31 777
282 0.958204 -0.003710 -0.395690 190 198 195 4.765314 1 617 2 657 3 576 4 800 5 759 6 624 7 581 8 536 9 517 10 517 11 702 12 476 13 583 14 561 15 602 16 598 17 536 18 555 19 612 21 572 22 459 23 509 24 599 25 835 27 660 28 586 30 841 31 816
283 0.957854 -0.003843 -0.394836 190 198 195 4.756042 1 618 2 658 3 577 4 801 5 760 6 625 7 582 8 537 10 518 11 703 15 601 16 599 17 537 18 556 19 613 23 508 24 600 25 836 27 661 29 482 30 842 31 815
284 0.919560 -0.004001 -0.398087 185 191 191 7.295880 1 623 2 669 4 808 5 765 6 632 8 530 9 512 10 506 11 698 12 473 13 588 14 568 17 532 18 547 19 606 20 563 21 563 22 473 23 546 25 746 27 627 28 594 29 489 30 852 31 875
285 1.096156 -0.004798 -0.401227 157 165 166 0.501868 6 617 7 591 8 549 9 547
286 0.842989 -0.006369 -0.398527 147 146 150 1.121849 1 631 2 683 10 502 12 457 28 613
287 1.115412 -0.002990 -0.414193 152 163 163 2.114845 1 632 9 557
288 1.110563 -0.004042 -0.409483 152 163 163 2.222734 1 633 2 648 6 618 7 592 8 553 9 558
289 1.114119 -0.003121 -0.416016 109 112 111 1.940096 1 634 9 559
290 1.114119 -0.003121 -0.416016 109 112 111 1.940096 1 635 9 560
291 1.099546 -0.005796 -0.400015 106 109 108 0.419329 6 619 7 593
292 1.126158 -0.003357 -0.414830 105 105 105 2.445097 1 637 7 594 9 561
293 1.126158 -0.003357 -0.414830 105 105 105 2.445097 1 638 7 595 9 562
294 0.840070 -0.008678 -0.394967 183 189 191 5.631535 1 639 4 844 5 799 10 507 12 471 13 603 15 660 16 636 17 542 18 534 19 602 24 606 26 529 27 564 28 618 29 509 30 888 31 979
295 0.961801 -0.007407 -0.395423 42 48 50 4.572895 1 641 4 810 5 767 7 596 8 548 9 532 10 529 11 733 12 498 13 599 14 573 15 610 16 616 17 545 18 570 19 627 21 585 22 467 23 522 24 608 25 858 26 644 28 598 29 493 30 855 31 831
296 0.979502 -0.008888 -0.395939 41 49 48 4.639703 1 642 2 673 3 589 5 768 6 649 7 598 8 554 14 577 15 611 16 618 18 579 22 465 23 516 24 615 25 908 26 659 27 702 28 601 29 496 30 853 31 811
297 0.980451 -0.008580 -0.396856 41 49 48 4.418145 1 643 2 674 5 769 6 650 7 599 8 555 9 538 10 533 12 505 14 578 16 619 18 580 22 466 23 517 24 616 25 909 27 703 28 602 30 854 31 812
298 1.083816 -0.009258 -0.376601 118 118 120 1.062515 1 645 6 635
299 0.914343 -0.009697 -0.396227 29 35 35 5.795405 1 649 2 688 3 603 4 823 5 782 6 662 7 601 8 551 9 527 10 531 11 743 12 495 13 605 14 591 15 637 16 628 17 551 18 567 19 628 21 573 22 492 23 561 24 613 25 768 26 608 27 640 28 610 29 505 30 869 31 893
300 0.898644 -0.009898 -0.395855 30 33 34 5.819537 1 650 2 692 3 607 4 832 5 786 6 670 7 600 8 550 9 525 10 528 11 740 12 492 13 608 14 599 15 644 16 633 17 549 18 566 19 626 21 571 23 573 24 612 25 731 26 596 28 616 29 507 30 879 31 920
301 0.963274 -0.010646 -0.392029 184 197 196 4.748278 1 654 2 680 3 596 4 817 6 659 7 607 8 564 9 540 11 750 12 511 15 629 17 557 18 582 21 597 26 657 28 605 29 501 30 866
302 0.972562 -0.010639 -0.394607 188 196 193 4.648140 1 656 2 678 3 595 4 816 5 776 6 661 7 612 8 571 9 543 10 543 11 753 12 513 13 609 14 582 15 626 16 626 17 559 18 588 19 638 22 474 23 524 24 621 25 906 29 500 30 864 31 832
303 1.103223 -0.011528 -0.401854 146 154 155 0.467498 6 645 7 621 8 578 9 585
304 1.116377 -0.009143 -0.415274 154 160 158 2.419507 1 658 7 622 8 579 9 586
305 1.107048 -0.009602 -0.415626 117 120 119 2.158421 1 662 8 581 9 584
306 1.108017 -0.011257 -0.409039 116 117 113 2.354891 1 665 2 671 7 623 9 591
307 0.907699 -0.012207 -0.395174 183 189 191 5.531499 1 667 2 697 3 616 4 840 5 798 6 677 7 616 8 566 9 537 10 538 11 754 12 506 13 614 15 656 16 640 17 561 18 576 19 635 21 581 22 501 24 622 25 766 26 615 27 649 28 622 29 515 30 886
308 0.966833 -0.012842 -0.394414 192 198 196 4.659246 1 670 2 695 3 605 4 822 5 784 6 675 7 624 8 575 10 552 11 768 12 525 13 617 14 600 15 639 16 637 17 569 19 643 21 602 22 477 23 538 24 630 25 907 26 670 27 711 28 617 29 508 30 868 31 855
309 0.972940 -0.014599 -0.394870 48 44 49 4.384377 1 671 3 609 5 787 6 678 7 627 8 587 9 566 10 563 11 784 13 619 15 645 16 641 17 573 18 600 19 657 22 482 23 547 25 931 26 679 27 716 28 620 29 511 30 874 31 856
310 0.972573 -0.014621 -0.393333 48 44 49 4.399473 1 672 2 698 3 610 5 788 6 679 7 628 8 588 9 567 10 564 11 785 13 620 15 646 16 642 17 574 22 483 23 548 25 932 26 680 28 621 29 512 30 875 31 857
311 1.102927 -0.014156 -0.413183 171 176 181 1.829892 1 673 7 637 8 600 9 601
312 0.976547 -0.014840 -0.393851 188 196 195 4.699625 1 675 2 699 3 611 4 828 5 789 6 682 7 629 9 571 10 566 11 789 12 528 13 623 14 601 15 647 17 578 19 658 21 609 22 478 23 540 24 637 25 948 27 721 28 623 29 513 31 853
313 0.976534 -0.014857 -0.393789 188 196 195 4.519481 1 676 2 700 3 612 4 829 5 790 6 683 7 630 8 589 9 572 10 567 11 790 12 529 13 624 14 602 15 648 16 644 17 579 18 602 19 659 21 610 22 479 23 541 24 638 25 949 27 722 28 624 29 514 31 854
314 0.900298 -0.015531 -0.395314 176 187 187 5.664158 1 677 2 713 3 631 4 853 5 813 7 631 8 582 9 545 10 553 11 778 12 516 13 628 14 619 15 671 16 655 17 572 18 589 19 644 21 588 22 519 23 589 24 631 25 767 26 626 27 659 29 525 30 894 30 895 31 945
315 0.967435 -0.015312 -0.395581 188 196 193 3.656524 1 678 2 706 3 617 4 837 5 796 6 686 7 638 8 594 9 569 12 530 22 490 28 626 29 517 30 880 31 878
316 0.969428 -0.015812 -0.394743 189 197 196 4.570471 1 679 2 708 3 619 4 835 5 794 6 688 8 597 9 575 11 792 13 626 14 609 15 652 16 650 17 580 18 605 19 661 21 612 22 488 23 553 25 933 26 681 27 719 31 867
317 0.969428 -0.015812 -0.394743 189 197 196 4.738709 1 680 2 709 3 620 4 836 5 795 6 689 8 598 9 576 11 793 12 537 13 627 14 610 15 653 16 651 17 581 18 606 19 662 21 613 22 489 23 554 24 641 25 934 26 682 27 720 28 629 29 519 30 882 31 868
318 0.904467 -0.015790 -0.395015 50 44 50 5.495090 1 681 2 715 3 632 4 850 5 810 6 695 7 633 8 583 9 548 10 556 11 780 12 522 13 630 15 667 16 656 17 577 18 590 19 646 21 591 22 514 24 633 25 776 26 633 28 636 29 527 31 939
319 0.904371 -0.015806 -0.395009 50 44 50 5.422044 1 682 6 696 7 634 8 584 9 549 10 557 11 781 12 523 15 668 16 657 18 591 19 647 22 515 25 777 26 634 28 637 29 528 31 940
320 0.904381 -0.015795 -0.395067 50 44 50 5.748111 1 683 2 716 3 633 4 851 5 811 6 697 7 635 8 585 9 550 9 551 10 558 11 782 12 524 13 631 15 669 16 658 18 592 19 648 19 649 21 592 22 516 22 517 24 634 25 778 26 635 28 638 29 529 31 941
321 0.904369 -0.015819 -0.394977 50 44 50 5.651512 1 684 2 717 3 634 4 852 5 812 6 698 7 636 8 586 9 552 10 559 11 783 12 521 13 632 15 670 16 659 17 576 18 593 19 645 19 650 21 593 22 518 24 635 25 779 28 639 29 530 31 942
322 0.971011 -0.017631 -0.392227 42 48 48 4.445738 1 688 2 711 3 627 4 841 5 801 6 693 7 642 8 603 9 588 10 573 11 806 12 542 13 636 14 616 15 662 16 653 17 593 18 611 19 670 21 619 23 557 24 654 25 954 26 688 27 730 28 633
323 0.961207 -0.018408 -0.395445 39 47 48 5.901429 1 691 2 719 3 630 4 845 5 804 6 701 7 646 9 593 10 574 14 620 16 662 17 594 18 614 19 674 22 499 23 560 25 927 26 686 27 726 28 641 29 531 30 889 31 888
324 0.975978 -0.019133 -0.394985 55 58 61 4.533507 1 692 1 694 2 721 4 847 5 805 6 702 7 649 11 822 11 824 12 546 13 640 16 663 17 596 18 618 19 679 22 495 24 657 25 965 26 689 26 691 29 532
325 1.085680 -0.020087 -0.394171 121 124 123 1.011145 1 698 2 710 12 572
326 1.095345 -0.022772 -0.400980 153 161 162 0.722472 6 694 7 658 9 628
327 0.909308 -0.020431 -0.393424 186 199 196 5.164266 1 700 2 741 3 643 4 861 6 711 7 654 8 606 9 579 10 575 11 820 13 645 14 630 15 680 16 677 18 608 19 671 22 532 24 659 25 809 27 696 28 658 29 544 30 908
328 0.909589 -0.020503 -0.394434 186 199 196 4.843085 1 701 2 742 3 644 4 862 6 712 7 655 8 607 9 580 10 576 11 821 13 646 14 631 15 681 16 678 17 598 18 609 19 672 22 533 24 660 25 810 26 653 27 697 28 659 29 545 30 909
329 1.103984 -0.021491 -0.414524 166 169 168 2.401704 1 702 7 662 8 627 9 631
330 1.094612 -0.024196 -0.402286 83 83 85 0.524401 6 700 7 664 8 634 9 635
331 0.903109 -0.021469 -0.394361 183 189 189 5.350024 1 706 2 744 4 871 5 828 5 830 6 714 7 657 7 660 8 610 8 611 9 589 10 580 11 830 12 544 13 648 14 635 15 686 16 681 17 602 18 612 19 676 21 607 22 535 23 602 26 651 27 693 28 660 30 914
332 0.841055 -0.021013 -0.397355 143 142 144 6.038570 1 708 2 762 3 666 13 662 14 653 16 703 19 664 28 676
333 0.975354 -0.022405 -0.394789 189 195 193 3.784860 1 710 2 735 7 666 8 624 9 615 10 595 11 845 12 570 13 649 17 610 19 698 28 648
334 0.977783 -0.020538 -0.404044 189 195 193 6.152217 1 711 2 736 7 667 8 625 9 616 10 596 11 846 12 571 13 650 17 611 19 699 28 649 30 900 31 890
335 0.967710 -0.022736 -0.392106 47 47 49 4.387693 1 712 2 737 4 856 6 707 7 670 8 622 9 613 10 591 11 843 12 567 13 658 14 627 15 673 16 674 17 612 18 633 19 695 21 627 22 506 23 567 24 671 25 969 27 743 29 539
336 0.967710 -0.022736 -0.392106 47 47 49 4.454831 1 713 2 738 4 857 5 817 6 708 7 671 8 623 9 614 10 592 11 844 12 568 13 659 14 628 15 674 16 675 17 613 18 634 19 696 21 628 22 507 23 568 24 672 25 970 27 744 29 540
337 0.907690 -0.022700 -0.393306 38 37 41 5.475317 1 716 2 748 3 653 4 875 5 836 6 721 7 673 8 615 9 598 10 582 11 840 12 549 13 669 14 641 15 691 16 689 17 607 18 620 19 682 21 617 22 537 23 605 24 669 25 820 26 664 27 705 28 665 29 550 30 922 31 965
338 0.912130 -0.024395 -0.392521 26 32 30 5.555992 1 720 2 757 3 658 4 877 5 839 6 730 7 676 8 630 9 605 10 597 11 853 12 559 13 673 14 646 15 696 17 615 18 627 19 689 21 622 22 544 23 606 24 675 25 844 26 675 27 714 29 554 31 966
339 1.101527 -0.026822 -0.411756 158 164 164 1.987862 1 723 7 682 8 644 9 649
340 0.979257 -0.026070 -0.391863 50 58 59 4.532913 1 724 2 750 4 860 5 826 6 717 7 679 8 638 9 626 10 608 12 578 13 678 15 682 16 691 17 623 18 652 21 638 22 520 24 677 25 993 26 718 27 761 28 663 29 548 30 910 31 892
341 0.969512 -0.026047 -0.395976 39 49 52 5.557257 1 725 2 752 3 651 4 866 5 827 6 723 7 683 8 636 9 624 10 606 14 639 15 685 17 624 19 709 22 524 23 579 26 709 27 754 28 666 29 552 30 913 31 914
342 0.982456 -0.029697 -0.391032 187 198 194 4.618955 1 740 2 765 3 664 4 876 5 838 6 735 8 652 10 626 11 902 12 595 13 692 14 651 15 695 16 709 17 641 19 731 21 651 22 531 23 585 24 698 25 1018 26 725 27 770 28 680 29 562 30 924 31 913
343 1.107679 -0.031560 -0.412166 148 156 155 2.441081 1 744 7 698 8 668 9 666
344 0.992952 -0.038261 -0.391557 50 58 59 3.995985 1 778 2 795 3 690 4 899 5 862 6 762 8 691 10 653 11 950 12 615 13 735 14 681 15 718 16 745 17 671 18 686 19 766 22 556 23 598 24 728 25 1054 26 763 27 801 28 703 29 589 30 944 31 937
345 1.100182 -0.042142 -0.406930 93 94 90 1.930298 1 781 7 728 9 692
346 0.888947 -0.037595 -0.394102 181 184 185 8.017056 1 783 2 808 3 709 5 895 6 777 9 652 15 753 21 648 22 607 23 656 25 851 26 694 27 735 30 971 31 1041
347 0.887022 -0.036001 -0.391921 181 184 185 5.815193 1 784 2 809 3 710 4 942 5 896 6 778 7 732 9 653 10 639 11 932 12 600 14 705 15 754 16 763 18 675 19 744 22 608 23 657 24 727 25 850 26 693 27 734 28 720 30 972 31 1042
348 1.086675 -0.042357 -0.395372 100 100 102 0.672976 1 787 12 629
349 0.995805 -0.041596 -0.390593 185 196 194 3.986283 1 792 2 803 3 701 4 911 5 875 6 771 7 744 8 701 9 688 10 663 11 964 12 623 13 740 14 697 15 730 16 759 17 676 18 693 19 775 22 564 23 603 24 732 25 1066 26 773 27 815 28 714 30 955 31 955
350 1.106577 -0.046377 -0.410832 133 139 137 2.377581 1 795 8 710 9 713
351 1.090705 -0.046971 -0.397155 132 140 137 2.861439 1 800 7 748 8 715 9 718 12 650
352 0.881629 -0.041149 -0.391920 27 30 31 6.174328 1 802 2 822 5 919 6 797 6 800 9 675 10 657 11 958 12 617 14 721 15 772 16 783 17 680 19 769 21 673 22 623 23 681 24 738 26 708 27 753 28 735 29 613 30 990 31 1066
353 0.938262 -0.043401 -0.396887 43 46 45 4.969803 1 803 2 817 3 722 5 903 6 786 7 752 8 707 9 689 10 664 12 624 13 747 13 749 14 712 16 771 16 773 18 694 19 776 22 591 22 593 23 639 24 739 25 1004 26 749 27 792 28 731 29 607 30 977 31 1018
354 0.938262 -0.043401 -0.396887 43 46 45 5.016376 1 804 2 818 3 723 4 948 5 904 6 787 7 753 8 708 9 690 10 665 12 625 13 748 13 750 14 713 16 772 16 774 18 695 19 777 22 592 22 594 23 640 24 740 25 1003 26 750 27 791 28 732 29 608 30 978 31 1019
355 0.995995 -0.045251 -0.390889 187 195 194 3.380252 1 805 2 815 3 716 4 930 5 888 6 783 7 754 8 714 9 704 10 668 12 635 13 751 15 741 17 683 18 706 19 782 24 744 26 781 27 826
356 0.999331 -0.044971 -0.388821 63 71 72 4.243474 1 807 3 713 3 715 4 926 4 928 5 884 5 887 6 780 7 750 8 712 9 705 10 669 11 974 13 746 14 708 15 740 16 767 17 682 18 704 19 781 22 568 23 608 24 743 25 1078 26 783 27 829 28 724 28 730 29 604 30 964 31 958
357 0.866782 -0.041405 -0.392983 29 32 33 5.746181 1 810 2 834 3 734 4 969 5 933 6 807 7 760 8 709 10 658 11 959 12 618 13 757 14 728 15 778 16 790 18 687 19 770 22 637 23 697 24 741 25 841 26 702 27 748 28 743 30 1000 31 1083
358 0.942332 -0.044571 -0.393947 178 184 182 5.233142 1 812 2 821 3 724 4 953 5 908 6 790 7 757 8 719 9 694 10 667 12 627 13 756 14 717 15 763 16 776 17 684 18 697 19 779 21 687 22 599 23 641 24 747 25 1017 27 796 29 610 30 980 31 1017
359 1.105810 -0.051628 -0.406999 88 88 92 1.227405 7 762 8 726 9 745
360 1.012009 -0.048237 -0.393547 188 199 197 2.608567 1 815 2 820 5 901 6 789 12 652 13 759
361 1.104493 -0.053070 -0.407389 120 124 119 2.505860 1 816 7 766 9 746
362 0.932430 -0.046565 -0.391837 176 182 180 4.965088 1 818 2 838 3 733 4 963 6 806 7 770 8 725 9 707 10 675 11 981 12 636 14 726 15 771 16 789 17 688 18 707 22 614 23 651 24 748 26 759 27 797 28 746 29 625 30 994 31 1035
363 0.944550 -0.046972 -0.391465 176 182 182 5.089226 1 819 2 833 2 837 3 732 4 959 5 915 6 804 7 768 10 677 11 983 12 642 13 762 14 724 15 766 16 787 17 690 18 709 19 791 21 702 22 611 23 646 24 752 25 1028 27 803 28 745 29 621 30 988 31 1023
364 0.999978 -0.049189 -0.390165 189 197 194 4.271269 1 820 3 725 4 947 6 791 7 769 8 730 9 724 10 687 11 989 12 657 13 760 14 715 15 760 16 778 17 694 18 723 19 801 21 721 22 581 24 755 25 1090 28 734 29 614 30 979 31 971
365 0.937927 -0.046993 -0.391857 174 182 179 5.164108 1 821 2 835 3 730 4 960 5 918 6 805 7 773 8 729 9 712 10 678 11 984 12 639 13 763 14 725 15 769 16 788 17 692 18 710 19 789 22 613 24 750 25 1019 26 761 27 802 28 747 29 623 30 993 31 1028
366 1.001203 -0.048318 -0.400731 63 66 69 6.122773 1 822 2 824 3 726 4 949 5 905 6 792 7 774 8 733 9 725 10 688 11 992 13 764 16 779 17 695 18 729 19 802 24 756 25 1087 26 796 28 737 29 615 30 981 31 976
367 1.001203 -0.048318 -0.400731 63 66 69 5.997950 1 823 2 825 4 950 5 906 6 793 7 775 8 734 10 689 11 993 12 659 13 765 16 780 17 696 18 730 19 803 24 757 25 1088 26 797 28 738 29 616 30 982 31 977
368 1.001203 -0.048318 -0.400731 63 66 69 6.033441 1 824 2 826 3 727 4 951 5 907 6 794 7 776 8 735 9 726 10 690 11 994 12 660 13 766 16 781 17 697 18 731 19 804 24 758 25 1089 26 798 28 739 29 617 30 983 31 978
369 0.993157 -0.049444 -0.391065 51 56 61 3.933711 1 825 2 827 3 728 5 910 6 795 7 777 8 732 9 727 10 691 11 995 12 658 13 767 15 761 16 784 17 698 18 732 19 805 22 583 23 621 24 759 25 1086 26 792 28 740 30 984 31 980
370 1.049014 -0.053827 -0.393218 197 200 199 0.889657 2 830 4 946 7 782
371 1.007992 -0.051144 -0.395368 192 198 198 3.683823 1 828 2 829 3 729 4 952 5 911 6 801 7 780 8 742 10 704 12 675 13 768 14 719 15 762 16 785 17 701 18 741 22 582 24 760 25 1105 26 810 27 843 29 619 30 985
372 1.092782 -0.054571 -0.399472 110 121 119 3.072108 1 830 7 781 8 755 9 768 12 691
373 0.944164 -0.049339 -0.394259 40 36 41 5.450354 1 831 2 842 3 742 5 931 6 816 7 784 8 745 9 720 10 692 11 991 12 653 14 734 16 793 17 704 18 720 19 797 21 709 22 616 24 762 25 1032 26 771 27 812 28 749 29 627 30 1001 31 1032
374 0.944550 -0.049936 -0.394215 40 36 41 4.877503 1 832 2 843 5 932 6 817 7 785 8 746 9 721 10 693 12 654 14 735 16 794 17 705 18 721 19 798 22 617 24 763 25 1033 26 772 27 813 28 750 29 628 31 1033
375 0.880415 -0.046709 -0.391995 175 183 184 5.638340 1 834 2 856 3 752 4 982 5 947 7 786 8 737 9 702 10 671 11 978 12 633 13 770 14 749 15 790 16 809 17 699 18 701 19 784 22 648 23 702 25 913 27 766 28 756 29 642 30 1016 31 1091
376 0.908575 -0.048897 -0.399545 21 27 25 5.343919 1 837 3 750 4 978 5 946 6 828 10 682 12 645 13 773 14 746 15 787 16 806 18 716 22 633 24 767 25 981 26 755 27 793 28 753 30 1014 31 1071
377 0.868130 -0.046823 -0.389640 175 181 181 5.923615 1 838 2 861 3 755 4 992 5 953 6 835 7 794 8 741 9 701 10 672 11 980 12 632 13 776 14 750 15 800 16 813 17 703 18 700 19 783 22 657 23 711 24 765 25 885 26 721 27 764 28 760 29 647 30 1021 31 1107
378 0.935461 -0.049830 -0.390863 54 50 55 5.251423 1 839 2 849 3 744 4 970 5 936 6 819 7 789 8 748 9 728 10 696 11 998 12 661 13 771 14 738 15 779 16 800 17 706 18 725 21 711 22 620 23 664 24 768 25 1025 27 806 29 636 30 1006
379 0.935502 -0.049862 -0.390875 54 50 55 4.964951 1 840 1 841 2 850 4 971 5 937 6 821 8 749 9 729 10 697 11 999 12 662 14 739 15 780 16 801 17 707 18 726 19 806 25 1026 27 807 29 637 30 1007
380 0.935461 -0.049830 -0.390863 54 50 55 5.204114 1 842 2 851 3 745 4 972 5 938 6 822 7 790 8 750 9 730 10 698 11 1000 12 663 13 772 14 740 15 781 16 802 17 708 18 727 19 807 21 712 22 621 23 665 24 769 25 1027 27 808 29 638 30 1008
381 0.936131 -0.049538 -0.393206 54 50 55 6.157717 1 843 2 852 3 746 4 973 5 939 6 823 7 791 8 751 9 731 10 699 11 1001 12 664 14 741 17 709 19 808 21 714 22 622 23 666 27 809 29 639
382 0.999628 -0.052738 -0.390073 65 60 68 4.102743 1 844 2 839 3 735 4 956 5 917 6 811 7 792 8 758 9 747 10 708 11 1013 12 678 13 774 14 727 15 764 16 792 17 713 18 745 19 819 22 590 23 624 24 772 25 1106 26 812 27 846 28 748 29 626 30 989 31 989
383 0.995282 -0.053336 -0.389924 188 196 197 4.199622 1 846 2 844 3 737 4 961 5 922 6 814 7 798 8 762 9 753 11 1019 12 680 13 778 14 729 15 770 16 795 17 716 18 748 19 821 22 602 23 630 24 776 25 1101 26 813 27 847 29 631 30 997
384 0.996829 -0.053247 -0.393815 188 196 197 4.618723 1 847 2 845 3 739 4 962 5 925 6 815 7 799 8 764 9 755 10 716 11 1022 12 682 13 781 14 731 16 797 17 717 18 753 19 824 21 733 22 603 25 1103 26 816 29 633 30 998
385 1.014067 -0.055593 -0.397354 192 200 199 3.419072 1 848 2 841 4 958 6 813 7 797 8 766 9 757 17 719 22 588 27 857 29 630 31 984
386 0.881446 -0.050634 -0.398971 44 40 43 5.770028 1 853 2 873 3 761 4 997 6 840 7 809 8 772 9 723 10 695 11 997 12 656 13 788 13 792 14 759 16 821 17 721 18 719 19 800 22 658 22 660 23 713 24 780 25 930 26 734 27 780 28 769 29 657 30 1028 31 1105
387 1.010366 -0.056498 -0.389621 64 71 75 3.750917 1 855 2 858 3 747 5 929 6 825 7 806 8 779 9 770 10 727 12 696 13 785 14 736 15 775 16 807 17 731 18 766 22 609 26 835 27 865 29 645 30 1002 31 994
388 0.999453 -0.056195 -0.389257 47 53 55 4.434234 1 859 2 860 3 751 4 967 5 934 6 830 7 812 8 781 10 726 11 1036 12 694 13 793 14 742 15 777 16 811 17 735 18 765 19 841 21 741 23 634 24 790 25 1123 26 829 27 862 28 759 29 648 30 1005
389 0.938406 -0.053404 -0.390526 174 182 179 5.187516 1 861 2 863 3 756 4 980 5 948 6 837 7 813 8 776 9 750 10 717 11 1023 12 679 13 794 14 751 15 789 16 815 17 728 18 746 19 820 21 726 22 631 23 673 24 786 25 1044 26 779 27 824 28 765 29 652 30 1018
390 0.935955 -0.054013 -0.390876 171 177 175 4.644274 1 862 2 868 4 985 7 816 8 782 9 758 10 720 11 1026 14 753 15 795 16 818 17 732 18 754 19 827 22 636 28 766 30 1022 31 1057
391 0.992249 -0.056763 -0.389861 56 62 62 4.231492 1 864 2 862 3 754 5 941 6 832 9 771 10 729 11 1039 12 697 13 795 14 748 15 784 16 812 17 737 18 767 19 842 22 615 23 643 24 793 25 1113 26 828 27 859 28 762 29 649 30 1012 31 1014
392 0.993547 -0.056669 -0.393481 56 62 62 4.902659 1 865 5 940 6 833 11 1040 14 747 19 843 23 642 25 1114 27 860 28 761 30 1011 31 1013
393 0.945678 -0.054953 -0.392417 30 36 36 5.059862 1 869 2 870 3 758 4 988 5 952 9 763 10 723 11 1032 12 690 13 798 14 756 15 797 16 819 17 736 19 835 21 737 23 674 24 794 26 789 27 834 29 655 31 1052
394 0.876971 -0.051509 -0.389784 175 181 181 6.034705 1 870 2 881 4 1006 5 965 6 846 7 820 8 777 9 743 10 707 11 1010 12 674 13 800 14 766 15 811 17 730 18 736 19 815 22 665 23 727 24 792 25 940 26 740 28 775 29 660 30 1030 31 1112
395 0.871843 -0.051680 -0.392927 172 178 178 5.744429 1 871 2 882 3 770 3 771 4 1012 5 970 6 848 7 821 8 778 9 742 10 705 11 1007 13 801 13 803 16 828 17 729 17 734 18 734 19 813 22 669 22 670 23 732 25 922 26 735 27 781 28 780 29 666 30 1037 31 1118
396 0.929630 -0.055756 -0.390564 30 33 34 5.095507 1 872 2 876 3 766 4 995 5 958 6 843 7 824 8 784 9 769 10 725 11 1035 12 693 13 804 14 763 15 806 16 825 17 739 18 763 19 836 21 734 22 645 23 694 24 796 25 1042 26 786 27 831 28 776 29 662 31 1075
397 0.871020 -0.054108 -0.391060 35 34 38 7.613496 1 876 2 890 3 778 4 1016 5 976 6 856 6 857 7 831 8 788 9 762 10 722 11 1028 12 683 13 806 17 740 18 747 19 826 21 718 23 744 24 798 25 944 26 756 27 795 28 785 28 788 29 673 30 1043 31 1125
398 0.875264 -0.056258 -0.392422 27 30 31 5.660213 1 888 2 903 7 843 9 773 10 731 11 1038 15 830 16 848 17 746 21 728 22 685 24 807 27 800 31 1130
399 0.875264 -0.056258 -0.392422 27 30 31 5.738660 1 889 2 904 3 784 5 987 6 867 7 844 8 798 9 772 10 730 11 1037 12 695 15 831 16 849 17 745 18 764 19 840 21 727 22 686 24 806 25 963 27 799 31 1131
400 0.982240 -0.065367 -0.389783 191 194 195 4.223625 1 902 2 898 3 782 4 1011 5 974 6 860 7 852 8 822 9 818 10 747 11 1062 12 718 13 834 14 779 15 818 16 842 17 764 18 791 19 866 22 650 23 677 24 821 25 1132 26 851 27 880 28 793 29 682
401 0.982123 -0.068956 -0.396626 50 49 58 5.221398 1 912 2 916 3 791 4 1018 5 984 6 870 7 860 8 833 9 835 10 758 11 1076 12 732 13 848 14 793 16 859 17 773 18 803 19 883 22 661 23 696 24 829 25 1138 26 863 27 888 28 809 29 694 30 1056 31 1072
402 0.979561 -0.067245 -0.389502 50 49 58 3.344274 1 913 3 792 4 1019 7 861 31 1073
403 0.967890 -0.069569 -0.390648 43 48 55 4.377971 1 917 2 920 4 1024 5 989 6 875 9 841 10 762 11 1079 12 735 14 797 15 835 16 867 17 776 18 806 19 886 22 667 23 701 24 834 26 859 27 887 28 812 29 695 30 1057 31 1081
404 0.961647 -0.069272 -0.394224 44 46 52 5.317670 1 918 2 921 3 799 4 1025 5 990 6 877 7 863 8 838 9 840 10 761 11 1078 12 734 13 852 14 799 15 837 16 868 17 778 18 805 19 885 21 780 22 674 23 705 24 837 25 1124 26 858 27 882 28 813 29 699 30 1062 31 1090
405 0.914242 -0.070705 -0.392775 30 33 32 5.893250 1 929 2 934 3 816 4 1053 5 1018 6 893 7 876 8 851 9 848 10 767 11 1085 12 742 13 867 14 824 15 862 16 890 17 789 18 812 19 892 21 784 22 706 25 1070 26 839 27 871 28 832 29 714 30 1084 31 1145
406 0.974841 -0.075715 -0.389161 52 46 52 4.805541 1 932 3 809 8 854 9 861 10 775 11 1093 12 753 13 868 14 815 15 854 16 885 17 794 18 822 21 801 24 853 25 1147 26 869 27 895 28 829 29 710 30 1074 31 1098
407 0.975331 -0.080447 -0.394023 189 195 193 6.348993 1 944 3 820 13 883 23 740 24 865 28 842
408 0.985586 -0.086026 -0.401015 40 46 48 1.800923 18 837 25 1162
409 0.960526 -0.083293 -0.370541 51 49 56 16.471838 1 952 2 948 3 834 4 1061 5 1030 6 911 7 894 8 872 9 887 10 789 11 1110 12 770 13 893 14 847 15 876 16 908 17 813 18 836 19 912 21 821 22 710 22 711 23 750 24 875 25 1157 25 1158 26 893 27 909 27 910 28 848 29 734 30 1102 31 1126
410 0.948630 -0.084153 -0.409357 21 28 22 1.480329 1 955 29 736
411 0.915963 -0.082751 -0.400190 177 183 183 5.661955 1 956 2 959 3 842 4 1077 5 1044 6 923 7 900 8 878 9 886 11 1106 13 899 17 818 18 835 19 910 24 878 25 1100 27 891 29 739
412 0.978829 -0.087649 -0.390626 57 57 61 4.951349 1 957 2 957 3 839 4 1070 5 1038 6 919 7 902 8 881 9 893 10 794 11 1115 12 775 13 901 14 853 15 884 16 913 17 821 18 844 19 916 22 718 24 880 25 1165 28 851 29 738 30 1108 31 1135
413 0.900553 -0.084174 -0.391293 171 179 178 5.826790 1 960 2 962 3 849 5 1046 6 927 7 908 8 884 9 897 10 793 11 1114 12 773 13 910 15 900 16 922 17 825 18 843 19 914 22 744 24 883 25 1104 26 873 27 897 28 858 29 745 30 1119 31 1171
414 2.091347 1.435959 -1.215063 107 100 90 4.390845 2 3 4 5 5 5 6 5 7 6 8 5 9 5 31 6
415 1.130936 0.335119 -0.417457 27 27 21 0.511478 2 13 3 7 10 0
416 1.107258 0.199284 -0.414444 56 55 55 0.043066 2 32 3 33
417 1.113670 0.195113 -0.424630 77 72 70 3.258251 2 40 3 44 5 84 6 47
418 1.072500 0.172499 -0.384625 111 112 108 0.479062 2 45 4 99 5 93
419 1.080417 0.178582 -0.407852 84 79 77 1.304832 2 59 15 45
420 1.104482 0.181881 -0.417665 122 123 119 3.168801 2 61 3 72 4 132 6 58
421 1.071051 0.167437 -0.381664 82 79 76 2.469671 2 64 3 77 4 136 5 127 29 21 30 35
422 1.079241 0.157510 -0.379706 94 93 95 1.019291 3 92 5 147 30 42
423 1.089467 0.157426 -0.391440 85 79 81 0.495966 2 81 4 159 5 150
424 1.057121 0.141329 -0.360217 114 109 105 1.653093 4 163 29 39
425 1.082461 0.149751 -0.384659 98 97 97 0.053055 2 89 4 165
426 1.103008 0.153427 -0.392282 133 133 129 0.067886 2 90 5 156
427 0.840216 0.114296 -0.396053 206 206 208 4.483627 2 102 3 125 5 178 11 29 13 49 14 43 15 68 19 60 28 43
428 1.123265 0.149346 -0.422937 125 125 129 1.258663 4 188 5 177 6 100
429 1.074514 0.133430 -0.374124 161 167 167 0.912406 4 187 5 175 30 99
430 1.130144 0.154266 -0.438064 104 103 107 2.345997 3 122 6 101
431 0.905170 0.112207 -0.394491 188 196 193 4.506404 2 118 3 138 4 214 5 195 6 92 7 57 8 51 9 50 10 34 12 56 13 64 14 60 15 82 16 63 17 43 18 74 22 58 23 93 24 74 25 134 26 56 27 93 28 59 29 68 30 156 31 194
432 1.014560 0.120658 -0.388294 77 80 83 0.507750 2 123 4 216
433 1.014560 0.120658 -0.388294 77 80 83 0.507750 2 124 4 217
434 1.103454 0.123491 -0.408512 112 115 114 1.601457 4 234 7 126
435 1.093178 0.117737 -0.393455 158 161 160 0.663671 2 158 4 241 5 228
436 0.978726 0.097806 -0.390872 56 59 58 4.996993 2 181 3 185 4 277 5 265 6 173 7 132 8 108 8 112 9 117 10 93 11 90 13 130 14 112 15 143 16 136 17 118 18 149 19 142 21 189 22 99 23 127 24 162 27 228 28 110 29 115 30 224 31 206
437 0.953641 0.095402 -0.396122 36 42 40 4.660201 2 183 3 194 4 285 5 272 6 175 7 128 10 95 13 133 14 125 15 150 16 142 17 116 19 147 22 110 23 143 25 328 26 188 27 213 28 124 30 255 31 260
438 0.985441 0.091205 -0.398036 55 61 63 2.962897 2 212 14 155 15 179 16 174 23 156
439 0.941551 0.085198 -0.395076 41 44 43 3.495601 2 225 3 230 4 346 5 316 7 168 10 126 11 124 12 134 13 173 15 192 16 179 17 149 19 181 22 139 25 344 26 205 27 236 28 171 29 154 30 311 31 325
440 0.945955 0.083023 -0.395771 185 193 190 3.700948 2 235 3 249 4 359 5 334 7 181 8 147 11 128 12 148 15 210 17 167 19 193 22 157 24 210 26 216 27 253 28 184 29 165 30 322 31 336
441 0.945955 0.083023 -0.395771 185 193 190 4.543161 2 236 3 250 4 360 5 335 6 223 7 182 8 148 10 138 11 129 12 149 13 188 14 181 15 211 16 199 17 168 19 194 21 231 22 158 23 191 24 211 25 368 26 217 27 254 28 185 29 166 30 323 31 337
