# 3D point list with one line of data per point:
#   POINT3D_ID, X, Y, Z, R, G, B, ERROR, TRACK[] as (IMAGE_ID, POINT2D_IDX)
91 0.934049 0.071949 -0.391175 192 200 199 4.768093 1 217 2 259 3 270 4 382 5 358 6 250 7 200 8 168 9 169 10 158 11 151 12 164 14 200 19 216 20 244 21 238 22 176 23 216 25 370 26 226 27 259 28 207 29 185 30 360 31 373
92 1.112785 0.093130 -0.409989 67 70 73 1.796131 4 332 5 305 6 246 7 224 8 195
93 0.869586 0.063445 -0.387615 193 196 199 3.165625 1 219 2 277 3 302 4 417 5 397 6 253 7 189 11 161 12 155 13 205 13 206 15 251 17 174 18 174 21 195 22 200 24 215 26 180 27 204 28 256 30 416 31 481
94 0.867059 0.063700 -0.391483 193 196 197 3.120379 1 220 3 307 5 401 6 258 8 158 9 144 11 178 13 208 16 231 22 209 28 257 29 215 30 424
95 0.866893 0.062554 -0.388303 193 196 197 4.249301 1 221 2 290 3 308 4 425 5 402 6 259 7 191 8 159 9 145 11 177 11 179 12 156 13 209 14 239 15 254 16 232 20 165 21 198 22 210 23 278 25 257 26 181 27 205 28 258 29 216 30 425 31 494
96 1.110449 0.091038 -0.407793 127 133 133 2.228623 2 241 4 334 5 310 6 254 7 229 8 197 9 217
97 0.991325 0.076629 -0.389620 59 67 66 3.580413 1 224 2 254 3 257 4 373 5 346 9 186 10 162 11 143 12 175 13 207 14 188 15 221 16 224 19 218 21 274 22 161 24 233 26 289 27 314 28 193 29 174 30 324 31 293
98 1.073127 0.076476 -0.360770 138 145 139 0.836906 1 226 6 257
99 0.928692 0.068167 -0.390505 189 197 196 3.558630 1 230 2 278 3 289 4 410 5 383 6 265 7 209 8 179 9 173 10 167 11 164 12 176 14 223 15 246 16 233 17 193 18 202 19 221 21 254 22 188 23 235 24 232 25 376 26 233 27 269 28 242 29 206 30 387 31 392
100 0.928578 0.067546 -0.389108 189 197 196 4.308669 1 231 2 279 4 411 5 384 6 266 7 210 8 180 9 174 10 168 11 165 12 177 14 224 15 247 18 203 20 248 22 189 25 377 26 234 27 270 28 243 29 207 30 388 31 393
101 0.853021 0.059188 -0.389641 202 202 204 3.103850 1 232 2 310 3 330 5 422 10 174 11 202 12 169 13 213 14 253 15 267 17 181 18 187 26 174 27 200 28 287 29 234 30 442
102 0.931932 0.068701 -0.392089 191 199 198 3.451429 1 233 3 293 5 390 7 212 10 169 11 176 14 229 22 193 23 233 25 386 26 241 27 273 28 246 29 208 30 392 31 390
103 1.101425 0.088133 -0.410874 92 91 93 2.303529 1 235 5 327 7 244 8 210 9 222
104 1.107074 0.087081 -0.406388 113 113 109 2.432851 1 236 4 357 5 322 6 264 7 243 8 211
105 0.936780 0.067536 -0.389481 53 58 63 3.538865 1 237 1 244 2 288 2 291 3 290 4 412 4 414 5 386 5 388 6 268 6 271 7 219 8 183 9 178 10 175 11 181 11 185 12 182 13 215 14 225 15 249 16 234 17 198 18 206 19 229 21 258 22 195 23 231 24 235 25 393 26 249 27 281
106 0.936876 0.067525 -0.389507 53 58 63 3.709376 1 238 1 245 2 289 2 292 3 291 4 413 4 415 5 387 5 389 6 269 6 272 7 220 8 184 9 179 10 176 11 182 11 186 14 226 15 250 16 235 17 199 18 207 19 230 21 259 22 196 23 232 24 236 26 250 27 282
107 0.839925 0.056543 -0.387970 126 124 131 2.831519 1 239 2 314 4 450 5 429 10 171 12 165 13 217 14 259 15 276 16 250 17 182 18 180 19 219 21 191 24 219 25 198 26 165 27 187 28 292 29 237 30 464
108 0.840055 0.057036 -0.389238 126 124 131 2.669187 1 240 2 315 10 172 12 166 14 260 15 277 17 183 18 181 21 192 24 220 25 199 26 166 27 188 29 238
109 0.864025 0.059924 -0.390671 43 43 43 1.390883 1 241 12 170 13 218 15 271
110 0.863171 0.058882 -0.387468 43 43 43 3.615049 1 242 3 328 4 441 5 415 6 274 8 169 9 157 10 173 11 196 12 171 13 219 14 252 15 272 16 248 17 186 18 193 19 223 21 209 22 221 23 288 24 225 25 262 26 192 27 217 28 282 29 231 30 441 31 524
111 1.109176 0.087566 -0.399750 132 138 138 0.293567 1 243 2 252 5 326
112 0.880240 0.061126 -0.389203 31 31 33 3.447668 1 246 2 308 3 322 4 437 5 414 6 279 7 208 8 173 9 167 10 177 11 190 12 174 13 222 14 248 15 268 16 247 17 192 18 199 19 227 21 225 22 216 24 229 25 291 26 204 27 232 28 275 29 227 30 435 31 490
113 1.090321 0.084295 -0.398914 153 156 155 0.157994 1 248 5 337
114 0.997583 0.072466 -0.388596 190 196 194 4.413792 1 249 4 391 6 276 7 234 8 198 9 202 10 185 11 162 12 187 13 220 16 237 17 205 18 231 20 349 21 302 22 174 23 189 24 251 26 313 27 341 28 216 29 192 30 352
115 0.997583 0.072466 -0.388596 190 196 194 2.438810 1 250 4 392 6 277 7 235 10 186 11 163 12 188 13 221 16 238 17 206 18 232 28 217
116 1.001841 0.072858 -0.389375 74 77 80 3.970338 1 252 2 275 3 274 4 397 5 369 7 239 8 206 10 187 11 168 12 190 14 209 15 239 17 207 18 235 19 238 20 355 21 310 23 187 24 256 27 355 29 195 31 306
117 1.001628 0.072774 -0.389184 74 77 80 4.102035 1 253 3 275 4 398 7 240 8 207 9 208 10 188 12 191 14 210 15 240 17 208 18 236 19 239 20 356 24 257 26 324 27 356 29 196
118 1.001844 0.072881 -0.389420 74 77 80 3.978511 1 254 2 276 3 276 4 399 5 370 7 241 8 208 9 209 10 189 11 169 12 192 14 211 15 241 16 240 17 209 18 237 19 240 20 357 21 311 22 177 23 188 24 258 26 325 27 357 29 197 31 307
119 1.963643 0.373835 -1.168623 86 82 73 7.295127 1 255 4 211 6 197 7 266 9 323 23 106 31 117
120 1.093295 0.083636 -0.406118 106 109 108 1.934209 4 372 5 344 6 275 9 230
121 1.071733 0.077850 -0.379571 103 102 102 2.417526 1 257 31 187
122 1.087339 0.082062 -0.392803 86 82 85 4.408414 1 259 2 267 3 245 4 371 5 343 6 280 7 256 8 224 9 234 12 208 17 224 21 354 22 153 23 146 24 277 30 295 31 182
123 0.929938 0.065066 -0.390952 53 44 47 3.868196 1 260 2 302 3 305 4 427 5 403 6 287 7 231 8 190 9 187 11 191 12 185 13 233 14 240 15 260 16 251 17 203 18 210 19 236 20 266 21 263 22 202 23 251 24 244 25 391 26 254 27 285 28 259 29 217 30 412 31 410
124 0.929786 0.065047 -0.390905 53 44 47 3.570052 1 261 2 303 3 306 4 428 6 288 7 232 8 191 9 188 11 192 12 186 13 234 14 241 15 261 16 252 17 204 18 211 19 237 21 264 22 203 23 252 24 245 25 392 26 255 27 286 28 260 29 218 30 413
125 0.840043 0.054203 -0.387552 124 123 125 3.012730 1 262 2 324 3 348 4 463 5 438 11 212 12 178 13 238 14 264 15 283 16 266 17 195 18 194 19 234 21 204 24 231 25 209 26 173 29 251 30 473
126 1.110149 0.081607 -0.401513 149 156 150 0.581759 6 285 8 235
127 1.107869 0.083070 -0.406612 101 104 105 1.928713 4 377 5 351 6 286 9 244
128 0.933158 0.064033 -0.390494 189 197 198 3.571244 1 265 2 312 3 316 4 430 5 409 6 290 7 237 8 196 9 196 10 192 11 204 13 239 15 265 16 259 17 212 18 222 19 245 21 265 22 207 23 253 24 250 25 404 26 270 28 269 30 417 30 419 31 411
129 0.933460 0.063982 -0.390807 189 197 198 3.878219 1 266 2 313 3 317 5 410 6 291 7 238 10 193 13 240 15 266 17 213 18 223 20 279 21 266 22 208 23 254 26 271 30 418 31 412
130 1.098205 0.082802 -0.409695 169 173 168 2.354845 1 267 3 258 5 352 6 289 7 265 8 231 9 240
131 0.940744 0.064699 -0.391130 35 41 39 3.769737 1 268 2 311 3 314 4 429 5 406 6 293 7 245 8 200 9 201 10 194 11 203 12 195 13 241 14 243 15 264 16 260 17 215 18 227 19 248 20 289 21 275 22 206 23 249 24 255 25 416 26 276 27 301 29 221 31 400
132 1.967146 0.364727 -1.171922 102 98 89 6.447086 1 269 4 220 5 196 6 207 7 277 8 277 9 335 22 113 23 113 31 127
133 0.990800 0.069043 -0.389907 189 195 193 4.011120 1 271 2 300 3 297 4 419 5 394 6 295 7 255 8 213 9 215 10 196 12 206 14 231 15 253 16 254 17 222 18 242 19 251 20 353 21 314 22 184 23 209 26 327 27 360 28 249 29 211 30 382 31 331
134 1.099627 0.080807 -0.410823 158 171 170 1.725515 4 390 5 362 7 275 8 244
135 1.002406 0.069490 -0.389750 190 197 191 4.034228 1 273 2 301 3 295 4 420 5 396 6 299 7 259 8 218 9 221 10 201 11 193 13 246 14 232 15 255 16 258 17 225 18 251 19 254 20 368 21 326 22 183 23 202 24 279 26 340 28 247 29 210 30 380 31 314
136 1.077334 0.076486 -0.381203 107 107 111 5.735384 1 274 2 281 4 388 6 292 7 270 8 243 23 159 30 317 31 201
137 0.998493 0.068911 -0.390084 74 74 78 4.060476 1 275 2 306 3 299 4 423 5 398 6 301 7 261 8 220 9 218 10 204 11 199 13 249 14 234 15 257 16 261 17 229 18 253 19 255 20 363 21 319 22 191 23 205 24 281 26 338 27 370 28 252 29 212 30 383 31 321
138 0.838771 0.051749 -0.388124 131 127 132 3.579547 1 276 2 336 3 351 4 477 5 453 10 197 14 284 15 303 18 200 19 246 21 214 26 190 27 215 29 256 30 487
139 1.084976 0.078816 -0.399522 165 171 169 0.444681 1 278 2 293 4 389 5 365
140 1.087782 0.078176 -0.406845 133 133 133 2.396834 1 279 3 271 4 400 5 366 6 302 7 276 8 246 9 245
141 1.090480 0.077185 -0.406418 165 171 171 3.328215 1 282 2 298 4 407 5 372 7 282 8 254 9 251 30 344
142 0.991330 0.065678 -0.389800 67 67 71 4.072604 1 283 2 316 3 310 3 312 4 431 4 433 5 407 6 310 7 271 8 233 9 225 9 227 10 210 11 209 12 214 13 256 14 244 15 269 16 267 17 235 18 259 19 263 20 365 21 334 23 226 24 289 26 342 28 263 29 219 31 353
143 0.991330 0.065678 -0.389800 67 67 71 4.072604 1 284 2 317 3 311 3 313 4 432 4 434 5 408 6 311 7 272 8 234 9 226 9 228 10 211 11 210 12 215 13 257 14 245 15 270 16 268 17 236 18 260 19 264 20 366 21 335 23 227 24 290 26 343 28 264 29 220 31 354
144 1.083409 0.076192 -0.399741 114 114 114 2.447415 1 285 5 380 6 305 7 283
145 1.083409 0.076192 -0.399741 114 114 114 0.073230 1 286 5 381
146 0.838958 0.049746 -0.387654 207 206 208 2.876718 1 287 2 350 4 485 5 455 13 265 14 289 15 313 16 287 17 216 18 204 19 256 21 232 24 249 25 236 26 196 27 220 28 334 30 499
147 0.994878 0.066354 -0.389916 191 197 195 5.684611 1 288 7 278 8 241 9 235 16 270 17 242 18 262 19 267 22 204 23 228 24 294 27 378 28 270
148 1.000328 0.065320 -0.388324 193 199 197 3.827545 1 290 2 320 3 315 4 438 5 411 6 314 7 280 8 245 10 215 11 213 12 219 13 261 14 246 15 273 16 269 17 244 18 266 19 272 20 382 21 346 22 201 23 220 24 296 26 354 27 385 28 268 29 222 31 335
149 0.989349 0.062828 -0.390280 58 63 68 4.214760 1 293 2 330 4 447 5 424 6 323 7 287 8 252 9 239 10 218 11 228 13 271 16 279 17 249 18 272 19 278 20 373 21 345 22 212 23 239 24 298 28 283 29 232 30 423
150 1.080844 0.069396 -0.397889 132 139 143 0.840619 6 320 8 267 9 267
151 1.084472 0.072059 -0.394359 100 100 100 3.987365 1 295 5 399 16 275 17 259 21 383 22 181 23 182 24 314
152 1.094349 0.073158 -0.407352 100 100 100 5.108460 1 296 3 298 4 426 5 400 6 319 8 268 9 269 17 260 22 182 23 183 31 239
153 0.947597 0.057143 -0.390082 191 197 197 3.797721 1 298 2 343 4 469 5 445 6 326 7 291 8 248 10 223 11 241 12 225 13 274 14 272 15 295 16 292 17 252 18 265 21 325 22 231 23 273 24 299 25 450 26 323 27 354 29 253 30 451 31 439
154 1.100899 0.072410 -0.411884 154 162 161 1.530269 5 405 6 324 7 303 8 274
155 1.095793 0.064988 -0.398026 105 104 104 0.170981 1 319 5 433
156 0.945155 0.051073 -0.390942 39 42 43 4.775761 1 321 8 279 9 265 10 243 11 291 15 334 27 382 28 355 31 470
157 0.914470 0.048755 -0.393075 36 39 42 3.964805 1 323 2 370 3 369 4 511 5 480 6 351 7 309 9 248 12 238 13 301 14 314 15 338 16 324 17 282 18 284 19 302 20 325 21 336 22 263 23 315 24 325 25 425 27 346 28 359 29 276 30 510 31 536
158 0.914470 0.048755 -0.393075 36 39 42 4.158346 1 324 2 371 3 370 4 512 5 481 6 352 7 310 8 273 9 249 12 239 13 302 14 315 16 325 17 283 18 285 19 303 20 326 21 337 22 264 23 316 24 326 25 426 27 347 28 360 29 277 30 511 31 537
159 0.897030 0.046355 -0.392096 31 34 37 3.361908 1 326 2 376 3 374 4 520 5 487 6 354 7 307 8 271 10 245 12 237 13 308 14 317 15 346 16 328 17 278 18 281 19 306 21 323 22 268 23 322 24 323 25 397 26 298 27 322 28 365 29 284 30 517 31 572
160 0.977902 0.052396 -0.389381 190 196 196 3.760467 1 327 2 365 3 356 4 499 5 469 9 271 12 249 13 305 14 300 15 332 16 321 19 312 22 242 23 279 24 341 26 383 27 418 28 337 30 476 31 434
161 0.985264 0.052956 -0.392241 56 64 65 3.247988 1 330 2 367 4 501 9 277 10 252 11 293 12 250 14 301 16 322 18 310 19 314 29 264 31 423
162 0.903178 0.045004 -0.392836 190 196 196 3.653187 1 334 2 382 6 361 7 318 8 280 9 255 10 254 11 303 12 243 13 316 15 348 17 291 20 318 21 343 24 336 25 417 26 319 27 353 29 286 30 532
163 0.902620 0.043962 -0.389754 190 196 196 4.134975 1 335 2 384 3 378 4 528 6 363 7 319 8 282 9 256 10 255 11 304 12 245 13 318 15 349 17 293 21 344 23 326 24 338 25 418 26 320 28 369 29 288 30 534 31 575
164 1.085203 0.060228 -0.399981 167 173 173 0.623091 1 336 2 358 4 476 5 452
165 0.958156 0.048908 -0.392234 43 49 51 3.864230 1 338 2 378 3 371 4 517 5 482 6 360 7 326 8 293 9 276 11 299 12 252 13 324 15 343 16 336 17 302 18 313 19 319 20 386 21 376 22 260 23 300 24 347 25 516 26 375 27 415 28 361 29 278 30 501 31 477
166 0.972611 0.047795 -0.391799 47 53 55 3.793561 1 343 3 372 4 522 5 489 6 369 11 309 12 262 14 318 15 347 16 342 19 328 21 389 22 262 23 297 25 568 26 403 27 442 29 280 30 506 31 464
167 0.898916 0.040914 -0.392747 189 195 195 3.603167 1 347 2 400 3 390 4 541 5 510 6 376 7 331 8 296 9 270 10 265 11 325 12 255 13 337 14 340 15 364 16 351 17 305 18 306 19 327 20 337 21 361 22 280 23 351 24 351 25 423 26 336 28 387 29 301 30 552 31 606
168 0.965183 0.045862 -0.392521 189 197 196 3.658217 1 348 2 391 3 376 4 526 5 493 6 373 7 334 8 303 9 284 10 269 11 314 12 265 14 321 15 350 17 309 18 324 19 330 21 390 24 357 26 398 27 438 28 368 29 285 30 515 31 491
169 0.902838 0.040921 -0.393264 47 46 50 3.549631 1 349 3 391 4 544 5 511 6 379 7 333 8 298 9 272 10 268 11 328 12 258 13 339 14 341 15 366 16 352 17 307 18 309 19 329 20 344 23 350 25 435 26 341 27 373 28 388 29 302 30 554 31 603
170 1.095431 0.054024 -0.396693 105 106 102 0.231974 1 356 4 507
171 1.102449 0.054523 -0.406328 105 106 102 2.571031 1 357 2 379 4 508 7 348 9 324
172 1.095738 0.051921 -0.405076 154 160 158 2.697829 1 359 2 381 4 513 6 382 8 319 9 328
173 0.903487 0.037094 -0.392747 189 197 196 3.722474 1 361 2 416 3 401 3 402 4 568 5 541 6 392 7 343 8 307 9 282 10 276 11 354 12 274 13 346 14 355 14 356 15 383 15 384 16 361 17 319 18 321 19 341 20 360 21 379 22 292 22 293 23 363 24 363 25 446 26 360 26 361 27 392 27 393 29 312 29 313 30 573 30 574
174 0.971118 0.041790 -0.391916 190 196 196 3.615548 1 362 2 407 4 540 5 506 6 389 7 352 8 315 9 303 10 283 11 343 12 284 13 345 15 365 16 357 17 328 18 349 19 346 20 428 21 411 22 272 23 317 24 374 25 584 28 384 31 508
175 0.900740 0.036689 -0.393033 194 197 198 3.706405 1 363 2 419 3 403 4 569 5 542 6 393 7 344 8 309 9 283 10 277 11 357 12 275 14 358 15 385 16 362 18 322 18 323 19 342 21 377 22 295 23 368 24 364 26 357 27 389 28 401 29 316 30 577 31 628
176 0.961267 0.037946 -0.392270 187 198 196 3.784308 1 368 2 425 3 399 4 565 5 531 6 402 7 358 8 320 9 310 10 296 11 372 12 289 13 359 14 353 15 380 16 370 17 335 18 356 19 355 20 430 21 415 22 288 23 328 24 381 25 581 26 425 28 395 29 309 30 561
177 0.961241 0.037935 -0.392067 187 198 196 3.870117 1 369 2 426 3 400 4 566 5 532 6 403 7 359 8 321 9 311 10 297 11 373 13 360 15 381 16 371 17 336 18 357 19 356 20 431 21 416 22 289 23 329 24 382 25 582 26 426 28 396 29 310 30 562
178 0.975962 0.037988 -0.391965 48 54 56 4.097809 1 375 2 427 3 396 4 563 5 530 6 404 7 363 8 326 9 318 10 305 11 376 12 290 14 352 15 379 16 373 17 341 18 361 19 360 20 455 21 418 22 283 23 319 24 384 26 436 30 560 31 526
179 1.101018 0.046651 -0.403922 98 106 107 2.356683 1 376 2 404 4 529 6 397 8 340 9 347
180 1.083008 0.045667 -0.382448 98 106 107 5.391418 1 377 2 405 6 398 9 348 31 369
181 1.094666 0.045969 -0.397471 146 157 155 0.505388 1 378 2 409 4 536 5 500
182 1.079528 0.044939 -0.379955 141 149 146 1.215493 2 410 4 537 5 501 31 370
183 0.967781 0.037194 -0.390830 43 49 47 4.655164 1 382 5 540 6 408 7 364 8 330 9 319 10 309 12 293 14 357 17 342 18 364 19 361 20 442 21 417 22 290 23 327 24 386 25 597 27 475 29 314 30 566
184 0.910724 0.034180 -0.395869 188 196 197 3.535311 1 384 2 440 3 417 4 584 5 562 6 413 7 360 8 317 9 302 10 301 11 383 12 287 13 366 14 369 15 398 16 377 17 337 18 350 19 359 21 403 23 371 24 380 25 477 26 388 27 421 28 414 29 327 30 600 31 631
185 0.840206 0.027049 -0.389801 193 196 199 3.249733 1 385 2 470 3 440 4 628 10 295 11 392 12 283 13 368 14 388 15 425 16 390 19 351 24 376 25 342 26 310 27 338 28 440 29 343 30 662
186 0.961689 0.033747 -0.390933 53 49 52 4.677924 1 388 3 407 4 576 6 418 7 369 8 335 9 326 10 319 13 369 14 360 16 380 17 349 18 369 21 421 22 296 23 345 24 393 25 594 28 405 29 319 30 584 31 560
187 0.961595 0.035021 -0.392602 53 49 52 4.034817 1 389 3 408 4 577 5 555 6 419 7 370 8 336 9 327 10 320 11 389 13 370 14 361 15 390 16 381 17 350 18 370 19 374 20 450 21 422 22 297 23 346 24 394 25 595 28 406 29 320 30 585 31 561
188 1.077628 0.041998 -0.382901 155 163 162 0.858452 2 418 5 508 31 386
189 0.903537 0.030377 -0.393876 34 34 38 3.584253 1 392 2 465 3 427 4 604 5 585 6 428 7 367 8 331 9 308 10 318 11 402 12 296 13 379 14 379 15 413 16 391 17 348 18 358 20 391 21 408 22 323 23 384 24 391 25 473 26 394 27 429 28 429 29 335 31 659
190 0.896041 0.029511 -0.392771 38 38 40 3.389569 1 393 2 466 3 432 4 609 5 590 7 366 8 328 9 307 10 316 12 294 13 380 16 392 17 346 18 353 19 370 20 381 21 405 23 391 24 390 26 386 27 419 28 431
191 0.896118 0.029687 -0.393473 38 38 40 3.115362 1 394 4 610 5 591 8 329 10 317 11 403 12 295 16 393 17 347 18 354 19 371 23 390 26 387 27 420 28 432
192 0.965143 0.034217 -0.392735 189 197 196 3.799030 1 395 2 450 3 416 4 581 5 560 6 421 7 372 8 341 9 332 10 324 11 394 12 300 13 375 14 367 15 396 16 385 17 353 18 373 19 380 20 462 21 428 22 301 23 348 24 397 25 609 26 438 27 480 28 411 29 326 30 590 31 559
193 1.093329 0.042278 -0.398066 100 103 102 0.671496 1 396 2 423 4 542
194 1.099714 0.041956 -0.406789 100 103 102 2.406331 1 397 2 424 4 543 6 415 7 382 9 364
195 1.105956 0.042557 -0.410907 150 159 152 1.735808 4 545 5 512 6 416 8 359
196 1.105956 0.042557 -0.410907 150 159 152 1.735808 4 546 5 513 6 417 8 360
197 0.968589 0.034273 -0.392085 53 53 47 3.491138 1 400 2 451 3 413 5 558 6 422 9 333 10 326 11 395 12 301 13 372 14 365 15 393 16 383 18 374 19 381 20 466 21 431 23 343 24 398 25 614 26 442 27 481 28 409 29 324 30 588 31 556
198 0.968589 0.034273 -0.392085 53 53 47 3.559297 1 401 2 452 3 414 5 559 6 423 9 334 10 327 11 396 12 302 13 373 14 366 15 394 16 384 19 382 20 467 21 432 23 344 24 399 25 615 26 443 27 482 28 410 29 325 30 589 31 557
199 1.102845 0.041742 -0.406022 94 100 102 2.424850 1 406 4 548 7 384 9 366
200 0.913237 0.030747 -0.394110 36 39 40 4.820915 1 408 2 468 3 430 4 607 6 431 8 334 9 316 10 325 11 404 12 298 13 384 14 382 17 351 18 362 19 378 21 413 22 322 23 380 24 396 25 498 26 411 27 449 28 430 29 337
201 1.112223 0.040878 -0.407982 96 99 102 2.332691 1 409 2 428 4 552 5 516 6 420 7 390 8 366 9 377
202 0.958988 0.032006 -0.392721 39 45 45 3.975186 1 410 2 462 5 571 6 432 7 378 8 348 9 341 10 333 11 408 12 308 13 386 14 374 15 405 17 361 18 377 19 390 20 463 21 433 22 302 24 413 25 604 27 487 28 421 29 330 30 598 31 590
203 1.097913 0.039618 -0.407197 154 162 159 2.148868 1 411 2 432 4 558 5 526 7 394 8 364 9 373
204 1.097913 0.039618 -0.407197 154 162 159 2.148868 1 412 2 433 4 559 5 527 7 395 8 365 9 374
205 1.086980 0.039383 -0.403868 109 112 111 0.100076 1 414 2 435
206 0.968411 0.031005 -0.391901 42 49 43 3.929686 1 415 2 471 3 424 4 596 5 576 6 438 8 358 9 346 11 416 13 391 15 408 16 397 17 366 18 387 19 400 20 483 21 441 22 308 23 357 24 420 25 638 26 462 28 427 29 332 30 607
207 1.096858 0.038505 -0.399512 146 154 151 0.758680 1 417 2 437 4 564 5 536
208 1.107403 0.038922 -0.409816 120 123 126 2.087389 2 443 5 535 7 398 9 382
209 1.108524 0.038433 -0.401956 89 92 93 0.267300 1 421 5 537
210 0.917428 0.027254 -0.394971 189 197 198 4.782088 1 422 4 630 5 612 6 451 7 387 10 344 11 430 12 310 14 400 16 412 18 378 19 401 22 330 23 392 24 418 26 429 27 470 28 450 30 651 31 662
211 1.094262 0.034401 -0.400959 119 122 125 0.564238 6 436 7 400 8 376 9 385
212 1.079600 0.035412 -0.395166 98 106 105 3.660793 1 424 2 454 3 406 4 575 5 548 6 439 7 402 8 373 9 383 12 336 22 282 23 306
213 1.083317 0.033743 -0.401241 112 115 118 0.806936 6 440 9 384
214 0.912963 0.018919 -0.371776 29 35 35 7.568946 1 426 10 346 19 405 22 351 24 438 25 558
215 1.091218 0.035664 -0.400433 96 97 93 0.429987 1 430 2 459 5 549
216 1.091218 0.035664 -0.400433 96 97 93 0.429987 1 431 2 460 5 550
217 1.106174 0.035857 -0.410774 145 151 151 2.616040 1 432 2 456 5 547 6 442 7 404
218 0.955880 0.027643 -0.395433 188 199 197 3.719484 1 436 2 489 3 438 4 625 5 607 6 455 7 399 8 362 10 351 11 436 12 318 13 406 14 395 15 426 16 418 17 372 18 398 19 410 20 480 21 450 22 324 23 372 24 425 25 620 26 463 27 509 28 444 29 347 30 636 31 617
219 0.953666 0.027734 -0.393416 188 199 197 4.402716 1 437 3 439 5 608 6 456 8 363 11 437 14 396 17 373 19 411 21 451 24 426 25 621 26 464 27 510 30 637 31 618
220 1.111256 0.035232 -0.413958 102 105 106 1.672442 5 551 6 444 7 412
221 1.110937 0.035512 -0.413430 102 105 106 1.732237 5 552 7 413
222 1.047302 0.016258 -0.346891 152 160 159 18.787900 1 440 2 469 4 578 4 673 5 645 6 448 7 415 7 501 8 382 9 399 30 569
223 1.087031 0.033354 -0.399612 155 161 159 0.751732 1 442 2 472 4 582
224 1.108999 0.031135 -0.403456 100 100 102 2.834517 1 449 4 589 5 567 6 458 9 415
225 1.964913 0.201383 -1.308195 105 100 98 2.869568 1 450 4 416 6 390 7 432 9 515
226 0.887316 0.016185 -0.371487 31 34 37 0.476139 1 453 6 472
227 1.091010 0.030405 -0.400114 102 102 104 0.537647 1 455 2 481 5 579
228 1.091010 0.030405 -0.400114 102 102 104 0.537647 1 456 2 482 5 580
229 1.103731 0.029480 -0.409977 108 111 110 1.787120 4 599 5 582 7 437 8 400
230 1.080344 0.029204 -0.382132 106 113 107 3.786017 1 460 4 600 5 583 7 438 30 594 31 451
231 1.078786 0.028388 -0.393639 116 116 120 2.890266 1 463 3 426 4 602 6 465 8 396 12 356
232 1.087519 0.028184 -0.405404 108 111 112 1.387594 4 603 6 466 7 435 8 397 9 416
233 1.112449 0.029271 -0.407058 91 91 93 2.151031 1 465 4 598 5 581 6 467 7 441 8 401 9 422
234 0.949655 0.022431 -0.395255 190 198 197 3.981973 1 466 3 459 4 657 8 383 10 370 11 457 15 452 19 432 20 496 21 461 25 636 26 482 27 522 29 364 30 681
235 0.949374 0.022166 -0.394064 190 198 197 4.202627 1 467 2 510 4 658 6 478 7 425 8 384 11 458 12 338 15 453 17 391 18 419 19 433 20 495 21 460 22 344 24 449 25 635 26 481 27 521 29 365 30 682
236 0.864786 0.016512 -0.393145 45 45 49 4.034545 1 472 2 529 3 480 4 691 5 664 6 487 7 424 8 372 9 351 12 330 13 434 14 443 15 485 16 456 17 388 18 393 19 424 20 396 21 424 22 378 23 463 24 443 25 447 26 410 27 448 28 489 29 385 30 730 31 788
237 1.100739 0.025056 -0.402770 103 103 105 0.911470 6 474 9 439
238 1.085119 0.026678 -0.382822 96 100 95 0.379299 4 613 5 597 31 459
239 1.047712 0.013133 -0.357418 103 102 104 3.248986 4 682 5 660 7 449 8 411 9 432 12 370
240 1.129029 0.028784 -0.418961 104 100 101 1.949045 1 481 9 444
241 0.839656 0.011106 -0.386323 129 128 137 1.349980 1 483 18 397
242 0.945767 0.018438 -0.394817 45 45 47 3.915372 1 484 2 523 3 470 4 675 5 646 6 492 7 447 8 398 9 393 10 387 11 480 12 355 13 443 14 435 15 470 17 407 18 435 19 449 20 506 21 475 22 356 23 406 24 464 25 652 26 496 27 534 28 481 29 376 30 701 31 669
243 0.880717 0.013986 -0.393373 25 28 29 4.311670 1 486 2 542 3 482 4 703 6 500 7 443 8 392 9 370 10 385 11 488 12 348 13 447 14 453 15 492 16 467 17 404 18 418 19 448 20 423 21 452 22 384 23 460 24 461 25 496 27 476 29 391 30 737 31 781
244 0.867993 0.012786 -0.392135 186 192 194 3.819646 1 487 2 546 3 489 4 714 5 672 6 504 7 444 8 391 9 369 10 386 11 490 12 347 13 449 14 460 15 503 16 478 17 405 18 415 19 446 21 444 22 392 23 484 24 463 25 469 26 431 27 469 29 395 30 749 31 801
245 1.079970 0.022095 -0.394505 106 109 110 3.574804 1 488 2 516 4 639 6 489 7 457 8 425 12 381 23 342
246 1.070285 0.022059 -0.382747 106 109 110 5.202494 1 489 2 517 4 640 6 490 7 458 8 426 30 640 31 501
247 1.103322 0.025001 -0.419824 164 172 169 1.610060 1 492 9 449
248 1.098567 0.020963 -0.406284 153 161 158 2.099509 1 494 2 520 4 646 5 618 6 493 9 455
249 1.083192 0.020869 -0.395571 174 182 181 4.055873 1 495 2 519 4 647 6 494 7 466 8 436 9 452 12 392 30 648 31 509
250 1.006728 0.016894 -0.393379 70 80 85 3.406031 1 500 2 531 3 471 4 674 5 643 6 499 7 462 8 424 9 436 10 404 12 377 13 456 14 438 15 471 16 465 18 466 19 472 20 558 21 518 22 347 24 481 26 562 28 483 29 377 30 694 31 613
251 1.103142 0.020303 -0.399387 142 150 149 0.341136 1 501 5 621
252 1.087637 0.019049 -0.395872 107 110 111 3.669188 1 502 2 524 4 656 5 624 6 498 7 479 8 446 9 460 12 396 30 663 31 517
253 0.992073 0.015236 -0.390971 191 197 195 4.218782 1 503 5 652 6 507 7 470 8 428 9 437 10 405 11 508 14 442 15 478 16 475 17 429 18 467 19 473 20 553 21 517 22 353 23 395 25 789 26 557 27 595 28 488 29 383 30 706 31 635
254 0.991866 0.015122 -0.390705 191 197 195 4.272866 1 504 5 653 6 508 7 471 8 429 9 438 10 406 11 509 15 479 16 476 17 430 18 468 19 474 20 552 21 516 22 354 23 396 25 788 27 594 29 384 31 636
255 1.116317 0.020256 -0.403502 74 74 70 0.002696 1 505 2 522
256 0.875489 0.011176 -0.395517 184 192 193 5.594511 1 506 3 503 4 727 5 684 6 519 7 460 8 406 9 387 10 399 11 512 14 475 16 489 17 422 18 433 19 461 20 437 21 459 23 492 24 476 25 504 26 444 29 405 31 808
257 0.999002 0.015430 -0.393497 190 198 195 4.354208 1 508 2 543 3 476 4 680 5 654 6 510 7 472 8 437 9 442 10 410 11 519 12 390 13 464 14 445 16 479 17 433 18 474 19 485 20 559 21 520 22 355 23 394 24 492 25 801 27 605 28 490 30 709
258 1.107448 0.018439 -0.408777 112 112 112 2.102242 1 509 5 625 6 502 7 482 8 451 9 464
259 0.871666 0.008802 -0.391386 46 45 49 4.129345 1 511 2 565 3 505 4 730 5 688 6 524 7 464 8 410 9 390 10 401 11 521 12 361 13 469 14 482 15 515 16 499 17 424 18 438 19 463 20 433 21 462 22 408 23 503 24 480 25 499 26 441 29 409 30 769 30 772 31 819
260 0.939943 0.012250 -0.395422 190 196 196 3.859103 1 514 8 430 9 425 10 408 11 532 12 375 13 467 14 457 15 498 16 482 18 455 19 476 20 514 21 502 22 371 23 433 24 488 25 673 26 513 27 554 28 501
261 0.938416 0.012244 -0.396121 190 196 196 5.676744 1 516 4 712 6 516 7 475 7 476 9 427 9 428 10 412 10 413 13 471 14 465 18 461 19 482 22 376 23 436 23 437 23 439 25 674 26 515 27 556 29 399 30 738 31 720
262 0.879730 0.008908 -0.394358 43 43 47 3.766062 1 518 2 569 3 507 4 736 6 530 7 468 8 417 9 400 10 402 11 527 12 368 13 475 14 484 15 518 16 504 17 425 18 439 19 467 20 453 21 469 22 406 23 498 24 482 25 529 26 458 27 503 28 515 29 411 30 774 31 817
263 1.107402 0.016278 -0.411021 132 140 137 1.731077 5 632 6 509 8 464
264 0.931935 0.011098 -0.396089 45 40 38 3.617170 1 521 2 556 3 493 4 716 5 675 6 521 7 478 8 434 9 424 10 411 12 379 13 474 14 467 15 506 17 437 18 458 19 481 20 512 21 503 24 493 24 494 25 657 26 508 27 550 28 504 29 401 30 743
265 0.928830 0.010805 -0.396073 37 40 43 3.691695 1 522 2 557 3 494 4 717 5 677 9 423 11 540 12 378 13 477 14 468 15 507 16 492 17 436 18 457 19 484 21 499 22 386 23 443 25 649 26 505 27 549 29 402 30 746 31 736
266 1.101440 0.015267 -0.406759 94 97 98 2.813878 1 523 2 537 4 669 5 641 6 511 7 496 9 476 23 360
267 0.852157 0.008950 -0.398407 191 194 195 3.527872 1 525 2 572 3 511 5 694 14 493 19 466 25 456 26 433 29 417 30 796
268 0.930767 0.007417 -0.384278 186 197 195 8.874251 1 527 1 545 2 580 3 497 4 723 5 700 6 529 6 548 7 486 8 439 8 469 9 431 10 420 10 439 11 552 11 583 12 389 12 409 13 480 13 505 14 470 14 494 15 510 16 501 16 523 17 441 17 460 18 465 18 483 19 492 19 517 20 517 20 531 21 513 21 522 22 388 22 399 23 445 23 455 24 501 24 520 25 670 25 708 26 523 26 544 27 562 27 580 28 528 29 424 30 753 31 735 31 751
269 0.991965 0.011338 -0.395597 55 63 62 3.694864 1 528 2 550 3 485 4 698 5 669 6 522 7 493 8 452 9 453 10 429 13 481 14 459 15 494 16 488 17 448 18 481 20 561 21 525 22 366 23 409 24 507 25 793 27 610 28 498 29 394 30 726 31 661
270 1.114061 0.015607 -0.400584 98 98 92 0.214170 1 530 5 642
271 0.995403 0.010938 -0.391791 70 75 82 3.595933 1 532 2 555 3 486 4 700 7 498 9 458 11 560 12 401 13 482 14 461 15 496 16 493 17 450 18 488 19 500 20 562 21 527 23 403 24 509 25 812 26 579 27 617 28 499 29 397 30 729 31 654
272 0.868818 0.006073 -0.392904 186 192 194 3.673329 1 533 2 578 3 518 4 748 5 703 6 534 7 484 8 427 9 409 12 371 13 489 14 500 15 537 16 514 17 438 18 447 19 478 21 473 22 423 23 510 24 496 25 509 26 455 27 500 29 430 30 795 31 844
273 0.967384 0.008702 -0.394575 33 39 37 3.571535 1 535 2 568 3 499 4 721 5 679 6 533 7 503 8 461 9 457 10 431 12 403 13 492 14 472 15 508 16 507 17 451 18 485 19 505 21 524 22 380 23 427 24 512 26 558 27 599 28 509 29 404 30 742 31 704
274 0.880446 0.005527 -0.394289 185 191 191 3.810380 1 537 2 583 3 520 4 752 5 708 6 547 7 495 8 444 10 424 11 570 12 384 13 495 14 502 15 540 16 521 17 445 18 453 19 496 20 474 21 493 22 418 23 507 24 504 25 560 26 478 28 531 29 432 30 797 31 833
275 1.064097 0.008672 -0.370788 172 175 176 0.538143 1 538 6 526
276 1.105637 0.014539 -0.420733 110 113 114 4.287093 1 539 2 549 6 527 8 480 9 486 30 703
277 0.931009 0.006425 -0.393999 183 194 194 3.764153 1 540 2 575 3 512 4 738 5 691 6 540 7 504 8 457 9 447 10 432 11 580 13 499 16 515 17 452 18 477 19 501 22 397 23 457 24 510 25 681 26 531 27 568 28 524 29 420 30 768 31 753
278 0.929832 0.006753 -0.393620 183 194 194 4.300859 1 541 2 577 6 541 8 458 10 433 16 517 19 503 23 459 25 683 26 533 27 570 28 526 29 422 31 754
279 1.084944 0.011218 -0.400653 106 109 112 0.248943 1 542 5 663
280 1.101078 0.009788 -0.413773 115 118 117 0.775036 7 520 8 489 23 375
281 1.103853 0.010364 -0.415891 104 110 112 2.010487 1 548 2 560 7 521 8 490
282 0.869381 0.002319 -0.394562 43 28 29 3.988263 1 551 2 597 3 541 4 772 5 730 6 560 7 508 8 462 9 435 10 434 11 590 12 394 13 507 14 517 15 565 16 546 17 457 18 469 19 506 20 470 21 497 22 445 23 525 24 513 25 543 26 479 27 519 28 552 29 449 30 814 31 876
283 0.869209 0.002215 -0.394160 43 28 29 4.047018 1 552 2 598 3 542 4 773 5 731 6 561 7 509 8 463 10 435 11 591 12 395 14 518 15 566 16 547 17 458 18 470 19 507 20 471 21 498 22 446 23 526 24 514 25 544 26 480 27 520 28 553 29 450 30 815 31 877
284 0.876473 0.002512 -0.395285 46 45 54 3.171094 1 553 2 599 3 539 7 511 10 436 11 592 12 397 13 508 15 563 17 461 19 512 20 490 21 506 24 521 25 561 26 484 27 526 28 548 28 550 29 447 31 861
285 0.876417 0.002499 -0.395086 46 45 54 3.542467 1 554 2 600 3 540 4 769 5 729 7 512 8 467 9 441 10 437 11 593 12 398 13 509 15 564 17 462 17 463 18 473 19 513 20 491 21 507 24 522 25 562 25 563 26 485 27 527 28 551 29 448 30 813 31 862
286 0.939125 0.003494 -0.395042 48 42 44 3.892577 1 556 2 589 3 524 4 747 5 709 6 559 7 525 8 479 9 465 10 455 11 608 12 417 13 518 14 507 15 543 16 541 17 475 18 493 19 529 20 542 21 526 22 410 25 727 27 593 28 537 29 436 30 787
287 1.106422 0.006312 -0.406257 100 103 106 2.241248 1 557 4 701 6 545 9 499
288 0.934522 0.002506 -0.393736 182 193 191 4.039775 1 560 2 593 3 531 4 757 5 714 6 562 7 528 8 481 9 467 10 456 11 611 12 418 13 522 14 512 15 549 16 542 17 476 18 495 19 534 20 541 21 528 22 415 23 483 24 533 25 719 26 552 27 591 29 446 30 799 31 772
289 0.942235 0.002927 -0.394814 183 194 192 4.608847 1 561 3 528 4 753 5 711 6 563 7 531 8 484 9 468 10 457 11 617 12 419 14 510 16 543 17 479 18 500 19 536 20 548 21 533 22 413 23 472 24 534 25 740 26 560 27 601 28 541 29 442 30 791 31 759
290 0.943170 0.002749 -0.395581 183 194 192 4.027217 1 562 3 529 4 754 5 712 6 564 7 532 8 485 9 469 10 458 11 618 12 420 13 523 14 511 15 547 16 544 17 480 18 501 19 537 20 549 21 534 22 414 23 473 24 535 26 561 27 602 28 542 29 443 30 792 31 760
291 0.866129 -0.000187 -0.393004 34 40 40 4.059407 1 563 2 618 3 553 4 782 5 739 6 575 7 526 8 474 9 445 10 446 11 612 12 410 13 528 14 529 15 576 16 556 17 474 19 520 20 481 21 512 22 458 23 542 24 529 26 486 27 523 28 558 29 458 31 885
292 0.867727 0.000967 -0.398836 34 40 40 3.909399 1 564 7 527 10 447 11 613 12 411 19 521
293 0.840315 -0.001635 -0.391759 194 197 200 2.838869 1 565 3 558 4 793 5 750 12 406 14 542 15 588 16 563 17 472 18 471 24 530 25 471 25 474 26 460 27 505 28 566 29 466 30 834
294 1.092323 0.003852 -0.397436 158 164 164 0.717675 1 566 4 724 5 682
295 0.990845 0.001205 -0.392498 55 66 66 3.761874 1 568 2 596 3 527 4 746 5 706 6 568 7 544 8 499 9 489 10 472 11 636 12 442 13 532 15 545 17 490 18 519 19 554 20 588 21 555 22 402 23 442 24 553 25 853 28 543 29 441 30 785
296 0.992387 0.001220 -0.394187 55 66 66 3.922710 1 569 3 525 4 744 5 704 9 491 10 474 11 637 13 533 18 520 19 555 22 400 24 554 29 439 30 783
297 0.945307 -0.000619 -0.393450 44 44 40 3.875883 1 571 2 616 3 546 4 767 7 547 8 498 9 483 10 470 11 642 12 436 13 539 14 526 15 562 16 557 17 489 18 515 19 548 21 542 22 422 23 486 24 551 25 765 26 580 27 620 29 454 30 806 31 775
298 0.887249 -0.004393 -0.395348 184 190 188 3.254781 1 578 2 643 3 567 10 481 11 656 13 546 17 501 19 559 24 559
299 1.092582 -0.003327 -0.399579 160 168 167 0.614724 6 582 7 565 8 519 9 524
300 1.092786 -0.003265 -0.402900 113 113 109 0.489206 6 580 7 566 8 520
301 0.950090 -0.003814 -0.395452 189 197 194 3.768428 1 585 2 629 3 555 4 781 5 741 6 604 7 559 8 514 9 495 10 489 12 454 13 551 14 537 15 578 16 578 17 510 18 528 19 579 20 569 21 557 22 439 23 505 24 575 25 791 28 565 29 463
302 1.076648 -0.004583 -0.371187 105 111 113 0.561156 1 590 6 585
303 0.841017 -0.006207 -0.393266 129 129 131 4.330403 1 594 2 661 3 584 4 812 10 478 12 430 13 563 14 569 16 596 18 498 19 552 24 565 25 507 26 494 27 531 28 590 30 857 31 950
304 0.991302 -0.003552 -0.410946 52 60 61 1.066513 1 596 9 508
305 0.839818 -0.007539 -0.392426 192 195 198 1.173842 1 597 2 663 15 617 17 499 26 490
306 0.839302 -0.007226 -0.391463 192 195 198 2.966164 1 598 2 664 3 586 14 571 15 618 16 597 17 500 19 546 24 564 25 500 26 491 27 529 28 592 30 865
307 1.073529 -0.006541 -0.383845 160 168 167 1.251413 1 601 6 593 7 571 8 521
308 1.066693 -0.006861 -0.368749 152 163 161 0.512824 1 602 6 594
309 1.092695 -0.006515 -0.402548 103 105 111 0.669515 6 597 7 572 8 540 9 533
310 1.092695 -0.006515 -0.402548 103 105 111 0.669515 6 598 7 573 8 541 9 534
311 1.106496 -0.006173 -0.412552 101 107 107 2.400386 1 605 2 627 6 610 8 542
312 1.080559 -0.005170 -0.381685 101 107 107 4.881766 1 606 2 628 6 611 8 543 30 794 31 638
313 1.108212 -0.007577 -0.416546 138 141 140 1.537845 2 636 7 588
314 0.979597 -0.009012 -0.393296 191 197 195 3.985767 1 614 2 656 3 572 4 790 5 753 6 623 7 583 9 523 10 521 11 708 12 485 13 580 14 559 15 592 16 595 20 607 21 577 22 448 23 501 24 601 25 893 26 645 27 684 28 585 29 481 30 833 31 777
315 0.955704 -0.009187 -0.394362 190 198 195 3.954212 1 617 2 657 3 576 4 800 5 759 6 624 7 581 8 536 9 517 10 517 11 702 12 476 13 583 14 561 15 602 16 598 17 536 18 555 19 612 20 592 21 572 22 459 23 509 24 599 25 835 27 660 28 586 30 841 31 816
316 0.954641 -0.009345 -0.392324 190 198 195 4.145727 1 618 2 658 3 577 4 801 5 760 6 625 7 582 8 537 10 518 11 703 15 601 16 599 17 537 18 556 19 613 23 508 24 600 25 836 27 661 29 482 30 842 31 815
317 0.918085 -0.009451 -0.395755 185 191 191 5.115281 1 623 2 669 4 808 5 765 6 632 8 530 9 512 10 506 11 698 12 473 13 588 14 568 17 532 18 547 19 606 20 563 21 563 22 473 23 546 25 746 27 627 28 594 29 489 30 852 31 875
318 1.086843 -0.011378 -0.400028 157 165 166 0.572860 6 617 7 591 8 549 9 547
319 0.841050 -0.012207 -0.394925 147 146 150 1.619317 1 631 2 683 10 502 12 457 26 519 28 613
320 1.108531 -0.008981 -0.417344 152 163 163 1.778262 1 632 9 557
321 1.102714 -0.010321 -0.410644 152 163 163 2.157230 1 633 2 648 6 618 7 592 8 553 9 558
322 1.107209 -0.009133 -0.419104 109 112 111 1.606615 1 634 9 559
323 1.107209 -0.009133 -0.419104 109 112 111 1.606615 1 635 9 560
324 1.090673 -0.012343 -0.399464 106 109 108 0.470230 6 619 7 593
325 1.119224 -0.009332 -0.418410 105 105 105 1.912069 1 637 9 561
326 1.119224 -0.009332 -0.418410 105 105 105 1.912069 1 638 9 562
327 0.840667 -0.014434 -0.391244 183 189 191 2.672838 1 639 4 844 5 799 10 507 12 471 13 603 15 660 16 636 17 542 18 534 19 602 24 606 26 529 27 564 28 618 29 509 30 888 31 979
328 0.959014 -0.013263 -0.393848 42 48 50 3.508794 1 640 4 809 5 766 6 644 11 732 12 497 13 598 16 615 18 569 24 607 25 857 29 492 31 830
329 0.959163 -0.013102 -0.394004 42 48 50 3.771080 1 641 4 810 5 767 7 596 8 548 9 532 10 529 11 733 12 498 13 599 14 573 15 610 16 616 17 545 18 570 19 627 20 602 21 585 22 467 23 522 24 608 25 858 26 644 28 598 29 493 30 855 31 831
330 0.977215 -0.014345 -0.395332 41 49 48 4.084029 1 642 2 673 3 589 5 768 6 649 7 598 8 554 14 577 15 611 16 618 18 579 20 620 21 594 22 465 23 516 24 615 25 908 26 659 27 702 28 601 29 496 30 853 31 811
331 0.976138 -0.014029 -0.395262 41 49 48 4.057012 1 643 2 674 5 769 6 650 7 599 8 555 9 538 10 533 12 505 14 578 16 619 18 580 22 466 23 517 24 616 25 909 27 703 28 602 30 854 31 812
332 1.071788 -0.015517 -0.371743 118 118 120 0.518014 1 645 6 635
333 0.913146 -0.015496 -0.394253 29 35 35 4.286768 1 649 2 688 3 603 4 823 5 782 6 662 7 601 8 551 9 527 10 531 11 743 12 495 13 605 14 591 15 637 16 628 17 551 18 567 19 628 20 573 21 573 22 492 23 561 24 613 25 768 26 608 27 640 28 610 29 505 30 869 31 893
334 0.898016 -0.015708 -0.393661 30 33 34 3.852414 1 650 2 692 3 607 4 832 5 786 6 670 7 600 8 550 9 525 10 528 11 740 12 492 13 608 14 599 15 644 16 633 17 549 18 566 19 626 21 571 23 573 24 612 25 731 26 596 28 616 29 507 30 879 31 920
335 0.839563 -0.016711 -0.390878 196 195 202 3.513604 1 651 5 808 10 522 11 731 12 479 15 663 17 546 19 622 28 632 29 522
336 0.962786 -0.016297 -0.396020 184 197 196 3.774579 1 654 2 680 3 596 4 817 6 659 7 607 8 564 9 540 11 750 12 511 15 629 17 557 18 582 20 618 21 597 26 657 28 605 29 501 30 866
337 0.969813 -0.016156 -0.392915 188 196 193 3.923083 1 656 2 678 3 595 4 816 5 776 6 661 7 612 8 571 9 543 10 543 11 753 12 513 13 609 14 582 15 626 16 626 17 559 18 588 19 638 20 623 22 474 23 524 24 621 25 906 29 500 30 864 31 832
338 1.093886 -0.018095 -0.401018 146 154 155 0.533265 6 645 7 621 8 578 9 585
339 1.109646 -0.015191 -0.418653 154 160 158 2.460226 1 658 7 622 8 579 9 586
340 1.100382 -0.015675 -0.418668 117 120 119 2.023639 1 662 8 581 9 584
341 1.101048 -0.017121 -0.411449 116 117 113 2.618350 1 665 2 671 6 651 7 623 9 591
342 0.907424 -0.017807 -0.395221 183 189 191 4.015803 1 667 2 697 3 616 4 840 5 798 6 677 7 616 8 566 9 537 10 538 11 754 12 506 13 614 15 656 16 640 17 561 18 576 19 635 20 579 21 581 22 501 24 622 25 766 26 615 27 649 28 622 29 515 30 886
343 0.964438 -0.018506 -0.393630 192 198 196 3.787590 1 670 2 695 3 605 4 822 5 784 6 675 7 624 8 575 10 552 11 768 12 525 13 617 14 600 15 639 16 637 17 569 19 643 20 626 21 602 22 477 23 538 24 630 25 907 26 670 27 711 28 617 29 508 30 868 31 855
344 0.970100 -0.020087 -0.393627 48 44 49 3.915181 1 671 3 609 5 787 6 678 7 627 8 587 9 566 10 563 11 784 13 619 15 645 16 641 17 573 18 600 19 657 22 482 23 547 25 931 26 679 27 716 28 620 29 511 30 874 31 856
345 0.970094 -0.020094 -0.394303 48 44 49 4.083608 1 672 2 698 3 610 5 788 6 679 7 628 8 588 9 567 10 564 11 785 13 620 15 646 16 642 17 574 22 483 23 548 25 932 26 680 28 621 29 512 30 875 31 857
346 1.096046 -0.020402 -0.415609 171 176 181 1.848406 1 673 7 637 8 600 9 601
347 0.973541 -0.020331 -0.392703 188 196 195 3.642615 1 675 2 699 3 611 4 828 5 789 6 682 7 629 9 571 10 566 11 789 12 528 13 623 14 601 15 647 17 578 19 658 21 609 22 478 23 540 24 637 25 948 27 721 28 623 29 513 31 853
348 0.973578 -0.020360 -0.392631 188 196 195 3.800988 1 676 2 700 3 612 4 829 5 790 6 683 7 630 8 589 9 572 10 567 11 790 12 529 13 624 14 602 15 648 16 644 17 579 18 602 19 659 20 639 21 610 22 479 23 541 24 638 25 949 27 722 28 624 29 514 31 854
349 0.898532 -0.021364 -0.391910 176 187 187 4.799260 1 677 2 713 3 631 4 853 5 813 7 631 8 582 9 545 10 553 11 778 12 516 13 628 14 619 15 671 16 655 17 572 18 589 19 644 20 582 21 588 22 519 23 589 24 631 25 767 26 626 27 659 29 525 30 894 30 895 31 945
350 0.961753 -0.021487 -0.391398 188 196 193 4.373799 1 678 2 706 3 617 4 837 5 796 6 686 7 638 8 594 9 569 12 530 22 490 28 626 29 517 30 880 31 878
351 0.965196 -0.021171 -0.390348 189 197 196 4.007827 1 679 2 708 3 619 4 835 5 794 6 688 8 597 9 575 11 792 13 626 14 609 15 652 16 650 17 580 18 605 19 661 21 612 22 488 23 553 25 933 26 681 27 719 31 867
352 0.966357 -0.021258 -0.392421 189 197 196 3.900489 1 680 2 709 3 620 4 836 5 795 6 689 8 598 9 576 11 793 12 537 13 627 14 610 15 653 16 651 17 581 18 606 19 662 20 636 21 613 22 489 23 554 24 641 25 934 26 682 27 720 28 629 29 519 30 882 31 868
353 0.904249 -0.021438 -0.394899 50 44 50 3.849672 1 681 2 715 3 632 4 850 5 810 6 695 7 633 8 583 9 548 10 556 11 780 12 522 13 630 15 667 16 656 17 577 18 590 19 646 20 590 21 591 22 514 24 633 25 776 26 633 28 636 29 527 31 939
354 0.904490 -0.021293 -0.395479 50 44 50 4.049385 1 682 6 696 7 634 8 584 9 549 10 557 11 781 12 523 15 668 16 657 18 591 19 647 22 515 25 777 26 634 28 637 29 528 31 940
355 0.904249 -0.021438 -0.394899 50 44 50 4.104046 1 683 2 716 3 633 4 851 5 811 6 697 7 635 8 585 9 550 9 551 10 558 11 782 12 524 13 631 15 669 16 658 18 592 19 648 19 649 20 591 21 592 22 516 22 517 24 634 25 778 26 635 28 638 29 529 31 941
356 0.904336 -0.021353 -0.395105 50 44 50 3.847634 1 684 2 717 3 634 4 852 5 812 6 698 7 636 8 586 9 552 10 559 11 783 12 521 13 632 15 670 16 659 17 576 18 593 19 645 19 650 21 593 22 518 24 635 25 779 28 639 29 530 31 942
357 0.967487 -0.023122 -0.390826 42 48 48 3.582053 1 688 2 711 3 627 4 841 5 801 6 693 7 642 10 573 11 806 12 542 13 636 14 616 15 662 16 653 17 593 18 611 19 670 21 619 23 557 24 654 25 954 26 688 27 730 28 633
358 0.959471 -0.023838 -0.395668 39 47 48 4.750732 1 691 2 719 3 630 4 845 5 804 6 701 7 646 9 593 10 574 14 620 16 662 17 594 18 614 19 674 20 640 22 499 23 560 25 927 26 686 27 726 28 641 29 531 30 889 31 888
359 0.968721 -0.025433 -0.390376 55 58 61 3.560665 1 692 1 694 2 721 4 847 5 805 6 702 7 649 11 822 11 824 12 546 13 640 16 663 17 596 18 618 19 679 22 495 24 657 25 965 26 689 26 691 29 532
360 1.076013 -0.026090 -0.392681 121 124 123 1.071445 1 698 2 710 12 572
361 1.086503 -0.029311 -0.400231 153 161 162 0.788601 6 694 7 658 9 628
362 0.906439 -0.026597 -0.388946 186 199 196 5.480639 1 700 2 741 3 643 4 861 6 711 7 654 8 606 9 579 10 575 11 820 13 645 14 630 15 680 16 677 18 608 19 671 22 532 24 659 25 809 27 696 28 658 29 544 30 908
363 0.906566 -0.026534 -0.389287 186 199 196 5.145646 1 701 2 742 3 644 4 862 6 712 7 655 8 607 9 580 10 576 11 821 13 646 14 631 15 681 16 678 17 598 18 609 19 672 22 533 24 660 25 810 26 653 27 697 28 659 29 545 30 909
364 1.097706 -0.027661 -0.417853 166 169 168 2.445809 1 702 7 662 8 627 9 631
365 1.085816 -0.030751 -0.401560 83 83 85 0.597254 6 700 7 664 8 634 9 635
366 0.901390 -0.027136 -0.392167 183 189 189 5.012165 1 706 2 744 4 871 5 828 5 830 6 714 7 657 7 660 8 610 8 611 9 589 10 580 11 830 12 544 13 648 14 635 15 686 16 681 17 602 18 612 19 676 20 603 21 607 22 535 23 602 26 651 27 693 28 660 30 914
367 0.841765 -0.026492 -0.392950 143 142 144 2.975222 1 708 2 762 3 666 13 662 14 653 16 703 19 664 28 676
368 0.842358 -0.027520 -0.390916 143 142 144 2.774001 1 709 3 667 4 890 5 847 12 536 13 663 15 707 16 704 17 601 18 599 19 665 24 664 25 632 28 677 31 1031
369 0.967681 -0.028312 -0.391106 189 195 193 4.390989 1 710 2 735 7 666 8 624 9 615 10 595 11 845 12 570 13 649 17 610 19 698 28 648
370 0.972613 -0.026849 -0.400221 189 195 193 5.110077 1 711 2 736 7 667 8 625 9 616 10 596 11 846 12 571 13 650 17 611 19 699 28 649 30 900 31 890
371 0.964041 -0.028369 -0.391380 47 47 49 4.778993 1 712 2 737 4 856 6 707 7 670 8 622 9 613 10 591 11 843 12 567 13 658 14 627 15 673 16 674 17 612 18 633 19 695 20 660 21 627 22 506 23 567 24 671 25 969 27 743 29 539
372 0.964041 -0.028369 -0.391380 47 47 49 4.794741 1 713 2 738 4 857 5 817 6 708 7 671 8 623 9 614 10 592 11 844 12 568 13 659 14 628 15 674 16 675 17 613 18 634 19 696 20 661 21 628 22 507 23 568 24 672 25 970 27 744 29 540
373 0.905757 -0.028566 -0.391201 38 37 41 4.902769 1 716 2 748 3 653 4 875 5 836 6 721 7 673 8 615 9 598 10 582 11 840 12 549 13 669 14 641 15 691 16 689 17 607 18 620 19 682 20 610 21 617 22 537 23 605 24 669 25 820 26 664 27 705 28 665 29 550 30 922 31 965
374 0.909736 -0.030156 -0.390151 26 32 30 4.982527 1 720 2 757 3 658 4 877 5 839 6 730 7 676 8 630 9 605 10 597 11 853 12 559 13 673 14 646 15 696 17 615 18 627 19 689 21 622 22 544 23 606 24 675 25 844 26 675 27 714 29 554 31 966
375 1.097670 -0.032562 -0.417416 158 164 164 2.428607 1 723 7 682 8 644 9 649
376 0.977139 -0.031721 -0.392705 50 58 59 3.717413 1 724 2 750 4 860 5 826 6 717 7 679 8 638 9 626 10 608 12 578 13 678 15 682 16 691 17 623 18 652 20 679 21 638 22 520 24 677 25 993 26 718 27 761 28 663 29 548 30 910 31 892
377 0.965884 -0.031325 -0.393507 39 49 52 4.867343 1 725 2 752 3 651 4 866 5 827 6 723 7 683 8 636 9 624 10 606 14 639 15 685 17 624 19 709 20 671 22 524 23 579 26 709 27 754 28 666 29 552 30 913 31 914
378 0.841254 -0.031296 -0.393991 108 108 110 4.854922 1 734 2 777 4 907 5 869 11 859 12 551 14 672 16 723 17 621 18 615 19 683 24 680 25 668 27 648 30 948 31 1049
379 0.841254 -0.031296 -0.393991 108 108 110 4.541117 1 735 3 680 4 908 11 860 12 552 14 673 17 622 18 616 19 684 25 667 26 617 27 647 28 689 29 574
380 0.840578 -0.031909 -0.393783 118 124 126 3.378092 1 736 2 779 3 681 4 910 5 873 12 553 13 693 14 675 16 727 17 625 18 617 19 685 24 682 25 666 26 616 27 646 28 690 29 575 30 950 31 1054
381 0.977318 -0.033302 -0.388268 187 198 194 3.293417 1 739 3 663 5 837 14 650 31 912
382 0.978721 -0.035002 -0.391220 187 198 194 4.163162 1 740 2 765 3 664 4 876 5 838 6 735 8 652 10 626 11 902 12 595 13 692 14 651 15 695 16 709 17 641 19 731 20 684 21 651 22 531 23 585 24 698 25 1018 26 725 27 770 28 680 29 562 30 924 31 913
383 0.841284 -0.033421 -0.391655 180 183 184 1.069299 1 742 2 785 12 560 13 700 15 731 16 734 17 631 18 622 26 624
384 0.840701 -0.033150 -0.389878 180 183 184 3.163197 1 743 2 786 3 689 4 913 10 600 11 866 12 561 13 701 14 687 15 732 16 735 17 632 18 623 19 700 24 688 25 677 26 623 27 657 28 695 29 581
385 1.101735 -0.037802 -0.415999 148 156 155 2.460957 1 744 7 698 8 668 9 666
386 0.840846 -0.035404 -0.390989 196 196 198 3.353150 1 761 3 697 4 929 5 882 10 609 11 883 13 713 14 694 15 739 16 747 17 645 18 636 19 708 24 704 26 638 27 668 28 705 29 590 30 962 31 1065
387 0.840812 -0.037222 -0.388668 112 111 115 2.967556 1 767 2 798 12 579 18 643 19 714 25 698 27 675
388 0.988573 -0.043537 -0.392495 50 58 59 3.274383 1 777 5 861 10 652 11 949 12 614 21 679 26 762 28 702
389 0.989126 -0.043873 -0.392125 50 58 59 3.887741 1 778 2 795 3 690 4 899 5 862 6 762 8 691 10 653 11 950 12 615 13 735 14 681 15 718 16 745 17 671 18 686 19 766 21 680 22 556 23 598 24 728 25 1054 26 763 27 801 28 703 29 589 30 944 31 937
390 1.098087 -0.048177 -0.414554 93 94 90 2.050783 1 781 7 728 9 692
391 0.889679 -0.044159 -0.398710 181 184 185 5.659636 1 783 2 808 3 709 5 895 6 777 9 652 15 753 21 648 22 607 23 656 25 851 26 694 27 735 30 971 31 1041
392 0.886379 -0.041807 -0.391401 181 184 185 4.846525 1 784 2 809 3 710 4 942 5 896 6 778 7 732 9 653 10 639 11 932 12 600 14 705 15 754 16 763 18 675 19 744 20 642 21 647 22 608 23 657 24 727 25 850 26 693 27 734 28 720 30 972 31 1042
393 1.075986 -0.048346 -0.392668 100 100 102 0.825649 1 787 12 629
394 0.992527 -0.047180 -0.392345 185 196 194 4.235451 1 792 2 803 3 701 4 911 5 875 6 771 7 744 8 701 9 688 10 663 11 964 12 623 13 740 14 697 15 730 16 759 17 676 18 693 19 775 20 742 21 688 22 564 23 603 24 732 25 1066 26 773 27 815 28 714 30 955 31 955
395 1.101113 -0.052772 -0.415138 133 139 137 2.179961 1 795 8 710 9 713
396 1.079837 -0.052927 -0.394515 132 140 137 3.133926 1 800 7 748 8 715 9 718 12 650
397 0.881084 -0.046928 -0.391673 27 30 31 5.028317 1 802 2 822 5 919 6 797 6 800 9 675 10 657 11 958 12 617 14 721 15 772 16 783 17 680 19 769 20 663 21 673 22 623 23 681 24 738 26 708 27 753 28 735 29 613 30 990 31 1066
398 0.936565 -0.048656 -0.395774 43 46 45 4.377589 1 803 2 817 3 722 5 903 6 786 7 752 8 707 9 689 10 664 12 624 13 747 13 749 14 712 16 771 16 773 18 694 19 776 20 703 22 591 22 593 23 639 24 739 25 1004 26 749 27 792 28 731 29 607 30 977 31 1018
399 0.936565 -0.048656 -0.395774 43 46 45 4.447016 1 804 2 818 3 723 4 948 5 904 6 787 7 753 8 708 9 690 10 665 12 625 13 748 13 750 14 713 16 772 16 774 18 695 19 777 20 702 22 592 22 594 23 640 24 740 25 1003 26 750 27 791 28 732 29 608 30 978 31 1019
