# 3D point list with one line of data per point:
#   POINT3D_ID, X, Y, Z, R, G, B, ERROR, TRACK[] as (IMAGE_ID, POINT2D_IDX)
141 1.100985 0.057146 -0.400455 154 160 158 3.161268 1 359 2 381 4 513 6 382 8 319 9 328
142 0.970701 0.046428 -0.385972 190 196 196 3.947950 1 362 2 407 4 540 5 506 6 389 7 352 8 315 9 303 10 283 11 343 12 284 13 345 15 365 16 357 17 328 18 349 19 346 22 272 25 584 28 384 31 508
143 0.960465 0.042612 -0.386478 187 198 196 4.735684 1 368 2 425 3 399 4 565 5 531 6 402 7 358 8 320 9 310 10 296 11 372 12 289 13 359 14 353 15 380 16 370 17 335 18 356 19 355 22 288 23 328 24 381 25 581 26 425 28 395 29 309 30 561
144 0.960465 0.042612 -0.386478 187 198 196 4.734328 1 369 2 426 3 400 4 566 5 532 6 403 7 359 8 321 9 311 10 297 11 373 13 360 15 381 16 371 17 336 18 357 19 356 22 289 23 329 24 382 25 582 26 426 28 396 29 310 30 562
145 0.975220 0.042762 -0.385560 48 54 56 4.490385 1 375 2 427 3 396 4 563 5 530 6 404 7 363 8 326 9 318 10 305 11 376 12 290 14 352 15 379 16 373 17 341 18 361 19 360 22 283 23 319 24 384 26 436 30 560 31 526
146 1.101186 0.050180 -0.394442 98 106 107 3.319882 1 376 2 404 4 529 6 397 8 340 9 347
147 1.100340 0.050936 -0.392090 146 157 155 0.444193 1 378 2 409 4 536 5 500
148 1.090401 0.049969 -0.381653 141 149 146 0.748083 2 410 4 537 5 501 31 370
149 0.968955 0.042584 -0.387794 43 49 47 4.739757 1 382 5 540 6 408 7 364 8 330 9 319 10 309 12 293 14 357 17 342 18 364 19 361 22 290 24 386 25 597 27 475 29 314 30 566
150 0.907427 0.038230 -0.389783 188 196 197 4.968824 1 384 2 440 3 417 4 584 5 562 6 413 7 360 8 317 9 302 10 301 11 383 12 287 13 366 14 369 15 398 16 377 17 337 18 350 19 359 21 403 23 371 24 380 25 477 26 388 27 421 28 414 29 327 30 600 31 631
151 0.835476 0.032794 -0.389348 193 196 199 5.960365 1 385 2 470 3 440 4 628 10 295 11 392 12 283 13 368 14 388 15 425 16 390 19 351 24 376 25 342 26 310 27 338 28 440 29 343 30 662
152 0.962239 0.039139 -0.389479 53 49 52 4.664122 1 388 3 407 4 576 6 418 7 369 8 335 9 326 10 319 13 369 14 360 16 380 17 349 18 369 22 296 23 345 24 393 25 594 28 405 29 319 30 584 31 560
153 0.960435 0.039375 -0.387949 53 49 52 4.710971 1 389 3 408 4 577 5 555 6 419 7 370 8 336 9 327 10 320 11 389 13 370 14 361 15 390 16 381 17 350 18 370 19 374 21 422 22 297 23 346 24 394 25 595 28 406 29 320 30 585 31 561
154 1.087212 0.047000 -0.382923 155 163 162 0.799522 2 418 5 508 31 386
155 0.901003 0.035333 -0.392392 34 34 38 4.971707 1 392 2 465 3 427 4 604 5 585 6 428 7 367 8 331 9 308 10 318 11 402 12 296 13 379 14 379 15 413 16 391 17 348 18 358 21 408 22 323 23 384 24 391 25 473 26 394 27 429 28 429 29 335 31 659
156 0.963725 0.038584 -0.387501 189 197 196 4.591742 1 395 2 450 3 416 4 581 5 560 6 421 7 372 8 341 9 332 10 324 11 394 12 300 13 375 14 367 15 396 16 385 17 353 18 373 19 380 21 428 22 301 23 348 24 397 25 609 26 438 27 480 28 411 29 326 30 590 31 559
157 1.099123 0.047291 -0.392931 100 103 102 0.526335 1 396 2 423 4 542
158 1.104498 0.047194 -0.401137 100 103 102 3.955711 1 397 2 424 4 543 6 415 7 382 9 364 30 531 31 381
159 1.108566 0.047188 -0.403145 147 158 158 3.396426 1 398 2 421 4 545 5 512 6 416 8 359
160 1.108566 0.047188 -0.403145 147 158 158 3.396426 1 399 2 422 4 546 5 513 6 417 8 360
161 0.967075 0.038685 -0.386463 53 53 47 4.689457 1 400 2 451 3 413 5 558 6 422 9 333 10 326 11 395 12 301 13 372 14 365 15 393 16 383 18 374 19 381 21 431 23 343 24 398 25 614 26 442 27 481 28 409 29 324 30 588 31 556
162 0.967075 0.038685 -0.386463 53 53 47 4.762198 1 401 2 452 3 414 5 559 6 423 9 334 10 327 11 396 12 302 13 373 14 366 15 394 16 384 19 382 21 432 23 344 24 399 25 615 26 443 27 482 28 410 29 325 30 589 31 557
163 1.100075 0.044572 -0.393461 94 100 102 3.412927 1 406 4 548 7 384 9 366
164 0.912224 0.035625 -0.392124 36 39 40 5.488063 1 408 2 468 3 430 4 607 6 431 8 334 9 316 10 325 11 404 12 298 13 384 14 382 17 351 18 362 19 378 21 413 22 322 23 380 24 396 25 498 26 411 27 449 28 430 29 337
165 1.112286 0.044701 -0.397866 96 99 102 3.332799 1 409 2 428 4 552 5 516 6 420 7 390 8 366 9 377
166 0.957748 0.036690 -0.387935 39 45 45 4.829158 1 410 2 462 5 571 6 432 7 378 8 348 9 341 10 333 11 408 12 308 13 386 14 374 15 405 17 361 18 377 19 390 21 433 22 302 24 413 25 604 27 487 28 421 29 330 30 598 31 590
167 1.101441 0.044404 -0.400934 154 162 159 3.069278 1 411 2 432 4 558 5 526 7 394 8 364 9 373
168 1.101441 0.044404 -0.400934 154 162 159 3.069278 1 412 2 433 4 559 5 527 7 395 8 365 9 374
169 1.091389 0.044143 -0.397201 109 112 111 0.322911 1 414 2 435
170 0.967438 0.035392 -0.387433 42 49 43 4.598293 1 415 2 471 3 424 4 596 5 576 6 438 8 358 9 346 11 416 13 391 15 408 16 397 17 366 18 387 19 400 21 441 22 308 23 357 24 420 25 638 26 462 28 427 29 332 30 607
171 1.102406 0.043434 -0.393857 146 154 151 0.712164 1 417 2 437 4 564 5 536
172 1.114085 0.043258 -0.395562 89 92 93 0.376093 1 421 5 537
173 0.915397 0.031788 -0.390629 189 197 198 5.398571 1 422 4 630 5 612 6 451 7 387 10 344 11 430 12 310 14 400 16 412 18 378 19 401 22 330 23 392 24 418 26 429 27 470 28 450 30 651 31 662
174 1.099921 0.039867 -0.397198 119 122 125 0.478261 6 436 7 400 8 376 9 385
175 1.085107 0.040295 -0.390441 98 106 105 0.893593 1 424 2 454 4 575 5 548 12 336 22 282
176 1.088660 0.039226 -0.397816 112 115 118 0.605018 6 440 9 384
177 1.096189 0.040511 -0.394249 96 97 93 0.380579 1 430 2 459 5 549
178 1.096189 0.040511 -0.394249 96 97 93 0.380579 1 431 2 460 5 550
179 0.953060 0.031539 -0.388330 188 199 197 4.545991 1 436 2 489 3 438 4 625 5 607 6 455 7 399 8 362 10 351 11 436 12 318 13 406 14 395 15 426 16 418 17 372 18 398 19 410 21 450 22 324 23 372 24 425 25 620 26 463 27 509 28 444 29 347 30 636 31 617
180 0.953746 0.032571 -0.390166 188 199 197 4.870529 1 437 3 439 5 608 6 456 8 363 11 437 14 396 17 373 19 411 21 451 24 426 25 621 26 464 27 510 30 637 31 618
181 1.092403 0.038350 -0.394410 155 161 159 0.558981 1 442 2 472 4 582
182 2.020398 0.211141 -1.299675 105 100 98 2.886288 1 450 4 416 6 390 7 432 9 515
183 0.885881 0.021968 -0.372521 31 34 37 2.022494 1 453 6 472
184 1.106242 0.034186 -0.402281 106 113 107 3.767430 1 459 4 599 5 582 7 437 8 400 30 593
185 1.093197 0.033903 -0.386101 106 113 107 1.195248 1 460 4 600 5 583 31 451
186 1.084308 0.033411 -0.389023 116 116 120 2.845545 1 463 3 426 4 602 6 465 8 396 12 356
187 1.088914 0.032703 -0.397756 115 121 121 0.444493 6 466 7 435 8 397 9 416
188 1.110938 0.033013 -0.395280 100 103 104 0.640294 6 467 7 441 8 401 9 422
189 0.946885 0.026399 -0.388602 190 198 197 4.791466 1 466 3 459 4 657 8 383 10 370 11 457 15 452 19 432 25 636 26 482 27 522 29 364 30 681
190 0.947063 0.026368 -0.388840 190 198 197 4.582601 1 467 2 510 4 658 6 478 7 425 8 384 11 458 12 338 15 453 17 391 18 419 19 433 21 460 22 344 24 449 25 635 26 481 27 521 29 365 30 682
191 0.860821 0.021360 -0.390762 45 45 49 5.651141 1 472 2 529 3 480 4 691 5 664 6 487 7 424 8 372 9 351 12 330 13 434 14 443 15 485 16 456 17 388 18 393 19 424 21 424 22 378 23 463 24 443 25 447 26 410 27 448 28 489 29 385 30 730 31 788
192 1.106324 0.030427 -0.398559 103 103 105 0.748214 6 474 9 439
193 1.098047 0.031308 -0.386479 107 107 109 1.009466 1 477 4 613 5 597 31 459
194 1.050827 0.017826 -0.352304 112 115 116 10.064757 1 478 2 500 4 623 4 682 5 660 6 480 7 449 8 411 9 432 12 370
195 0.943587 0.022704 -0.389488 45 45 47 4.608920 1 484 2 523 3 470 4 675 5 646 6 492 7 447 8 398 9 393 10 387 11 480 12 355 13 443 14 435 15 470 17 407 18 435 19 449 22 356 23 406 24 464 25 652 26 496 27 534 28 481 29 376 30 701 31 669
196 0.877543 0.019175 -0.391635 25 28 29 5.640394 1 486 2 542 3 482 4 703 6 500 7 443 8 392 9 370 10 385 11 488 12 348 13 447 14 453 15 492 16 467 17 404 18 418 19 448 21 452 22 384 23 460 24 461 25 496 27 476 29 391 30 737 31 781
197 0.864285 0.017858 -0.390087 186 192 194 5.593811 1 487 2 546 3 489 4 714 5 672 6 504 7 444 8 391 9 369 10 386 11 490 12 347 13 449 14 460 15 503 16 478 17 405 18 415 19 446 21 444 22 392 23 484 24 463 25 469 26 431 27 469 29 395 30 749 31 801
198 1.085417 0.027045 -0.389593 106 109 110 4.147906 1 488 2 516 4 639 6 489 7 457 8 425 12 381 23 342
199 1.081987 0.026767 -0.386159 106 109 110 3.651324 1 489 2 517 4 640 6 490 7 458 8 426 30 640 31 501
200 1.107613 0.025821 -0.405365 153 161 158 3.369944 1 494 2 520 4 646 5 618 6 493 9 455
201 1.088739 0.025805 -0.390560 174 182 181 3.935624 1 495 2 519 4 647 6 494 7 466 8 436 9 452 12 392 30 648 31 509
202 1.007637 0.021545 -0.388284 70 80 85 2.933789 1 500 2 531 3 471 4 674 5 643 6 499 7 462 8 424 9 436 10 404 12 377 13 456 14 438 15 471 16 465 18 466 19 472 22 347 26 562 29 377 30 694 31 613
203 1.107858 0.025070 -0.392443 142 150 149 0.433166 1 501 5 621
204 1.093109 0.023916 -0.390527 107 110 111 3.547181 1 502 2 524 4 656 5 624 6 498 7 479 8 446 9 460 12 396 30 663 31 517
205 0.992585 0.019869 -0.387368 191 197 195 4.336108 1 503 5 652 6 507 7 470 8 428 9 437 10 405 11 508 14 442 15 478 16 475 17 429 18 467 19 473 21 517 22 353 23 395 25 789 26 557 27 595 28 488 29 383 30 706 31 635
206 0.991893 0.019710 -0.386235 191 197 195 4.427771 1 504 5 653 6 508 7 471 8 429 9 438 10 406 11 509 15 479 16 476 17 430 18 468 19 474 21 516 22 354 23 396 25 788 27 594 29 384 31 636
207 1.120408 0.024828 -0.394903 74 74 70 0.467661 1 505 2 522
208 0.872566 0.015506 -0.391653 184 192 193 6.059641 1 506 3 503 4 727 5 684 6 519 7 460 8 406 9 387 10 399 11 512 14 475 16 489 17 422 18 433 19 461 21 459 23 492 24 476 25 504 26 444 29 405 31 808
209 1.000361 0.019649 -0.387383 190 198 195 3.695431 1 508 2 543 3 476 4 680 5 654 6 510 7 472 8 437 9 442 10 410 11 519 12 390 13 464 14 445 16 479 17 433 18 474 19 485 22 355 24 492 25 801 27 605 28 490 30 709
210 1.109044 0.024783 -0.399477 94 94 94 1.969253 1 510 30 669
211 0.868138 0.014098 -0.389481 46 45 49 5.606387 1 511 2 565 3 505 4 730 5 688 6 524 7 464 8 410 9 390 10 401 11 521 12 361 13 469 14 482 15 515 16 499 17 424 18 438 19 463 21 462 22 408 23 503 24 480 25 499 26 441 29 409 30 769 30 772 31 819
212 0.938275 0.017009 -0.391696 190 196 196 4.065251 1 514 8 430 9 425 10 408 11 532 12 375 13 467 14 457 15 498 16 482 18 455 19 476 21 502 22 371 23 433 24 488 25 673 26 513 27 554 28 501
213 0.937688 0.016656 -0.392511 190 196 196 5.524678 1 516 4 712 6 516 7 475 7 476 9 427 9 428 10 412 10 413 13 471 14 465 18 461 19 482 22 376 23 436 23 437 23 439 25 674 26 515 27 556 29 399 30 738 31 720
214 0.875486 0.013468 -0.389106 43 43 47 5.124529 1 518 2 569 3 507 4 736 6 530 7 468 8 417 9 400 10 402 11 527 12 368 13 475 14 484 15 518 16 504 17 425 18 439 19 467 22 406 23 498 24 482 25 529 26 458 27 503 28 515 29 411 30 774 31 817
215 0.928535 0.015193 -0.389431 45 40 38 4.647018 1 521 2 556 3 493 4 716 5 675 6 521 7 478 8 434 9 424 10 411 12 379 13 474 14 467 15 506 17 437 18 458 19 481 24 493 24 494 25 657 26 508 27 550 28 504 29 401 30 743
216 0.925742 0.015178 -0.390103 37 40 43 4.638302 1 522 2 557 3 494 4 717 5 677 9 423 11 540 12 378 13 477 14 468 15 507 16 492 17 436 18 457 19 484 21 499 22 386 23 443 25 649 26 505 27 549 29 402 30 746 31 736
217 1.096551 0.018923 -0.391930 94 97 98 3.971053 1 523 2 537 4 669 5 641 6 511 7 496 9 476 23 360
218 0.848298 0.013718 -0.396398 191 194 195 5.824484 1 525 2 572 3 511 5 694 14 493 19 466 25 456 26 433 29 417 30 796
219 0.990993 0.015992 -0.390386 55 63 62 4.181151 1 528 2 550 3 485 4 698 5 669 6 522 7 493 8 452 9 453 10 429 13 481 14 459 15 494 16 488 17 448 18 481 21 525 22 366 23 409 24 507 25 793 27 610 28 498 29 394 30 726 31 661
220 1.118916 0.020328 -0.393154 98 98 92 0.326958 1 530 5 642
221 0.995363 0.015596 -0.387101 70 75 82 4.241424 1 532 2 555 3 486 4 700 7 498 9 458 11 560 12 401 13 482 14 461 15 496 16 493 17 450 18 488 19 500 21 527 23 403 24 509 25 812 26 579 27 617 28 499 29 397 30 729 31 654
222 0.864610 0.011045 -0.389825 186 192 194 5.356899 1 533 2 578 3 518 4 748 5 703 6 534 7 484 8 427 9 409 12 371 13 489 14 500 15 537 16 514 17 438 18 447 19 478 21 473 22 423 23 510 24 496 25 509 26 455 27 500 29 430 30 795 31 844
223 0.965598 0.013412 -0.388670 33 39 37 4.501176 1 535 2 568 3 499 4 721 5 679 6 533 7 503 8 461 9 457 10 431 12 403 13 492 14 472 15 508 16 507 17 451 18 485 19 505 21 524 22 380 23 427 24 512 26 558 27 599 28 509 29 404 30 742 31 704
224 0.876427 0.010288 -0.389604 185 191 191 5.425359 1 537 2 583 3 520 4 752 5 708 6 547 7 495 8 444 10 424 11 570 12 384 13 495 14 502 15 540 16 521 17 445 18 453 19 496 21 493 22 418 23 507 24 504 25 560 26 478 28 531 29 432 30 797 31 833
225 1.069257 0.013900 -0.367842 172 175 176 1.905572 1 538 6 526
226 1.110701 0.018757 -0.414118 110 113 114 3.361611 1 539 2 549 6 527 8 480 9 486 30 703
227 1.088929 0.016053 -0.393969 106 109 112 0.286026 1 542 5 663
228 1.091427 0.012633 -0.392989 104 110 112 3.964536 1 547 2 559 7 520 8 489 23 375
229 0.864973 0.007042 -0.389996 43 28 29 5.704354 1 551 2 597 3 541 4 772 5 730 6 560 7 508 8 462 9 435 10 434 11 590 12 394 13 507 14 517 15 565 16 546 17 457 18 469 19 506 21 497 22 445 23 525 24 513 25 543 26 479 27 519 28 552 29 449 30 814 31 876
230 0.864932 0.006990 -0.390074 43 28 29 5.862650 1 552 2 598 3 542 4 773 5 731 6 561 7 509 8 463 10 435 11 591 12 395 14 518 15 566 16 547 17 458 18 470 19 507 21 498 22 446 23 526 24 514 25 544 26 480 27 520 28 553 29 450 30 815 31 877
231 0.871653 0.006922 -0.388654 46 45 54 5.335767 1 553 2 599 3 539 7 511 10 436 11 592 12 397 13 508 15 563 17 461 19 512 24 521 25 561 26 484 27 526 28 548 28 550 29 447 31 861
232 0.871653 0.006922 -0.388654 46 45 54 5.478551 1 554 2 600 3 540 4 769 5 729 7 512 8 467 9 441 10 437 11 593 12 398 13 509 15 564 17 462 17 463 18 473 19 513 21 507 24 522 25 562 25 563 26 485 27 527 28 551 29 448 30 813 31 862
233 0.936345 0.007850 -0.388837 48 42 44 4.618613 1 556 2 589 3 524 4 747 5 709 6 559 7 525 8 479 9 465 10 455 11 608 12 417 13 518 14 507 15 543 16 541 17 475 18 493 19 529 21 526 22 410 25 727 27 593 28 537 29 436 30 787
234 0.932646 0.007284 -0.390128 182 193 191 4.534450 1 560 2 593 3 531 4 757 5 714 6 562 7 528 8 481 9 467 10 456 11 611 12 418 13 522 14 512 15 549 16 542 17 476 18 495 19 534 22 415 23 483 24 533 25 719 26 552 27 591 29 446 30 799 31 772
235 0.940748 0.007405 -0.389840 183 194 192 4.681265 1 561 3 528 4 753 5 711 6 563 7 531 8 484 9 468 10 457 11 617 12 419 14 510 16 543 17 479 18 500 19 536 22 413 24 534 25 740 26 560 27 601 28 541 29 442 30 791 31 759
236 0.940665 0.007234 -0.389687 183 194 192 4.800151 1 562 3 529 4 754 5 712 6 564 7 532 8 485 9 469 10 458 11 618 12 420 13 523 14 511 15 547 16 544 17 480 18 501 19 537 21 534 22 414 23 473 24 535 26 561 27 602 28 542 29 443 30 792 31 760
237 0.861958 0.004650 -0.389170 34 40 40 5.604736 1 563 2 618 3 553 4 782 5 739 6 575 7 526 8 474 9 445 10 446 11 612 12 410 13 528 14 529 15 576 16 556 17 474 19 520 22 458 23 542 24 529 26 486 27 523 28 558 29 458 31 885
238 0.835128 0.003345 -0.391202 194 197 200 5.674387 1 565 3 558 4 793 5 750 12 406 14 542 15 588 16 563 17 472 18 471 24 530 25 471 25 474 26 460 27 505 28 566 29 466 30 834
239 1.096489 0.008686 -0.390835 158 164 164 0.497693 1 566 4 724 5 682
240 0.989675 0.005639 -0.386212 55 66 66 4.638659 1 568 2 596 3 527 4 746 5 706 6 568 7 544 8 499 9 489 10 472 11 636 12 442 13 532 15 545 17 490 18 519 19 554 21 555 22 402 23 442 24 553 25 853 28 543 29 441 30 785
241 0.992594 0.006154 -0.388268 55 66 66 3.757855 1 569 3 525 4 744 5 704 9 491 10 474 11 637 13 533 18 520 19 555 22 400 24 554 29 439 30 783
242 0.943904 0.004149 -0.389766 44 44 40 4.622673 1 571 2 616 3 546 4 767 7 547 8 498 9 483 10 470 11 642 12 436 13 539 14 526 15 562 16 557 17 489 18 515 19 548 21 542 22 422 23 486 24 551 25 765 26 580 27 620 29 454 30 806 31 775
243 1.096950 0.001924 -0.394676 160 168 167 0.548257 6 582 7 565 8 519 9 524
244 1.096808 0.001979 -0.397625 113 113 109 0.414474 6 580 7 566 8 520
245 0.947460 0.000605 -0.389132 189 197 194 4.318370 1 585 2 629 3 555 4 781 5 741 6 604 7 559 8 514 9 495 10 489 12 454 13 551 14 537 15 578 16 578 17 510 18 528 19 579 22 439 23 505 24 575 25 791 28 565 29 463
246 1.106472 0.001210 -0.395395 106 109 112 0.502813 6 585 7 569
247 0.837064 -0.001656 -0.392098 129 129 131 5.811715 1 594 2 661 3 584 4 812 10 478 12 430 13 563 14 569 16 596 18 498 19 552 24 565 25 507 26 494 27 531 28 590 30 857 31 950
248 0.992546 0.001720 -0.407006 52 60 61 1.961730 1 596 9 508
249 0.834097 -0.002243 -0.390748 192 195 198 4.869279 1 597 2 663 14 570 15 617 17 499 24 563 26 490
250 0.834144 -0.002180 -0.389323 192 195 198 5.483315 1 598 2 664 3 586 14 571 15 618 16 597 17 500 19 546 24 564 25 500 26 491 27 529 28 592 30 865
251 1.076476 -0.001383 -0.378693 166 174 175 0.663214 6 593 7 571 8 521
252 1.071591 -0.001803 -0.365375 152 163 161 1.933709 1 602 6 594
253 1.097037 -0.001254 -0.397602 103 105 111 0.582743 6 597 7 572 8 540 9 533
254 1.097037 -0.001254 -0.397602 103 105 111 0.582743 6 598 7 573 8 541 9 534
255 1.091623 -0.001445 -0.383244 101 107 107 3.382445 1 606 2 628 6 611 8 543 30 794 31 638
256 0.981096 -0.004320 -0.388933 191 197 195 3.712484 1 614 2 656 3 572 4 790 5 753 6 623 7 583 9 523 10 521 11 708 12 485 13 580 14 559 15 592 16 595 22 448 24 601 25 893 26 645 27 684 28 585 29 481 30 833 31 777
257 0.953772 -0.004586 -0.389027 190 198 195 4.108095 1 617 2 657 3 576 4 800 5 759 6 624 7 581 8 536 9 517 10 517 11 702 12 476 13 583 14 561 15 602 16 598 17 536 18 555 19 612 22 459 24 599 25 835 27 660 28 586 30 841 31 816
258 0.953359 -0.004701 -0.388309 190 198 195 4.238607 1 618 2 658 3 577 4 801 5 760 6 625 7 582 8 537 10 518 11 703 15 601 16 599 17 537 18 556 19 613 24 600 25 836 27 661 30 842 31 815
259 0.915938 -0.004939 -0.391024 185 191 191 4.823857 1 623 2 669 4 808 5 765 6 632 8 530 9 512 10 506 11 698 12 473 13 588 14 568 17 532 18 547 19 606 22 473 25 746 27 627 28 594 29 489 30 852 31 875
260 1.090814 -0.006132 -0.395065 157 165 166 0.469520 6 617 7 591 8 549 9 547
261 0.838883 -0.007028 -0.392936 147 146 150 1.354187 1 631 2 683 10 502 12 457 28 613
262 1.094113 -0.007141 -0.393776 106 109 108 0.393473 6 619 7 593
263 0.835313 -0.009451 -0.386966 183 189 191 6.111550 1 639 4 844 5 799 10 507 12 471 13 603 15 660 16 636 17 542 18 534 19 602 24 606 26 529 27 564 28 618 29 509 30 888 31 979
264 0.959707 -0.008499 -0.389124 42 48 50 4.321516 1 640 4 809 5 766 6 644 11 732 12 497 13 598 16 615 18 569 24 607 25 857 29 492 31 830
265 0.957420 -0.008365 -0.388828 42 48 50 4.443331 1 641 4 810 5 767 7 596 8 548 9 532 10 529 11 733 12 498 13 599 14 573 15 610 16 616 17 545 18 570 19 627 21 585 22 467 23 522 24 608 25 858 26 644 28 598 29 493 30 855 31 831
266 0.974934 -0.009704 -0.389692 41 49 48 4.720093 1 642 2 673 3 589 5 768 6 649 7 598 8 554 14 577 15 611 16 618 18 579 21 594 22 465 23 516 24 615 25 908 26 659 27 702 28 601 29 496 30 853 31 811
267 0.975550 -0.009754 -0.389226 41 49 48 3.854678 1 643 2 674 5 769 6 650 7 599 8 555 9 538 10 533 12 505 14 578 16 619 18 580 22 466 24 616 25 909 27 703 28 602 30 854 31 812
268 1.076831 -0.010533 -0.368199 118 118 120 1.953793 1 645 6 635
269 0.910195 -0.010553 -0.389803 29 35 35 5.298404 1 649 2 688 3 603 4 823 5 782 6 662 7 601 8 551 9 527 10 531 11 743 12 495 13 605 14 591 15 637 16 628 17 551 18 567 19 628 21 573 22 492 23 561 24 613 25 768 26 608 27 640 28 610 29 505 30 869 31 893
270 0.894480 -0.010727 -0.389445 30 33 34 5.254732 1 650 2 692 3 607 4 832 5 786 6 670 7 600 8 550 9 525 10 528 11 740 12 492 13 608 14 599 15 644 16 633 17 549 18 566 19 626 23 573 24 612 25 731 26 596 28 616 29 507 30 879 31 920
271 0.960867 -0.011442 -0.386715 184 197 196 3.951431 1 654 2 680 3 596 4 817 6 659 7 607 8 564 9 540 11 750 12 511 15 629 17 557 18 582 26 657 28 605 29 501 30 866
272 0.967943 -0.011512 -0.387375 188 196 193 4.314283 1 656 2 678 3 595 4 816 5 776 6 661 7 612 8 571 9 543 10 543 11 753 12 513 13 609 14 582 15 626 16 626 17 559 18 588 19 638 22 474 23 524 24 621 25 906 29 500 30 864 31 832
273 1.097852 -0.012884 -0.395650 146 154 155 0.435413 6 645 7 621 8 578 9 585
274 0.903338 -0.013070 -0.388667 183 189 191 4.894905 1 667 2 697 3 616 4 840 5 798 6 677 7 616 8 566 9 537 10 538 11 754 12 506 13 614 15 656 16 640 17 561 18 576 19 635 22 501 24 622 25 766 26 615 27 649 28 622 29 515 30 886
275 1.110011 -0.013147 -0.406536 115 118 119 1.517740 7 626 8 591 9 596 31 698
276 0.962439 -0.013822 -0.387821 192 198 196 4.084504 1 670 2 695 3 605 4 822 5 784 6 675 7 624 8 575 10 552 11 768 12 525 13 617 14 600 15 639 16 637 17 569 19 643 22 477 24 630 25 907 26 670 27 711 28 617 29 508 30 868 31 855
277 0.968434 -0.015595 -0.388266 48 44 49 4.280350 1 671 3 609 5 787 6 678 7 627 8 587 9 566 10 563 11 784 13 619 15 645 16 641 17 573 18 600 19 657 22 482 23 547 25 931 26 679 27 716 28 620 29 511 30 874 31 856
278 0.968501 -0.015878 -0.385278 48 44 49 4.617281 1 672 2 698 3 610 5 788 6 679 7 628 8 588 9 567 10 564 11 785 13 620 15 646 16 642 17 574 22 483 25 932 26 680 28 621 29 512 30 875 31 857
279 0.972147 -0.015788 -0.387104 188 196 195 4.066553 1 675 2 699 3 611 4 828 5 789 6 682 7 629 9 571 10 566 11 789 12 528 13 623 14 601 15 647 17 578 19 658 22 478 24 637 25 948 27 721 28 623 29 513 31 853
280 0.972101 -0.015796 -0.387085 188 196 195 4.155858 1 676 2 700 3 612 4 829 5 790 6 683 7 630 8 589 9 572 10 567 11 790 12 529 13 624 14 602 15 648 16 644 17 579 18 602 19 659 22 479 23 541 24 638 25 949 27 722 28 624 29 514 31 854
281 0.895915 -0.016380 -0.388826 176 187 187 5.443288 1 677 2 713 3 631 4 853 5 813 7 631 8 582 9 545 10 553 11 778 12 516 13 628 14 619 15 671 16 655 17 572 18 589 19 644 21 588 22 519 23 589 24 631 25 767 26 626 27 659 29 525 30 894 30 895 31 945
282 0.962296 -0.016316 -0.388466 188 196 193 3.654489 1 678 2 706 3 617 4 837 5 796 6 686 7 638 8 594 9 569 12 530 22 490 28 626 29 517 30 880 31 878
283 0.964924 -0.016761 -0.387747 189 197 196 4.016973 1 679 2 708 3 619 4 835 5 794 6 688 8 597 9 575 11 792 13 626 14 609 15 652 16 650 17 580 18 605 19 661 21 612 22 488 23 553 25 933 26 681 27 719 31 867
284 0.964924 -0.016761 -0.387747 189 197 196 4.257231 1 680 2 709 3 620 4 836 5 795 6 689 8 598 9 576 11 793 12 537 13 627 14 610 15 653 16 651 17 581 18 606 19 662 22 489 23 554 24 641 25 934 26 682 27 720 28 629 29 519 30 882 31 868
285 0.900090 -0.016644 -0.388506 50 44 50 4.777121 1 681 2 715 3 632 4 850 5 810 6 695 7 633 8 583 9 548 10 556 11 780 12 522 13 630 15 667 16 656 17 577 18 590 19 646 22 514 24 633 25 776 26 633 28 636 29 527 31 939
286 0.899903 -0.016659 -0.388379 50 44 50 4.966057 1 682 6 696 7 634 8 584 9 549 10 557 11 781 12 523 15 668 16 657 18 591 19 647 22 515 25 777 26 634 28 637 29 528 31 940
287 0.899967 -0.016599 -0.388196 50 44 50 4.814637 1 683 2 716 3 633 4 851 5 811 6 697 7 635 8 585 9 550 9 551 10 558 11 782 12 524 13 631 15 669 16 658 18 592 19 648 19 649 22 516 22 517 24 634 25 778 26 635 28 638 29 529 31 941
288 0.900017 -0.016578 -0.388069 50 44 50 4.686122 1 684 2 717 3 634 4 852 5 812 6 698 7 636 8 586 9 552 10 559 11 783 12 521 13 632 15 670 16 659 17 576 18 593 19 645 19 650 22 518 24 635 25 779 28 639 29 530 31 942
289 0.936277 -0.017838 -0.387941 26 32 30 0.675807 1 687 11 801 12 534
290 0.969702 -0.018248 -0.387653 42 48 48 5.363756 1 688 2 711 3 627 4 841 5 801 6 693 7 642 8 603 9 588 10 573 11 806 12 542 13 636 14 616 15 662 16 653 17 593 18 611 19 670 21 619 23 557 24 654 25 954 26 688 27 730 28 633
291 0.957416 -0.019531 -0.388803 39 47 48 4.588308 1 691 2 719 3 630 4 845 5 804 6 701 7 646 9 593 10 574 14 620 16 662 17 594 18 614 19 674 22 499 23 560 25 927 26 686 27 726 28 641 29 531 30 889 31 888
292 0.970657 -0.020298 -0.386538 55 58 61 4.387785 1 692 1 694 2 721 4 847 5 805 6 702 7 649 11 822 11 824 12 546 13 640 16 663 17 596 18 618 19 679 22 495 24 657 25 965 26 689 26 691 29 532
293 1.080427 -0.021393 -0.386543 121 124 123 0.658658 1 698 2 710 12 572
294 1.089922 -0.024110 -0.394761 153 161 162 0.684203 6 694 7 658 9 628
295 0.904622 -0.021061 -0.384700 186 199 196 5.150282 1 700 2 741 3 643 4 861 6 711 7 654 8 606 9 579 10 575 11 820 13 645 14 630 15 680 16 677 18 608 19 671 22 532 24 659 25 809 27 696 28 658 29 544 30 908
296 0.904622 -0.021061 -0.384700 186 199 196 5.041071 1 701 2 742 3 644 4 862 6 712 7 655 8 607 9 580 10 576 11 821 13 646 14 631 15 681 16 678 17 598 18 609 19 672 22 533 24 660 25 810 26 653 27 697 28 659 29 545 30 909
297 1.089183 -0.025533 -0.396059 83 83 85 0.489316 6 700 7 664 8 634 9 635
298 0.897995 -0.022071 -0.383899 183 189 189 4.527261 1 706 2 744 4 871 5 828 5 830 6 714 7 657 7 660 8 610 8 611 9 589 10 580 11 830 12 544 13 648 14 635 15 686 16 681 17 602 18 612 19 676 22 535 26 651 27 693 28 660
299 0.837839 -0.022053 -0.387127 143 142 144 5.394101 1 709 3 667 4 890 5 847 12 536 13 663 15 707 16 704 17 601 18 599 19 665 24 664 25 632 28 677 31 1031
300 0.970941 -0.023308 -0.388372 189 195 193 3.454464 1 710 2 735 7 666 8 624 9 615 10 595 11 845 12 570 13 649 17 610 19 698 28 648
301 0.972701 -0.021870 -0.394875 189 195 193 4.981665 1 711 2 736 7 667 8 625 9 616 10 596 11 846 12 571 13 650 17 611 19 699 28 649 30 900 31 890
302 0.965100 -0.023655 -0.386003 47 47 49 4.707735 1 712 2 737 4 856 6 707 7 670 8 622 9 613 10 591 11 843 12 567 13 658 14 627 15 673 16 674 17 612 18 633 19 695 22 506 23 567 24 671 25 969 27 743 29 539
303 0.965100 -0.023655 -0.386003 47 47 49 4.594716 1 713 2 738 4 857 5 817 6 708 7 671 8 623 9 614 10 592 11 844 12 568 13 659 14 628 15 674 16 675 17 613 18 634 19 696 22 507 23 568 24 672 25 970 27 744 29 540
304 0.901585 -0.023230 -0.380090 38 37 41 5.999260 1 716 2 748 3 653 4 875 5 836 6 721 7 673 8 615 9 598 10 582 11 840 12 549 13 669 14 641 15 691 16 689 17 607 18 620 19 682 22 537 24 669 25 820 26 664 27 705 28 665 29 550 30 922 31 965
305 0.907188 -0.025070 -0.383108 26 32 30 4.953402 1 720 2 757 3 658 4 877 5 839 6 730 7 676 8 630 9 605 10 597 11 853 12 559 13 673 14 646 15 696 17 615 18 627 19 689 22 544 24 675 25 844 26 675 27 714 29 554 31 966
306 0.975631 -0.027282 -0.386428 50 58 59 2.847747 1 724 2 750 4 860 5 826 6 717 7 679 8 638 9 626 10 608 12 578 13 678 15 682 16 691 17 623 18 652 22 520 26 718 27 761
307 0.963770 -0.026919 -0.386406 39 49 52 4.730617 1 725 2 752 3 651 4 866 5 827 6 723 7 683 8 636 9 624 10 606 14 639 15 685 17 624 19 709 22 524 23 579 26 709 27 754 28 666 29 552 30 913 31 914
308 0.837954 -0.026540 -0.388014 108 108 110 5.477614 1 734 2 777 4 907 5 869 11 859 12 551 14 672 16 723 17 621 18 615 19 683 24 680 25 668 27 648 30 948 31 1049
309 0.837643 -0.026694 -0.387400 108 108 110 4.662177 1 735 3 680 4 908 11 860 12 552 14 673 17 622 18 616 19 684 25 667 26 617 27 647 28 689
310 0.836325 -0.026756 -0.388010 118 124 126 5.204722 1 736 2 779 3 681 4 910 5 873 12 553 13 693 14 675 16 727 17 625 18 617 19 685 25 666 26 616 27 646 28 690 29 575 30 950 31 1054
311 0.980190 -0.030529 -0.386136 187 198 194 4.106766 1 740 2 765 3 664 4 876 5 838 6 735 8 652 10 626 11 902 12 595 13 692 14 651 15 695 16 709 17 641 19 731 22 531 24 698 25 1018 26 725 27 770 28 680 29 562 30 924 31 913
312 0.836809 -0.027841 -0.387225 180 183 184 5.279224 1 743 2 786 3 689 4 913 10 600 11 866 12 561 13 701 14 687 15 732 16 735 17 632 18 623 19 700 25 677 26 623 27 657 28 695 29 581
313 0.989745 -0.039230 -0.384819 50 58 59 4.223854 1 778 2 795 3 690 4 899 5 862 6 762 8 691 10 653 11 950 12 615 13 735 14 681 15 718 16 745 17 671 18 686 19 766 22 556 24 728 25 1054 26 763 27 801 28 703 29 589 30 944 31 937
314 0.885417 -0.038966 -0.394837 181 184 185 7.269290 1 783 2 808 3 709 5 895 6 777 9 652 15 753 21 648 22 607 23 656 25 851 26 694 27 735 30 971 31 1041
315 0.882968 -0.036932 -0.385054 181 184 185 5.261724 1 784 2 809 3 710 4 942 5 896 6 778 7 732 9 653 10 639 11 932 12 600 14 705 15 754 16 763 18 675 19 744 22 608 24 727 25 850 26 693 27 734 28 720 30 972 31 1042
316 1.081337 -0.043632 -0.387559 100 100 102 0.171544 1 787 12 629
317 0.993330 -0.042628 -0.385307 185 196 194 3.957564 1 792 2 803 3 701 4 911 5 875 6 771 7 744 8 701 9 688 10 663 11 964 12 623 13 740 14 697 15 730 16 759 17 676 18 693 19 775 22 564 24 732 25 1066 26 773 27 815 28 714 30 955 31 955
318 1.085327 -0.048249 -0.389294 132 140 137 3.915306 1 800 7 748 8 715 9 718 12 650
319 0.877595 -0.041881 -0.385139 27 30 31 4.827007 1 802 2 822 5 919 6 797 6 800 9 675 10 657 11 958 12 617 14 721 15 772 16 783 17 680 19 769 22 623 26 708 27 753 28 735 30 990 31 1066
320 0.933607 -0.044021 -0.389352 43 46 45 4.176661 1 803 2 817 3 722 5 903 6 786 7 752 8 707 9 689 10 664 12 624 13 747 13 749 14 712 16 771 16 773 18 694 19 776 22 591 22 593 24 739 25 1004 26 749 27 792 28 731 29 607 30 977 31 1018
321 0.933349 -0.044093 -0.388038 43 46 45 3.785914 1 804 2 818 3 723 4 948 5 904 6 787 7 753 8 708 9 690 10 665 12 625 13 748 13 750 14 713 16 772 16 774 18 695 19 777 22 592 22 594 25 1003 26 750 27 791 28 732 30 978 31 1019
322 0.991902 -0.046335 -0.384993 187 195 194 3.030455 1 805 2 815 3 716 4 930 5 888 6 783 7 754 8 714 9 704 10 668 12 635 13 751 15 741 17 683 18 706 19 782 25 1073 26 781 27 826
323 0.994595 -0.046469 -0.387561 187 195 194 2.460167 1 806 2 816 3 717 4 931 5 889 13 752 15 742 26 782
324 0.997443 -0.046218 -0.384603 63 71 72 3.917213 1 807 3 713 3 715 4 926 4 928 5 884 5 887 6 780 7 750 8 712 9 705 10 669 11 974 13 746 14 708 15 740 16 767 17 682 18 704 19 781 22 568 24 743 25 1078 26 783 27 829 28 724 28 730 29 604 30 964 31 958
325 0.863113 -0.042237 -0.386268 29 32 33 5.107232 1 810 2 834 3 734 4 969 5 933 6 807 7 760 8 709 10 658 11 959 12 618 13 757 14 728 15 778 16 790 18 687 19 770 22 637 25 841 26 702 27 748 28 743 30 1000 31 1083
326 0.939243 -0.045325 -0.388492 178 184 182 3.454093 1 812 2 821 3 724 4 953 5 908 6 790 7 757 8 719 9 694 10 667 12 627 13 756 14 717 15 763 16 776 17 684 18 697 19 779 22 599 27 796 31 1017
327 1.006874 -0.049317 -0.386314 188 199 197 0.986882 1 815 2 820 5 901 12 652
328 0.926888 -0.046550 -0.380554 176 182 180 5.371628 1 818 2 838 3 733 4 963 6 806 7 770 8 725 9 707 10 675 11 981 12 636 14 726 15 771 16 789 17 688 18 707 22 614 24 748 26 759 27 797 28 746 29 625 30 994 31 1035
329 0.939035 -0.047157 -0.380543 176 182 182 4.431834 1 819 2 833 2 837 3 732 4 959 5 915 6 804 7 768 10 677 11 983 12 642 13 762 14 724 15 766 16 787 17 690 18 709 19 791 22 611 27 803 28 745 29 621 30 988 31 1023
330 0.996415 -0.050196 -0.383169 189 197 194 3.886888 1 820 3 725 4 947 6 791 7 769 8 730 9 724 10 687 11 989 12 657 13 760 14 715 15 760 16 778 17 694 18 723 19 801 22 581 28 734 29 614 30 979 31 971
331 0.932675 -0.047419 -0.382687 174 182 179 5.074559 1 821 2 835 3 730 4 960 5 918 6 805 7 773 8 729 9 712 10 678 11 984 12 639 13 763 14 725 15 769 16 788 17 692 18 710 19 789 22 613 24 750 25 1019 26 761 27 802 28 747 29 623 30 993 31 1028
332 0.996978 -0.050104 -0.393925 63 66 69 4.728111 1 822 2 824 3 726 4 949 5 905 6 792 7 774 8 733 9 725 10 688 11 992 13 764 16 779 17 695 18 729 19 802 24 756 25 1087 26 796 29 615 30 981 31 976
333 0.996978 -0.050104 -0.393925 63 66 69 4.949283 1 823 2 825 4 950 5 906 6 793 7 775 8 734 10 689 11 993 12 659 13 765 16 780 17 696 18 730 19 803 24 757 25 1088 26 797 28 738 29 616 30 982 31 977
334 0.996978 -0.050104 -0.393925 63 66 69 4.693485 1 824 2 826 3 727 4 951 5 907 6 794 7 776 8 735 9 726 10 690 11 994 12 660 13 766 16 781 17 697 18 731 19 804 24 758 25 1089 26 798 29 617 30 983 31 978
335 0.990359 -0.050343 -0.384905 51 56 61 4.344943 1 825 2 827 3 728 5 910 6 795 7 777 8 732 9 727 10 691 11 995 12 658 13 767 15 761 16 784 17 698 18 732 19 805 22 583 24 759 25 1086 26 792 28 740 30 984 31 980
336 1.042928 -0.055166 -0.386345 198 201 200 3.619266 1 826 2 830 4 946 6 808 7 782
337 1.003454 -0.052074 -0.387400 192 198 198 3.052396 1 828 2 829 3 729 4 952 5 911 6 801 7 780 8 742 10 704 12 675 13 768 14 719 15 762 16 785 17 701 18 741 22 582 25 1105 26 810 27 843 30 985
338 1.087391 -0.055842 -0.391590 110 121 119 4.013602 1 830 7 781 8 755 9 768 12 691
339 0.942266 -0.050042 -0.388688 40 36 41 4.365352 1 831 2 842 3 742 5 931 6 816 7 784 8 745 9 720 10 692 11 991 12 653 14 734 16 793 17 704 18 720 19 797 22 616 25 1032 26 771 27 812 28 749 29 627 30 1001 31 1032
340 0.876382 -0.047416 -0.385878 175 183 184 4.969666 1 834 2 856 3 752 4 982 5 947 7 786 8 737 9 702 10 671 11 978 12 633 13 770 14 749 15 790 16 809 17 699 18 701 19 784 22 648 25 913 27 766 28 756 29 642 30 1016 31 1091
341 0.864587 -0.047569 -0.385979 175 181 181 5.205492 1 838 2 861 3 755 4 992 5 953 6 835 7 794 8 741 9 701 10 672 11 980 12 632 13 776 14 750 15 800 16 813 17 703 18 700 19 783 22 657 25 885 26 721 27 764 28 760 29 647 30 1021 31 1107
342 0.930105 -0.049930 -0.380107 54 50 55 5.423004 1 839 2 849 3 744 4 970 5 936 6 819 7 789 8 748 9 728 10 696 11 998 12 661 13 771 14 738 15 779 16 800 17 706 18 725 22 620 24 768 25 1025 27 806 29 636 30 1006
343 0.931622 -0.050211 -0.382700 54 50 55 4.786600 1 840 1 841 2 850 4 971 5 937 6 821 8 749 9 729 10 697 11 999 12 662 14 739 15 780 16 801 17 707 18 726 19 806 25 1026 27 807 29 637 30 1007
344 0.930105 -0.049930 -0.380107 54 50 55 5.751877 1 842 2 851 3 745 4 972 5 938 6 822 7 790 8 750 9 730 10 698 11 1000 12 663 13 772 14 740 15 781 16 802 17 708 18 727 19 807 22 621 23 665 24 769 25 1027 27 808 29 638 30 1008
345 0.996831 -0.053661 -0.384303 65 60 68 4.148741 1 844 2 839 3 735 4 956 5 917 6 811 7 792 8 758 9 747 10 708 11 1013 12 678 13 774 14 727 15 764 16 792 17 713 18 745 19 819 22 590 24 772 25 1106 26 812 27 846 28 748 29 626 30 989 31 989
346 0.992583 -0.054203 -0.384216 188 196 197 4.365372 1 846 2 844 3 737 4 961 5 922 6 814 7 798 8 762 9 753 11 1019 12 680 13 778 14 729 15 770 16 795 17 716 18 748 19 821 22 602 24 776 25 1101 26 813 27 847 29 631 30 997
347 0.993581 -0.054335 -0.385790 188 196 197 3.822153 1 847 2 845 3 739 4 962 5 925 6 815 7 799 8 764 9 755 10 716 11 1022 12 682 13 781 14 731 16 797 17 717 18 753 19 824 22 603 25 1103 26 816 29 633 30 998
348 1.008323 -0.056692 -0.390842 192 200 199 3.736251 1 848 2 841 4 958 6 813 7 797 8 766 9 757 17 719 22 588 27 857 29 630 31 984
349 0.846930 -0.049584 -0.393806 183 186 187 4.947018 1 854 2 878 3 767 19 795 26 720 27 759 29 669 30 1034
350 1.008699 -0.057591 -0.386756 64 71 75 3.206321 1 855 2 858 3 747 5 929 6 825 7 806 8 779 9 770 10 727 12 696 13 785 14 736 15 775 16 807 17 731 18 766 22 609 26 835 27 865 30 1002 31 994
351 0.997803 -0.057068 -0.384864 47 53 55 4.301722 1 859 2 860 3 751 4 967 5 934 6 830 7 812 8 781 10 726 11 1036 12 694 13 793 14 742 15 777 16 811 17 735 18 765 19 841 24 790 25 1123 26 829 27 862 28 759 29 648 30 1005
352 0.936705 -0.054225 -0.386519 174 182 179 4.777919 1 861 2 863 3 756 4 980 5 948 6 837 7 813 8 776 9 750 10 717 11 1023 12 679 13 794 14 751 15 789 16 815 17 728 18 746 19 820 22 631 24 786 25 1044 26 779 27 824 28 765 29 652 30 1018
353 0.931494 -0.054905 -0.383203 171 177 175 4.128965 1 862 2 868 4 985 7 816 8 782 9 758 10 720 11 1026 14 753 15 795 16 818 17 732 18 754 19 827 22 636 28 766 30 1022 31 1057
354 0.990297 -0.057444 -0.385367 56 62 62 4.297044 1 864 2 862 3 754 5 941 6 832 9 771 10 729 11 1039 12 697 13 795 14 748 15 784 16 812 17 737 18 767 19 842 22 615 24 793 25 1113 26 828 27 859 28 762 29 649 30 1012 31 1014
355 0.989019 -0.057046 -0.383384 56 62 62 4.786301 1 865 5 940 6 833 11 1040 14 747 19 843 23 642 25 1114 27 860 28 761 30 1011 31 1013
356 0.933631 -0.054172 -0.370544 30 36 36 8.139436 1 869 2 870 3 758 4 988 5 952 9 763 10 723 11 1032 12 690 13 798 14 756 15 797 16 819 17 736 19 835 21 737 23 674 24 794 26 789 27 834 29 655 31 1052
357 0.873901 -0.052255 -0.387109 175 181 181 5.185609 1 870 2 881 4 1006 5 965 6 846 7 820 8 777 9 743 10 707 11 1010 12 674 13 800 14 766 15 811 17 730 18 736 19 815 22 665 25 940 26 740 28 775 29 660 30 1030 31 1112
358 0.864807 -0.051694 -0.374630 172 178 178 7.358576 1 871 2 882 3 770 3 771 4 1012 5 970 6 848 7 821 8 778 9 742 10 705 11 1007 13 801 13 803 16 828 17 729 17 734 18 734 19 813 22 669 22 670 23 732 25 922 26 735 27 781 28 780 29 666 30 1037 31 1118
359 0.924117 -0.055825 -0.379983 30 33 34 4.298553 1 872 2 876 3 766 4 995 5 958 6 843 7 824 8 784 10 725 11 1035 12 693 13 804 14 763 15 806 16 825 17 739 18 763 19 836 22 645 26 786 27 831 28 776 31 1075
360 0.839531 -0.035897 -0.297387 36 36 38 60.702635 1 899 2 912 3 793 4 1032 5 994 6 871 7 850 8 811 9 779 11 1043 12 699 14 794 15 841 17 755 18 768 19 844 22 700 24 815 25 952 26 764 27 798 28 803 29 685 30 1058
361 0.979876 -0.066163 -0.384571 191 194 195 3.983157 1 901 2 897 5 973 6 859 7 851 8 821 9 817 10 746 11 1061 12 717 13 833 14 778 16 841 17 763 18 790 22 649 26 852 28 792 31 1050
362 0.980085 -0.066396 -0.385293 191 194 195 3.960862 1 902 2 898 3 782 4 1011 5 974 6 860 7 852 8 822 9 818 10 747 11 1062 12 718 13 834 14 779 15 818 16 842 17 764 18 791 19 866 22 650 25 1132 26 851 27 880 28 793 29 682
363 0.976562 -0.069890 -0.385814 50 49 58 3.992446 1 912 2 916 3 791 4 1018 5 984 6 870 7 860 8 833 9 835 10 758 11 1076 12 732 13 848 14 793 16 859 17 773 18 803 19 883 22 661 25 1138 26 863 27 888 28 809 29 694 30 1056 31 1072
364 0.976135 -0.069355 -0.384499 50 49 58 1.648962 1 913 3 792 4 1019 31 1073
365 0.964906 -0.070228 -0.385018 43 48 55 4.154007 1 917 2 920 4 1024 5 989 6 875 9 841 10 762 11 1079 12 735 14 797 15 835 16 867 17 776 18 806 19 886 22 667 24 834 26 859 27 887 28 812 29 695 30 1057 31 1081
366 0.957997 -0.069794 -0.385459 44 46 52 4.358646 1 918 2 921 3 799 4 1025 5 990 6 877 7 863 8 838 9 840 10 761 11 1078 12 734 13 852 14 799 15 837 16 868 17 778 18 805 19 885 22 674 25 1124 26 858 27 882 28 813 29 699 30 1062 31 1090
367 0.968878 -0.074690 -0.383985 189 195 195 4.654728 1 925 18 817 22 677 24 846 25 1143
368 0.961093 -0.073155 -0.384737 188 196 195 4.210613 1 926 2 929 4 1040 5 1003 6 884 7 870 8 844 9 851 10 768 11 1086 12 743 13 864 14 809 15 848 16 876 17 785 18 814 19 893 22 678 28 822 29 705 30 1072 31 1096
369 0.961093 -0.073155 -0.384737 188 196 195 4.210613 1 927 2 930 4 1041 5 1004 6 885 7 871 8 845 9 852 10 769 11 1087 12 744 13 865 14 810 15 849 16 877 17 786 18 815 19 894 22 679 28 823 29 706 30 1073 31 1097
370 0.911137 -0.071335 -0.385285 30 33 32 5.123446 1 929 2 934 3 816 4 1053 5 1018 6 893 7 876 8 851 9 848 10 767 11 1085 12 742 13 867 14 824 15 862 16 890 17 789 18 812 19 892 22 706 25 1070 26 839 27 871 28 832 29 714 30 1084 31 1145
371 0.972473 -0.076623 -0.383911 52 46 52 5.136275 1 932 3 809 8 854 9 861 10 775 11 1093 12 753 13 868 14 815 15 854 16 885 17 794 18 822 24 853 25 1147 26 869 27 895 28 829 29 710 30 1074 31 1098
372 0.965049 -0.077120 -0.384690 63 62 64 4.638195 1 934 2 936 3 812 4 1047 5 1009 6 890 7 880 8 857 9 865 10 776 11 1095 12 755 13 873 14 820 15 857 16 887 17 796 18 823 19 902 22 693 24 855 25 1145 26 871 27 893 28 834 29 718 31 1110
373 0.965049 -0.077120 -0.384690 63 62 64 4.638195 1 935 2 937 3 813 4 1048 5 1010 6 891 7 881 8 858 9 866 10 777 11 1096 12 756 13 874 14 821 15 858 16 888 17 797 18 824 19 903 22 694 24 856 25 1146 26 872 27 894 28 835 29 719 31 1111
374 0.974059 -0.078616 -0.382483 37 43 45 4.812204 1 936 5 1011 6 894 7 884 8 861 9 868 10 778 11 1098 13 878 14 825 16 892 17 799 18 825 22 689 26 877 28 837 30 1082 31 1102
375 0.974059 -0.078616 -0.382483 37 43 45 4.608752 1 937 5 1012 6 895 7 885 8 862 9 869 10 779 11 1099 13 879 14 826 16 893 17 800 18 826 22 690 28 838 30 1083 31 1103
376 0.970583 -0.080988 -0.387111 189 195 193 7.794601 1 944 3 820 13 883 23 740 24 865 28 842
377 0.969908 -0.081005 -0.387729 189 195 193 4.608128 1 945 3 821 8 867 9 876 11 1101 12 763 13 884 14 832 15 863 16 898 18 830 19 906 25 1152 26 880 27 902 28 843 29 727 30 1089
378 0.962588 -0.080882 -0.386143 189 197 196 4.091044 1 946 2 944 3 829 4 1058 5 1024 6 907 9 877 10 783 11 1102 12 764 13 886 14 839 15 869 16 903 17 806 18 831 19 907 22 703 26 878 27 901 28 846 29 730 30 1095 31 1123
379 0.979487 -0.086686 -0.391906 40 46 48 1.358032 18 837 25 1162
380 0.970033 -0.084780 -0.386497 51 49 56 5.036669 1 952 2 948 3 834 4 1061 5 1030 6 911 7 894 8 872 9 887 10 789 11 1110 12 770 13 893 14 847 15 876 16 908 17 813 18 836 19 912 22 710 22 711 23 750 24 875 25 1157 25 1158 26 893 27 909 27 910 28 848 29 734 30 1102 31 1126
381 0.946454 -0.085993 -0.407786 21 28 22 0.226653 1 955 29 736
382 0.907585 -0.081695 -0.385162 177 183 183 5.737484 1 956 2 959 3 842 4 1077 5 1044 6 923 7 900 8 878 9 886 11 1106 13 899 17 818 18 835 19 910 24 878 25 1100 27 891 29 739
383 0.976912 -0.088674 -0.385452 57 57 61 4.304249 1 957 2 957 3 839 4 1070 5 1038 6 919 7 902 8 881 9 893 10 794 11 1115 12 775 13 901 14 853 15 884 16 913 17 821 18 844 19 916 22 718 25 1165 28 851 29 738 30 1108 31 1135
384 0.912328 -0.088652 -0.390753 32 32 32 5.612431 1 961 2 966 3 850 7 910 8 886 9 900 10 795 11 1116 12 776 13 911 14 868 15 901 16 924 17 827 18 845 22 743 25 1129 26 882 27 904 28 860 29 746 29 748 30 1120 31 1169
385 2.104228 1.443623 -1.219597 107 100 90 4.393405 2 3 4 5 5 5 6 5 7 6 8 5 9 5 31 6
386 1.127780 0.334009 -0.411121 27 27 21 0.934118 2 13 3 7 10 0
387 1.102540 0.197495 -0.406847 56 55 55 0.566999 2 32 3 33
388 1.108587 0.193454 -0.417860 77 72 70 4.115362 2 40 3 44 5 84 6 47
389 1.067512 0.171046 -0.377735 111 112 108 0.711925 2 45 4 99 5 93
390 1.074930 0.176717 -0.399911 84 79 77 1.579851 2 59 15 45
391 1.099751 0.180547 -0.411597 122 123 119 3.937978 2 61 3 72 4 132 6 58
392 1.068829 0.167036 -0.376543 82 79 76 2.878884 2 64 3 77 4 136 5 127 29 21 30 35
393 0.834758 0.130543 -0.386988 159 159 155 2.871235 2 69 4 150 5 145 12 27 17 17 19 46 26 11 27 28
394 1.079569 0.158637 -0.377520 84 83 85 1.780609 2 75 3 92 5 147 30 42
395 1.084439 0.155936 -0.384474 85 79 81 0.759643 2 81 4 159 5 150
396 2.083569 0.570875 -1.249747 85 74 67 2.083430 2 83 31 60
397 1.077217 0.148215 -0.377524 98 97 97 0.613988 2 89 4 165
398 1.098556 0.152102 -0.385701 133 133 129 0.286616 2 90 5 156
399 1.117014 0.147334 -0.415678 125 125 129 2.026301 4 188 5 177 6 100
400 1.078244 0.135697 -0.376575 159 163 158 2.118545 2 109 4 187 5 175 30 99
401 1.009496 0.119398 -0.381456 77 80 83 0.092183 2 123 4 216
402 1.009496 0.119398 -0.381456 77 80 83 0.092183 2 124 4 217
403 1.098599 0.122158 -0.402391 112 115 114 1.951279 4 234 7 126
404 1.088074 0.116286 -0.386436 158 161 160 0.916488 2 158 4 241 5 228
405 0.973570 0.096666 -0.383446 56 59 58 4.861328 2 181 3 185 4 277 5 265 6 173 7 132 8 108 8 112 9 117 10 93 11 90 13 130 14 112 15 143 16 136 17 118 18 149 19 142 22 99 23 127 24 162 27 228 28 110 29 115 30 224 31 206
406 0.946062 0.092699 -0.384199 36 42 40 3.940148 2 183 3 194 4 285 5 272 6 175 7 128 10 95 13 133 14 125 15 150 16 142 17 116 19 147 22 110 25 328 26 188 27 213 28 124 30 255 31 260
407 0.982523 0.091198 -0.394251 54 62 61 0.733910 14 155 15 179 16 174
408 0.942362 0.083560 -0.384431 45 44 44 3.285493 2 224 4 340 10 128 12 138 13 177 16 181 18 172 19 183 22 137 28 170 30 306 31 312
409 0.935833 0.083256 -0.385290 41 44 43 4.025140 2 225 3 230 4 346 5 316 7 168 9 143 10 126 11 124 12 134 13 173 15 192 16 179 17 149 19 181 22 139 25 344 26 205 27 236 28 171 29 154 30 311 31 325
410 0.927770 0.081985 -0.387909 32 38 40 5.134445 2 227 3 237 4 349 6 215 7 169 8 138 9 141 12 139 15 203 16 188 19 186 25 324 27 225 28 177
411 1.138745 0.107030 -0.428507 68 68 72 4.252506 2 229 6 245 7 223 30 260
412 0.939578 0.080841 -0.384808 185 193 190 4.078240 2 235 3 249 4 359 5 334 7 181 8 147 11 128 12 148 15 210 17 167 19 193 22 157 24 210 26 216 27 253 28 184 29 165 30 322 31 336
413 0.939578 0.080841 -0.384808 185 193 190 5.091948 2 236 3 250 4 360 5 335 6 223 7 182 8 148 10 138 11 129 12 149 13 188 14 181 15 211 16 199 17 168 19 194 21 231 22 158 23 191 24 211 25 368 26 217 27 254 28 185 29 166 30 323 31 337
414 0.870445 0.076437 -0.389904 43 35 34 7.487671 2 239 4 369 5 347 6 205 9 109 11 132 13 174 14 193 15 214 16 186 17 138 20 139 21 168 23 244 24 182 26 148 27 169 28 203 29 180 30 367 31 442
415 1.101307 0.093557 -0.384307 127 133 133 2.128691 2 242 30 265
416 1.138880 0.104881 -0.428718 127 133 133 4.020900 2 243 6 256 7 230 30 266
417 1.084517 0.091905 -0.383988 121 121 123 2.224403 2 244 30 267
418 1.109172 0.094581 -0.394800 105 108 109 0.160479 2 247 5 311
419 1.095101 0.092218 -0.400923 108 108 108 0.932085 2 253 3 235
420 0.928815 0.075965 -0.385801 42 31 24 4.786293 2 261 3 272 4 385 5 359 6 247 8 163 10 156 11 149 12 161 13 203 14 202 15 232 16 220 17 179 18 196 19 211 22 178 23 213 24 216 25 367 26 224 27 260 28 213 29 190 30 365 31 376
421 1.130366 0.091860 -0.408450 85 81 74 3.114939 2 266 4 364 5 340 6 283
422 1.094455 0.084293 -0.391999 161 169 168 0.963989 2 286 3 265 5 361
423 1.097999 0.083152 -0.400628 102 105 108 3.032303 2 294 4 396 5 368 6 304 9 247
424 1.000447 0.073896 -0.387110 78 77 79 3.816498 2 305 4 422 6 300 7 260 8 219 10 202 10 203 11 198 11 201 13 248 14 233 15 256 17 228 18 252 22 190 24 280 26 337 28 251 30 385 31 322
425 1.000447 0.073896 -0.387110 78 77 79 4.658551 2 307 3 300 4 424 7 262 8 221 9 219 10 205 11 200 13 250 14 235 15 258 16 262 17 230 18 254 21 320 22 192 23 206 24 282 26 339 27 371 28 253 29 213 30 384
426 0.839239 0.062571 -0.392998 195 195 197 1.129834 2 318 3 334 10 182 11 205 12 172 27 194 28 302
427 0.993894 0.068538 -0.382619 194 202 199 0.043893 2 322 4 442
428 0.993894 0.068538 -0.382619 194 202 199 0.043893 2 323 4 443
429 1.088486 0.072006 -0.387643 110 116 114 0.547501 2 334 4 444 5 421
430 1.084678 0.069832 -0.389504 109 108 110 1.367325 2 344 3 329 4 453 5 430 10 241
431 0.905435 0.052638 -0.397778 179 190 190 5.752526 2 383 6 362 8 281 12 244 13 317 17 292 24 337 29 287 31 574
432 1.108269 0.057220 -0.401144 93 93 93 3.278225 2 387 4 516 5 479 8 324
433 1.100002 0.052785 -0.393711 93 93 95 0.121547 2 402 5 494
434 1.098875 0.045081 -0.390169 151 157 155 0.024007 2 429 5 519
435 1.098875 0.045081 -0.390169 151 157 155 0.024007 2 430 5 520
436 1.094536 0.042666 -0.390086 157 170 167 0.514395 2 445 5 539 12 329
437 0.963811 0.038606 -0.387541 187 195 194 3.657112 2 449 3 415 4 580 9 331 10 323 13 374 15 395 17 352 18 372 19 379 22 300 23 347
438 0.836562 0.035471 -0.390517 181 184 187 5.208711 2 453 3 428 5 588 11 380 12 272 13 358 15 414 18 314 18 315 19 343 26 296 27 320 29 334 30 641
439 0.836153 0.034216 -0.391106 107 107 109 6.213906 2 457 10 286 12 277 15 416 18 319 26 307 27 333
440 0.958523 0.037503 -0.389611 36 42 42 5.090534 2 463 5 572 8 350 10 335 11 409 12 309 14 375 19 391 24 414 27 488 28 422 31 589
441 1.105537 0.034108 -0.397553 100 106 108 0.616203 6 463 7 429 8 395 9 417
442 0.985330 0.032457 -0.387498 50 63 62 4.607218 2 488 4 617 5 598 7 406 11 440 12 324 13 410 14 389 15 419 16 420 17 380 19 418 20 510 21 463 22 316 23 359 24 432 25 705 26 498 28 438 29 341
443 1.104098 0.033736 -0.392621 105 108 109 0.469307 2 493 4 601 5 587
444 1.087191 0.033571 -0.376800 137 145 146 1.793022 2 495 4 608 5 589 30 597
445 1.091545 0.033345 -0.393051 156 162 162 0.041322 2 496 5 592
446 1.112192 0.028108 -0.395977 98 98 100 0.601043 6 486 7 454 8 421 9 446
447 0.985625 0.026976 -0.388268 189 195 195 3.902516 2 508 3 453 6 484 7 439 10 381 11 463 12 353 13 430 14 418 15 446 16 449 17 400 19 444 22 333 23 377 25 737 26 524 27 559 28 465 29 358 30 667 31 609
448 0.985390 0.026990 -0.387914 189 195 195 4.117149 2 509 3 454 6 485 7 440 9 398 10 382 11 464 12 354 13 429 14 419 15 447 16 450 18 437 19 445 22 332 23 376 25 738 26 525 27 560 28 466 29 359 30 668 31 608
449 1.116645 0.026300 -0.394994 94 95 86 4.015656 2 515 4 638 5 617 6 488 7 463
450 1.107136 0.023319 -0.402321 141 147 147 3.467409 2 525 4 659 7 481 8 449 30 664
451 1.093074 0.020796 -0.397707 170 176 176 0.414544 6 506 7 488 8 454 9 466
452 1.089582 0.020341 -0.381098 95 98 97 0.564376 2 538 31 527
453 1.097050 0.020528 -0.383854 102 101 105 4.075467 2 541 5 638 7 499 8 470 30 686 31 522
454 0.836180 0.018519 -0.381070 175 174 181 1.892720 2 545 4 719 31 846
455 0.836283 0.014192 -0.389866 105 105 109 5.545544 2 562 4 740 5 695 12 351 14 488 15 525 16 494 17 413 18 416 19 452 24 467 26 413 27 451 28 517 29 413 30 786 31 874
