# 3D point list with one line of data per point:
#   POINT3D_ID, X, Y, Z, R, G, B, ERROR, TRACK[] as (IMAGE_ID, POINT2D_IDX)
469 0.838043 0.132384 -0.393126 159 159 155 2.411897 2 69 4 150 5 145 12 27 16 22 17 17 19 46 26 11 27 28
470 1.081653 0.162824 -0.388077 84 83 85 1.434216 2 75 3 92 5 147 30 42
471 1.087382 0.161103 -0.395167 85 79 81 1.009347 2 81 3 100 4 159 5 150
472 1.065493 0.148595 -0.374634 114 109 105 1.585831 4 163 29 39
473 1.081095 0.153531 -0.388875 98 97 97 0.029154 2 89 4 165
474 1.100404 0.157006 -0.395798 133 133 129 0.031086 2 90 5 156
475 1.092925 0.153720 -0.408354 158 161 160 382.475586 2 96 6 82 17 554 23 62 26 277 27 319 28 78
476 0.838706 0.114834 -0.393748 206 206 208 2.487279 2 102 3 125 5 178 11 29 13 49 14 43 15 68 19 60 28 43
477 1.117597 0.152604 -0.424105 125 125 129 1.235004 4 188 5 177 6 100
478 1.077139 0.138340 -0.382423 159 163 158 1.391469 2 109 4 187 5 175 30 99
479 1.121713 0.156579 -0.436724 104 103 107 2.070624 3 122 6 101
480 0.903945 0.113226 -0.393634 188 196 193 3.375334 2 118 3 138 4 214 5 195 6 92 7 57 8 51 9 50 10 34 12 56 13 64 14 60 15 82 16 63 17 43 18 74 22 58 23 93 24 74 25 134 26 56 27 93 28 59 29 68 30 156 31 194
481 1.012935 0.123461 -0.390691 77 80 83 0.624247 2 123 4 216
482 1.012935 0.123461 -0.390691 77 80 83 0.624247 2 124 4 217
483 1.099202 0.126846 -0.410396 112 115 114 1.670256 4 234 7 126
484 1.091608 0.121544 -0.397862 158 161 160 0.586425 2 158 4 241 5 228
485 0.979040 0.100650 -0.395200 56 59 58 3.666615 2 181 3 185 4 277 5 265 6 173 7 132 8 108 8 112 9 117 10 93 11 90 13 130 14 112 15 143 16 136 17 118 18 149 19 142 21 189 22 99 23 127 24 162 27 228 28 110 29 115 30 224 31 206
486 0.951467 0.096597 -0.395612 36 42 40 3.568336 2 183 3 194 4 285 5 272 6 175 7 128 10 95 13 133 14 125 15 150 16 142 17 116 19 147 22 110 23 143 25 328 26 188 27 213 28 124 30 255 31 260
487 0.839794 0.079731 -0.395638 140 139 148 2.896440 2 209 4 341 13 135 14 168 15 181 16 149 17 111 18 117 19 146 21 104 24 134 25 127 26 84 27 123 28 180
488 0.986695 0.093414 -0.401266 55 61 63 1.167310 2 212 15 179 16 174
489 0.876158 0.081931 -0.396036 36 36 38 3.630369 2 220 5 325 7 144 9 102 10 115 11 122 13 158 14 172 15 196 16 170 18 138 19 171 22 156 24 170 25 211 26 131 27 159 30 343
490 0.948124 0.087561 -0.396398 45 44 44 3.287672 2 224 4 340 8 137 10 128 12 138 13 177 16 181 18 172 19 183 22 137 23 179 24 197 28 170 30 306 31 312
491 0.941198 0.086777 -0.396178 41 44 43 3.524801 2 225 3 230 4 346 5 316 7 168 9 143 10 126 11 124 12 134 13 173 15 192 16 179 17 149 19 181 22 139 23 184 25 344 26 205 27 236 28 171 29 154 30 311 31 325
492 0.931436 0.085180 -0.396887 32 38 40 3.427222 2 227 3 237 4 349 6 215 7 169 8 138 9 141 12 139 15 203 16 188 19 186 25 324 27 225 28 177
493 1.131573 0.109881 -0.429716 68 68 72 4.065681 2 229 6 245 7 223 30 260
494 0.945074 0.084369 -0.395952 185 193 190 4.067020 2 235 3 249 4 359 5 334 7 181 8 147 11 128 12 148 15 210 17 167 19 193 21 230 22 157 24 210 26 216 27 253 28 184 29 165 30 322 31 336
495 0.944876 0.084332 -0.395809 185 193 190 4.000223 2 236 3 250 4 360 5 335 6 223 7 182 8 148 10 138 11 129 12 149 13 188 14 181 15 211 16 199 17 168 19 194 21 231 22 158 23 191 24 211 25 368 26 217 27 254 28 185 29 166 30 323 31 337
496 0.877037 0.078175 -0.395001 184 192 191 3.024852 2 237 4 367 6 209 7 160 9 115 10 123 11 130 12 128 13 178 14 190 17 140 18 154 24 184 25 231 27 173 28 201
497 0.877037 0.078175 -0.395001 184 192 191 3.013089 2 238 4 368 6 210 7 161 9 116 10 124 11 131 12 129 13 179 14 191 17 141 18 155 24 185 25 232 28 202
498 0.874927 0.079165 -0.399783 43 35 34 5.283666 2 239 4 369 5 347 6 205 9 109 11 132 13 174 14 193 15 214 16 186 17 138 21 168 23 244 24 182 26 148 27 169 28 203 29 180 30 367 31 442
499 1.100263 0.097361 -0.391427 127 133 133 1.837954 2 242 30 265
500 1.131758 0.107807 -0.429991 127 133 133 3.840947 2 243 6 256 7 230 30 266
501 1.083742 0.095512 -0.390729 121 121 123 1.944865 2 244 30 267
502 1.111915 0.100015 -0.406332 105 108 109 0.118053 2 247 5 311
503 1.096992 0.097389 -0.412124 108 108 108 0.036614 2 253 3 235
504 0.873830 0.076741 -0.400450 184 190 192 4.578278 2 260 3 283 10 142 11 145 15 235 16 211 19 196 22 187 25 246 28 233
505 0.934078 0.079627 -0.397377 42 31 24 3.930434 2 261 3 272 4 385 5 359 6 247 8 163 10 156 11 149 12 161 13 203 14 202 15 232 16 220 17 179 18 196 19 211 21 235 22 178 23 213 24 216 25 367 26 224 27 260 28 213 29 190 30 365 31 376
506 1.135101 0.098506 -0.421432 85 81 74 1.985444 2 266 4 364 5 340 6 283
507 0.881424 0.075232 -0.397379 183 191 192 3.855988 2 270 5 375 6 240 7 180 8 143 10 148 11 156 12 150 14 217 15 236 16 217 17 165 18 168 19 204 22 185 23 257 24 208 25 266 26 177 27 202 28 236 29 202 30 396
508 0.881305 0.075175 -0.397044 183 191 192 3.580214 2 271 5 376 11 157 14 218 16 218 17 166 19 205 26 178 27 203 28 237
509 1.101038 0.090575 -0.407402 161 169 168 0.505154 2 286 3 265 5 361
510 1.100789 0.088695 -0.410467 100 106 104 1.928466 4 396 5 368 6 304 9 247
511 1.111938 0.093146 -0.425535 166 169 170 1.905001 2 297 8 253
512 1.006653 0.078051 -0.398713 78 77 79 3.761244 2 305 4 422 6 300 7 260 8 219 10 202 10 203 11 198 11 201 13 248 14 233 15 256 17 228 18 252 22 190 24 280 26 337 28 251 30 385 31 322
513 1.006289 0.077775 -0.398110 78 77 79 3.904488 2 307 3 300 4 424 7 262 8 221 9 219 10 205 11 200 13 250 14 235 15 258 16 262 17 230 18 254 21 320 22 192 23 206 24 282 26 339 27 371 28 253 29 213 30 384
514 0.842325 0.065207 -0.400272 195 195 197 3.971220 2 318 3 334 10 182 11 205 12 172 13 231 17 189 24 223 25 201 27 194 28 302 29 239
515 0.841757 0.064442 -0.398552 195 195 197 4.193218 2 319 3 335 10 183 11 206 12 173 13 232 14 263 15 279 16 257 17 190 18 191 19 228 24 224 25 202 27 195 28 303 29 240
516 0.997749 0.072305 -0.391751 194 202 199 0.763321 2 322 4 442
517 0.997749 0.072305 -0.391751 194 202 199 0.763321 2 323 4 443
518 0.841549 0.061384 -0.396140 125 124 124 4.390269 2 325 3 349 4 464 5 439 13 237 14 265 15 284 17 194 21 203 24 230 25 208 29 252 30 474
519 1.092643 0.077258 -0.399729 110 116 114 0.335533 2 334 4 444 5 421
520 0.928433 0.066903 -0.402362 185 193 192 4.309530 2 339 3 340 5 441 6 322 9 213 11 236 13 270 15 291 16 284 17 240 18 244 19 274 21 296 23 281 24 286 25 410 26 286 27 313 28 312 29 248 30 460 31 461
521 1.088060 0.074982 -0.401202 109 108 110 0.791828 2 344 3 329 4 453 5 430 10 241
522 0.983182 0.061241 -0.394700 189 197 194 0.828784 2 364 4 498 5 468
523 0.899595 0.053388 -0.397432 29 32 33 3.968138 2 374 3 373 4 519 5 486 6 353 7 306 8 270 10 244 12 236 13 306 14 316 15 344 17 276 18 279 19 304 21 321 22 266 23 320 24 322 26 297 27 321 28 364 29 282 30 516 31 570
524 0.899707 0.053454 -0.397853 29 32 33 3.205040 2 377 3 375 4 521 5 488 6 355 7 308 8 272 10 246 13 309 17 279 18 282 19 307 23 323 24 324 27 323 28 366
525 0.907460 0.054231 -0.402501 179 190 190 4.139202 2 383 6 362 8 281 12 244 13 317 17 292 24 337 29 287 31 574
526 1.110746 0.062673 -0.411331 93 93 93 2.521788 2 387 4 516 5 479 8 324
527 0.912916 0.049730 -0.396933 25 31 31 4.153523 2 393 3 386 4 538 5 504 6 372 10 264 12 254 13 334 14 335 15 357 16 346 17 303 19 324 21 364 22 276 23 333 24 350 25 440 26 345 27 374 28 382 29 297 30 544 31 578
528 1.112186 0.060739 -0.413180 103 106 109 1.555650 2 397 6 386 7 361
529 1.103556 0.058177 -0.405821 93 93 95 0.186395 2 402 5 494
530 1.103666 0.052979 -0.410651 152 160 161 1.577946 5 507 6 410 7 377 8 355 9 359
531 1.102660 0.050424 -0.402404 151 157 155 0.338058 2 429 5 519
532 1.102660 0.050424 -0.402404 151 157 155 0.338058 2 430 5 520
533 1.097189 0.049867 -0.413182 115 115 117 1.889901 2 436 9 372
534 1.105405 0.049231 -0.414036 94 97 98 1.989921 2 438 5 533 7 396 8 368 23 294
535 1.106042 0.049575 -0.414284 94 97 98 1.946970 2 439 5 534 8 369
536 1.099277 0.048065 -0.403402 157 170 167 0.364111 2 445 5 539 12 329
537 0.968166 0.040681 -0.395517 187 195 194 3.311075 2 449 3 415 4 580 9 331 10 323 13 374 15 395 17 352 18 372 19 379 22 300 23 347
538 0.842427 0.037577 -0.397664 181 184 187 3.827895 2 453 3 428 5 588 11 380 12 272 13 358 15 414 18 314 18 315 19 343 26 296 27 320 29 334 30 641
539 0.841442 0.034861 -0.395947 107 107 109 3.037499 2 457 10 286 12 277 15 416 18 319 26 307 27 333
540 0.962436 0.039351 -0.397424 36 42 42 3.697005 2 463 5 572 8 350 10 335 11 409 12 309 14 375 19 391 21 434 24 414 27 488 28 422 31 589
541 1.110238 0.042647 -0.410754 146 154 153 2.080934 2 475 5 569 9 412
542 1.111489 0.040328 -0.410660 100 106 108 1.122482 6 463 7 429 8 395 9 417
543 0.924792 0.034131 -0.395827 27 35 34 3.977374 2 483 6 449 11 427 14 398 21 425 23 386 30 643
544 0.990066 0.034797 -0.396060 50 63 62 3.321775 2 488 4 617 5 598 7 406 11 440 12 324 13 410 14 389 15 419 16 420 17 380 19 418 22 316 23 359 24 432 25 705 26 498 28 438 29 341
545 1.108753 0.039238 -0.405706 105 108 109 0.470753 2 493 4 601 5 587
546 1.085132 0.038055 -0.381467 142 148 146 0.753095 4 608 5 589 30 597
547 1.095458 0.038638 -0.405301 156 162 162 0.283729 2 496 5 592
548 1.112368 0.037370 -0.413898 139 147 146 2.169872 2 499 9 440
549 1.115017 0.033534 -0.406269 98 98 100 0.620675 6 486 7 454 8 421 9 446
550 1.120448 0.036448 -0.423396 147 155 154 1.947157 2 505 8 422 9 450
551 0.989942 0.029258 -0.396294 189 195 195 3.049587 2 508 3 453 6 484 7 439 10 381 11 463 12 353 13 430 14 418 15 446 16 449 17 400 19 444 22 333 23 377 25 737 26 524 27 559 28 465 29 358
552 0.990287 0.029339 -0.396863 189 195 195 3.072580 2 509 3 454 6 485 7 440 9 398 10 382 11 464 12 354 13 429 14 419 15 447 16 450 18 437 19 445 22 332 23 376 25 738 26 525 27 560 28 466 29 359
553 1.126883 0.033062 -0.412262 94 95 86 2.428164 2 515 4 638 5 617 6 488 7 463
554 1.110693 0.028838 -0.412210 141 147 147 2.833947 2 525 4 659 7 481 8 449 30 664
555 1.100697 0.027163 -0.412057 160 166 166 2.069204 2 532 4 665 5 631 6 506 7 488 8 454 9 466
556 1.108982 0.028638 -0.420162 167 173 173 1.895530 2 533 8 455
557 1.113326 0.027304 -0.414020 140 143 142 2.131792 2 534 5 633 7 491 8 465 9 471
558 1.114401 0.027601 -0.415761 161 172 172 1.227485 7 492 8 466 9 472
559 1.093883 0.026149 -0.392813 95 98 97 1.418385 2 538 31 527
560 1.100066 0.026136 -0.394421 102 101 105 1.551328 2 541 5 638 30 686 31 522
561 0.840563 0.020095 -0.384488 175 174 181 1.912344 2 545 4 719 31 846
562 1.113321 0.021430 -0.412998 140 148 147 2.176439 2 554 4 681 5 659 6 531 7 518 8 483
563 0.841528 0.014929 -0.395918 105 105 109 4.609158 2 562 4 740 5 695 12 351 14 488 15 525 16 494 17 413 18 416 19 452 24 467 26 413 27 451 28 517 29 413 30 786 31 874
564 0.841142 0.014958 -0.392787 105 105 109 4.234552 2 563 4 741 5 696 11 505 13 459 14 489 15 526 16 495 24 468 26 414 27 452 28 518 31 873
565 0.840438 0.015616 -0.379495 105 105 109 0.362364 2 564 15 528
566 0.873466 0.015026 -0.396295 43 46 49 6.054467 2 566 3 506 4 731 6 525 7 465 9 391 11 522 12 362 13 470 14 483 15 516 19 464 20 434 22 409 29 410 30 770 30 773 31 820
567 0.996432 0.014455 -0.395687 183 194 190 4.067119 2 571 3 501 4 725 5 681 6 535 7 515 8 472 10 443 11 586 12 415 13 502 14 478 15 512 16 509 17 465 19 522 21 538 22 374 23 415 25 828 26 590 27 624 28 511 29 407 30 744 31 672
568 1.092687 0.017050 -0.393994 149 155 157 3.291818 2 574 5 671 6 549 7 541 30 727 31 584
569 0.840645 0.011780 -0.396754 187 187 191 3.842486 2 581 4 759 4 760 5 715 13 484 13 485 14 506 15 550 16 518 16 519 17 427 18 429 18 430 24 485 24 486 25 443 25 445 26 423 27 461 27 462 28 532 28 533 30 801 31 886
570 1.002839 0.011058 -0.394946 187 195 192 3.107478 2 585 3 516 4 739 6 554 7 537 8 495 9 484 10 462 11 614 12 427 13 521 14 498 15 524 16 536 17 484 19 543 22 389 23 423 24 547 26 607 27 636 28 529 29 429
571 0.933922 0.009982 -0.396630 37 33 36 3.528646 2 587 4 750 6 555 7 522 8 476 9 461 10 448 11 603 13 510 14 504 15 541 16 539 17 473 19 526 22 411 23 480 24 527 25 700 26 548 27 584 28 535 29 434
572 0.933771 0.010078 -0.396276 37 33 36 3.837362 2 588 3 523 4 751 5 710 6 556 7 523 8 477 9 462 10 449 11 604 14 505 15 542 16 540 18 491 19 527 23 481 25 701 26 549 27 585 28 536 29 435
573 1.115117 0.011497 -0.417895 103 103 105 2.060201 2 594 8 518
574 1.091870 0.009506 -0.404098 107 107 111 0.074217 2 601 12 474
575 0.932107 0.007294 -0.398697 31 39 36 3.344280 2 603 4 765 5 727 6 570 7 539 8 493 9 473 10 463 11 625 12 422 14 522 15 557 18 503 19 540 23 497 24 543 26 555 27 596 28 554
576 0.932878 0.007237 -0.400470 31 39 36 4.206905 2 605 3 536 4 763 5 725 6 572 7 540 8 494 9 474 10 464 11 626 14 520 15 555 16 551 18 504 19 541 21 531 22 426 23 495 24 545 30 803
577 0.931942 0.007110 -0.397933 31 39 36 4.138660 2 606 3 537 4 764 5 726 6 573 9 475 10 465 11 627 12 423 14 521 15 556 16 552 18 505 19 542 21 532 22 427 23 496 24 546 26 556 27 597 29 451
578 0.873805 0.006890 -0.396253 174 180 180 4.544252 2 608 3 548 5 734 6 567 10 442 11 600 12 405 13 520 15 570 16 550 17 468 18 475 19 519 21 511 22 451 23 534 26 488 29 456 31 881
579 0.940142 0.005842 -0.394115 37 43 43 5.028584 2 610 3 544 4 768 5 728 6 576 9 480 11 635 12 431 13 537 14 524 15 560 16 555 17 487 19 545 21 540 22 425 23 488 24 549 25 743 26 572 27 611 28 555 30 807 31 784
580 1.018339 0.008104 -0.402905 80 86 88 0.351621 2 611 19 576
581 1.111691 0.002897 -0.416452 138 141 140 1.881313 2 635 7 587
582 1.107466 -0.004091 -0.416225 102 102 102 2.290158 2 667 6 638 7 609 8 574 9 577
583 1.090767 -0.009957 -0.405845 112 115 116 2.251065 2 686 6 667 8 599 12 545
584 0.915628 -0.008943 -0.397730 27 33 33 4.182270 2 689 4 824 5 783 6 663 7 602 8 552 9 528 12 496 13 606 14 592 15 638 16 629 17 552 19 629 21 575 22 493 23 562 24 614 25 769 26 609 27 642 28 611 29 506
585 0.842019 -0.008358 -0.395926 176 179 182 3.466453 2 693 3 613 12 465 13 600 14 604 15 657 17 540 18 532 19 600 24 605 26 528
586 0.967136 -0.012853 -0.398697 185 191 191 4.400910 2 707 3 618 5 797 6 687 8 595 9 570 12 531 22 491 28 627 29 518 30 881 31 879
587 0.842513 -0.013247 -0.398745 187 190 193 0.156583 2 723 12 499
588 0.968863 -0.020979 -0.386097 185 191 191 6.770399 2 732 3 637 8 616 11 842 12 558 13 647 14 623 15 672 16 671 19 686 21 629 23 566 24 667 25 980 26 703 27 746 28 646 29 535 30 899 31 887
589 0.841181 -0.015857 -0.392615 109 112 115 3.750774 2 734 3 646 4 870 10 549 11 777 12 510 14 632 15 688 16 669 17 571 25 593 26 568 27 607 28 651
590 0.842293 -0.018437 -0.400406 170 176 178 3.348899 2 747 3 657 14 643 16 683 17 588 18 587 24 649 26 586
591 0.927584 -0.029459 -0.396448 35 38 39 0.637168 6 745 16 720 17 646
592 0.988764 -0.032032 -0.394660 190 193 194 4.671137 2 781 3 677 4 888 5 851 6 748 7 715 8 671 10 642 11 925 12 609 13 717 14 665 15 708 16 724 17 656 18 683 21 675 23 590 25 1039 26 753 28 688 29 576 30 935
593 0.952259 -0.031738 -0.392871 183 189 189 6.203315 2 793 3 687 4 902 5 866 6 760 7 717 8 681 13 728 14 683 15 722 16 743 17 661 21 665 22 566 24 722 28 701 29 586 30 946 31 968
594 0.946368 -0.044962 -0.395706 168 179 177 4.831380 2 832 2 836 3 731 5 914 7 767 10 676 12 641 13 761 14 723 15 765 16 786 17 689 18 708 19 790 21 701 23 645 24 751 28 744 29 620 30 987 31 1022
595 1.013782 -0.052619 -0.400827 189 195 195 1.512695 4 957 6 812 7 796 8 765 9 756 17 718 27 856
596 1.001797 -0.051533 -0.391291 193 196 197 4.743110 2 847 3 740 5 926 7 800 7 802 8 769 9 760 10 718 11 1024 12 684 13 782 14 732 15 767 16 798 17 722 18 758 19 830 21 738 22 600 23 626 24 777 25 1119 26 818 27 854 28 751 29 634 30 995 31 992
597 0.878006 -0.050032 -0.391733 164 170 168 5.269191 2 880 5 964 6 845 7 819 10 706 11 1009 12 673 14 765 15 810 18 735 19 814 22 664 23 726 24 791 25 939 26 739 28 774 29 659
598 0.965636 -0.059915 -0.407935 36 42 44 0.925186 2 883 3 773
599 0.967518 -0.069347 -0.396707 188 196 195 4.583300 2 927 3 804 4 1030 5 996 6 880 12 740 13 857 14 804 15 838 16 871 17 783 24 844 25 1131 27 889 31 1093
600 0.966198 -0.084253 -0.393339 36 42 44 4.865408 2 958 3 840 4 1074 5 1040 6 920 7 903 8 880 10 792 12 772 13 900 15 889 16 914 17 820 18 842 19 915 22 726 24 879 25 1159 27 912 28 852 29 740 30 1110 31 1147
601 1.111441 0.179704 -0.421566 118 114 117 2.088467 3 88 4 152 5 141 6 64
602 1.119681 0.179800 -0.436333 148 151 152 2.003060 3 98 6 67
603 0.841918 0.133948 -0.405185 129 125 128 1.118731 3 105 26 15
604 1.112991 0.158149 -0.429291 160 160 162 1.758513 3 119 6 91
605 0.781159 0.111504 -0.417418 71 73 64 0.579899 3 134 28 58
606 0.998076 0.126270 -0.427613 62 64 70 1.236005 3 148 15 96
607 0.841458 0.108742 -0.400700 128 131 134 4.852516 3 150 14 68 15 85 16 57 21 34 25 52 27 68 28 66 29 79
608 0.842240 0.107950 -0.400241 128 131 134 1.253430 3 151 27 69 28 67
609 0.972137 0.114186 -0.397548 55 54 56 5.081012 3 155 6 131 15 103 19 106 20 166 23 99 29 87
610 0.782543 0.025875 -0.391823 67 67 63 1.860498 10 310 11 419 25 213 26 247
611 1.012188 0.100655 -0.394597 62 72 75 3.007698 3 190 4 286 6 185 12 123 29 124 30 228
612 0.950830 0.096547 -0.394453 37 43 43 4.574195 3 193 4 284 5 271 6 176 7 129 11 91 13 132 14 124 15 149 16 141 17 117 22 109 23 142 25 329 26 184 26 189 27 214 30 254 31 259
613 0.951406 0.091122 -0.395811 184 190 188 3.584745 3 216 4 319 5 298 7 156 9 129 10 117 11 107 12 125 13 155 14 151 15 173 17 137 19 172 21 202 22 127 23 163 26 203 27 230 28 157 29 142 30 272 31 300
614 0.871792 0.080977 -0.392742 175 186 186 3.771382 3 239 4 343 5 317 6 186 7 136 10 108 11 114 12 111 14 167 15 186 16 159 17 121 19 161 21 147 22 150 23 217 25 196 26 118 27 151 28 176 29 160 30 336 31 414
615 0.871681 0.081055 -0.393071 175 186 186 4.117605 3 240 4 344 5 318 6 187 8 104 10 109 11 115 15 187 16 160 19 162 21 148 22 151 23 218 25 197 26 119 30 337 31 415
616 0.937542 0.086058 -0.399957 181 189 186 3.766591 3 247 9 148 10 136 13 186 16 194 17 161 19 191 23 193 26 210 28 186
617 0.840925 0.081650 -0.398910 188 191 194 5.225364 3 251 12 105 13 139 14 173 15 190 16 155 17 112 18 121 24 142 25 128 26 87 29 162
618 0.944796 0.080979 -0.397316 181 189 186 3.891128 3 267 4 380 5 356 6 244 10 155 11 141 12 160 13 202 14 198 15 225 17 178 18 198 21 244 22 170 24 218 25 384 26 232 27 264 28 211 29 186 30 351 31 363
619 0.784969 0.073839 -0.421352 63 54 57 1.143520 3 301 28 250
620 0.784962 0.070263 -0.407929 81 71 71 0.384556 3 309 27 101
621 0.933119 0.072300 -0.402455 31 34 35 4.404344 3 325 7 249 10 199 16 263 18 228 22 213 23 262 24 264 25 398 26 272 27 297 30 430 31 433
622 0.933017 0.072192 -0.401758 31 34 35 4.193076 3 326 7 250 12 197 13 251 16 264 23 260 24 265 31 431
623 0.933099 0.072306 -0.402315 31 34 35 4.309533 3 327 7 251 8 205 9 199 10 200 12 198 13 252 14 249 16 265 17 217 18 229 21 268 22 214 23 261 24 266 25 399 26 273 27 298 28 280 29 230 30 431 31 432
624 1.093972 0.073048 -0.408190 99 102 103 0.632668 3 336 29 243
625 0.969261 0.055116 -0.402927 184 192 191 3.009288 3 380 12 267 14 324 27 434 29 289 30 520
626 0.969161 0.055092 -0.402847 184 192 191 3.678579 3 381 6 375 11 320 12 270 14 327 24 361 26 400 27 437 28 371 29 292 29 293 30 523 31 498
627 0.973230 0.047611 -0.402298 42 45 46 4.362888 3 394 4 555 5 522 6 400 9 309 10 293 11 362 13 355 14 349 15 378 16 368 18 355 22 281 24 379 27 468 29 307 30 556 31 533
628 0.901255 0.041064 -0.402193 67 59 56 5.615660 3 421 10 303 17 338 18 347 19 357 21 396 22 313 30 614 31 651
629 0.979474 0.031491 -0.390607 46 53 57 1.591423 3 455 29 362 30 673
630 0.929799 0.024111 -0.396395 30 36 38 4.609752 3 472 4 676 5 648 10 383 11 475 13 437 14 436 15 472 16 457 17 401 18 425 19 447 21 465 23 412 25 598 26 476 27 517 29 378 30 707 31 699
631 0.868577 0.022186 -0.388736 165 176 176 8.191029 3 490 4 715 21 445 22 393 30 750
632 0.877591 0.016889 -0.399576 164 175 173 4.154551 3 504 4 728 5 685 6 520 7 461 10 400 14 476 16 490 18 434 19 462 23 493 24 477 25 505 26 445 29 406 31 809
633 0.937865 0.013219 -0.397370 47 43 48 4.219772 3 509 4 732 5 689 6 538 7 506 11 581 12 399 13 497 14 491 15 520 16 512 17 453 18 479 19 509 22 395 23 452 25 690 26 535 27 571 29 418 30 763 31 748
634 0.937865 0.013219 -0.397370 47 43 48 4.355998 3 510 4 733 5 690 6 539 7 507 9 448 11 582 12 400 13 498 14 492 15 521 16 513 17 454 18 480 19 510 21 515 22 396 23 453 25 691 26 536 27 572 29 419 30 764 31 749
635 0.995617 0.007935 -0.396923 49 56 60 4.117706 3 526 4 745 5 705 6 569 7 545 8 500 9 492 10 475 11 638 13 534 15 544 17 491 18 521 19 556 21 556 22 401 23 441 24 555 25 854 28 544 29 440 30 784
636 0.937314 0.009068 -0.397286 164 170 170 7.276751 3 530 5 713 15 548 18 494 19 532 20 540 30 798 31 771
637 0.840130 0.010699 -0.387423 107 110 111 4.635008 3 534 5 723 11 557 12 366 13 490 15 553 16 527 17 431 18 421 19 470 27 455
638 0.907789 0.002029 -0.435942 27 33 31 0.685400 3 560 6 613
639 0.840028 0.002935 -0.396151 95 95 97 4.179191 3 565 11 622 12 412 13 538 14 549 15 599 16 575 17 477 18 476 19 524 24 536 25 480 26 469 27 511 28 572 30 845 31 929
640 0.839930 0.002916 -0.395689 95 95 97 4.038666 3 566 11 623 12 413 14 550 15 600 16 576 17 478 19 525 24 537 25 481 26 470 27 512 28 573 30 846
641 1.022662 -0.000580 -0.408323 50 55 60 4.205427 3 570 10 527 17 544 18 573 23 482 29 480 30 825 31 744
642 1.018072 -0.001554 -0.403445 49 55 57 0.624083 3 573 10 530 29 483
643 0.952844 -0.002474 -0.400940 32 38 40 4.660691 3 581 8 539 11 712 12 478 14 563 19 616 20 587 25 815 26 620 27 653 28 588 30 844
644 0.968968 -0.005522 -0.405520 166 173 177 3.571936 3 594 6 653 10 535 11 745 12 503 18 578 19 631 31 837
645 0.901345 -0.008950 -0.402104 25 28 29 4.676183 3 606 4 831 6 669 13 607 14 598 16 632 18 565 23 572 24 611 26 595 28 615 30 878 31 919
646 0.964010 -0.011428 -0.394665 189 195 195 0.063290 3 621 29 520
647 0.964010 -0.011428 -0.394665 189 195 195 0.063290 3 622 29 521
648 0.969466 -0.015384 -0.392402 41 44 47 4.483506 3 626 11 805 12 541 14 615 15 661 17 592 19 669 21 618 24 653 25 953 27 729
649 0.896001 -0.030825 -0.397993 184 187 188 0.248204 6 750 7 709 15 725
650 0.960680 -0.035179 -0.399279 29 35 37 5.924089 3 685 4 900 5 864 15 720 21 670 23 607
651 1.001049 -0.033427 -0.393809 35 40 45 1.173601 3 688 31 930
652 0.936286 -0.038256 -0.435031 21 24 25 0.278542 3 698 6 767
653 1.009210 -0.040604 -0.396620 34 42 43 4.414173 3 700 6 770 7 743 8 702 9 691 13 739 14 695 15 728 16 756 18 696 21 691 22 559 23 601 26 778 27 820 29 595 30 951 31 936
654 1.000066 -0.042114 -0.394005 40 48 49 4.526867 3 712 3 714 4 925 4 927 5 886 6 779 8 713 9 706 10 670 11 975 14 707 16 766 18 705 25 1079 26 784 27 830 28 723 28 729 29 605 31 957
655 0.995768 -0.050458 -0.394827 184 191 185 4.626721 3 738 5 923 8 763 9 754 10 714 11 1020 12 681 13 779 14 730 16 796 18 750 18 751 19 822 19 823 25 1102 26 814 29 632
656 1.001797 -0.051533 -0.391291 185 188 191 4.941038 3 741 5 927 7 801 8 770 9 761 10 719 11 1025 12 685 13 783 14 733 15 768 18 759 19 831 21 739 22 601 23 627 24 778 25 1120 26 819 27 855 28 752 29 635 30 996 31 993
657 1.009115 -0.077582 -0.403022 26 32 34 5.200849 3 811 7 882 8 863 9 872 10 781 12 761 17 805 18 828 24 862 26 891 27 907 30 1079
658 1.092202 0.296694 -0.381713 85 78 68 7.540037 4 22 22 3 24 11 31 25
659 1.084514 0.282285 -0.381783 65 66 53 0.833666 4 26 30 12 31 30
660 1.102186 -0.003549 -0.404876 117 123 121 0.327359 8 563 9 565
661 1.092122 0.177609 -0.411057 191 191 187 0.998197 4 142 6 61
662 1.129698 0.183538 -0.422943 89 88 88 1.471420 4 151 5 139 6 65
663 1.078643 0.148192 -0.386148 106 106 102 0.722450 4 172 5 161 30 79
664 0.838654 0.116081 -0.391490 184 183 185 2.484166 4 178 10 23 11 27 13 45 15 63 19 58 24 51 27 48 28 40
665 1.079622 0.143167 -0.382272 163 169 169 1.232535 4 182 30 88
666 1.101830 0.150927 -0.415145 114 115 111 1.385834 4 183 6 93 7 71
667 0.840221 0.112210 -0.392606 143 139 144 2.919778 4 192 12 43 13 52 14 47 15 71 16 50 17 31 18 52 19 61 21 24 26 23 27 57 28 46 29 59 30 145
668 1.129160 0.146696 -0.424679 100 100 100 1.470544 4 205 5 184 6 111
669 1.104314 0.139320 -0.418385 163 169 167 1.355326 4 215 6 120
670 0.897626 0.104928 -0.394079 36 42 42 0.178984 4 232 27 113
671 0.972878 0.105581 -0.404031 59 52 44 1.485871 4 262 7 115 8 93 9 98
672 0.979568 0.094039 -0.377623 51 62 60 7.764781 4 297 5 282 14 130 15 163 16 150 21 217 22 114 27 255 30 249
673 1.005237 0.103760 -0.422500 51 62 60 1.880786 4 298 14 131
674 1.119693 0.111395 -0.424037 110 116 114 1.246933 4 299 6 218
675 1.022624 0.100062 -0.413508 54 60 62 0.996944 4 316 14 145 15 171
676 0.951865 0.091032 -0.395621 191 199 198 1.010298 4 318 12 126 27 231 28 156
677 1.103639 0.104483 -0.411877 157 165 162 1.861560 4 320 8 181
678 0.880949 0.081884 -0.392919 30 33 34 3.355246 4 335 5 313 6 193 7 139 8 105 10 111 12 115 13 151 14 161 15 182 16 162 17 124 19 164 22 145 23 211 25 220 26 133 29 156 30 325
679 0.878764 0.081606 -0.380766 30 33 34 1.759857 4 336 5 314 30 326
680 1.103568 0.095729 -0.392117 92 100 99 0.338232 4 352 31 159
681 0.838590 0.077547 -0.392630 141 140 144 3.148252 4 355 10 101 14 179 15 197 18 125 19 153 24 150 25 129 26 91 27 125 28 189 29 171
682 1.101275 0.088888 -0.411281 100 106 104 1.884925 4 395 5 367 6 303 9 246 23 166
683 0.877388 0.069751 -0.376897 29 29 33 2.073717 4 421 30 415
684 1.111045 0.079068 -0.414127 133 141 140 1.890400 4 445 5 423 6 337 7 316 8 291 9 281
685 1.115368 0.076503 -0.409875 104 110 110 2.376611 4 454 5 431 9 291
686 1.122903 0.075286 -0.412056 95 98 97 1.983267 4 458 7 327
687 1.103421 0.066085 -0.409690 161 168 162 2.256760 4 500 9 313
688 1.133566 0.065047 -0.424663 136 142 140 1.669672 4 510 6 383
689 1.088088 0.058485 -0.390009 152 160 159 4.430470 4 523 6 387 8 332 30 490 31 362
690 1.111537 0.059251 -0.413523 145 151 149 1.875429 4 525 5 492 8 337
691 0.970235 0.053995 -0.397823 188 199 197 3.751427 4 527 7 335 8 304 9 285 11 315 12 266 17 310 18 325 19 331 24 358
692 0.977949 0.046038 -0.413175 55 55 57 0.981729 4 571 6 407
693 1.076285 0.045747 -0.379906 160 163 162 1.111941 4 572 30 553
694 1.111456 0.042594 -0.410444 101 101 103 20.650456 4 585 5 564 6 523 7 422 7 510 8 478 9 410 9 485
695 1.119163 0.041053 -0.417934 100 103 104 1.531343 4 594 6 464
696 0.982592 0.034183 -0.394698 189 197 196 4.072203 4 620 5 603 10 352 12 326 14 391 15 423 16 422 18 407 19 416 22 319 23 366 25 688 29 344 30 631 31 592
697 1.121982 0.031218 -0.412509 77 80 79 2.208337 4 644 5 619 6 495 8 440 9 459
698 1.110300 0.031439 -0.413138 84 83 85 1.927736 4 645 7 467
699 1.118708 0.028597 -0.406816 131 139 136 0.747372 6 497 7 480 8 450 9 463
700 1.096102 0.029039 -0.395556 77 77 79 0.215949 4 653 5 627 31 515
701 1.088466 0.027052 -0.391816 91 95 90 0.696687 4 666 31 528
702 1.109838 0.021218 -0.412253 94 94 98 2.169279 4 684 8 482
703 0.876201 0.021127 -0.399114 29 32 33 3.832358 4 697 5 667 14 449 15 488 16 463 17 397 18 405 21 439 22 382 25 479 27 465 28 495
704 0.882664 0.019778 -0.395232 23 29 29 4.795029 4 704 6 501 13 448 14 454 15 493 21 453 22 385 23 461 27 477
705 0.876679 0.018071 -0.386422 176 184 185 7.794345 4 729 5 686 7 459 8 405 14 474 16 491 24 478 31 810
706 0.870243 0.011885 -0.393817 180 183 184 5.426252 4 749 15 538 21 474 22 424 23 511 24 497 26 456 27 501
707 0.841552 0.005152 -0.395839 178 184 184 1.029200 4 794 5 752 10 444 12 407 28 567
708 0.906696 -0.011139 -0.398051 181 181 181 4.949967 4 838 15 654 16 638 18 571 22 497 23 574 24 619 25 752 27 638 30 884 31 921
709 0.838059 -0.014627 -0.368150 179 175 178 18.395839 4 881 10 560 12 518 16 635 17 539 17 586 18 529 18 585 19 599 24 647 26 527 26 582 27 619
710 0.993485 -0.036316 -0.408601 29 34 39 1.774693 15 711 22 546
711 1.094476 0.301141 -0.381448 87 80 70 7.326266 5 20 6 23 8 14 9 14 31 24
712 1.130155 0.168897 -0.427950 89 89 89 1.659033 5 158 6 79
713 1.079444 0.141422 -0.385159 169 173 168 0.909003 5 174 30 97
714 1.117615 0.034906 -0.406220 131 139 136 0.594991 6 481 8 414
715 1.112822 0.128161 -0.410615 107 107 109 2.093275 5 223 9 131
716 1.118708 0.112043 -0.416198 96 102 100 1.910104 5 273 6 204 7 190
717 1.074288 0.098762 -0.382782 168 176 175 1.098372 5 297 30 237
718 0.949418 0.087887 -0.377203 40 48 45 1.054683 5 300 29 146 30 285
719 0.836481 0.074618 -0.364020 195 195 197 14.423446 5 329 13 104 13 141 14 176 20 86 24 144 26 90 29 168
720 0.876992 0.075984 -0.379490 33 32 32 1.428596 5 355 30 371
721 1.106854 0.087365 -0.414619 153 161 160 2.072630 5 385 6 312 7 292
722 1.083519 0.082026 -0.391094 156 162 162 0.669685 5 395 31 234
723 1.110950 0.079091 -0.413040 104 104 106 1.214660 6 335 7 314 8 287 9 279
724 1.110950 0.079091 -0.413040 104 104 106 1.214660 6 336 7 315 8 288 9 280
725 1.110474 0.067201 -0.415546 96 95 97 1.856567 5 464 6 370 9 320
726 1.119089 0.064344 -0.413063 99 102 105 1.222216 7 354 8 322 9 330
727 1.080074 0.051783 -0.385284 162 169 163 0.582711 5 509 30 529
728 0.837726 0.044536 -0.376110 129 128 135 0.943787 5 517 14 343
729 1.099621 0.048201 -0.403632 160 166 166 0.030434 5 538 12 328
730 1.113393 0.043221 -0.412577 98 98 98 1.976646 5 565 7 423 9 411
731 1.104632 0.040680 -0.409832 146 152 152 1.749648 5 577 7 427
732 1.109191 0.037357 -0.403371 154 162 159 0.295867 8 402 9 421
733 0.950523 0.026396 -0.400098 43 42 49 5.381824 5 647 7 448 8 399 9 394 10 388 13 444 17 408 19 450 21 476 22 357 30 702 31 670
734 0.840898 0.019046 -0.393167 115 115 117 3.711142 5 674 12 332 14 463 15 505 16 469 17 393 29 393
735 0.841581 0.014983 -0.396157 83 83 79 1.107114 13 460 15 527 16 496 17 414 18 417 19 453 25 434 26 415
736 0.967537 0.003404 -0.413245 38 46 47 1.199917 5 736 6 601 7 560
737 0.840512 0.007109 -0.397923 120 119 121 3.461319 5 742 11 594 13 516 14 533 17 455 19 498 24 517 26 446 31 915
738 0.841184 -0.001385 -0.396511 147 146 150 1.155489 13 561 15 614 17 496 18 496 19 549 25 502
739 0.841496 -0.002899 -0.398726 123 117 119 3.409281 5 779 13 574 14 580 16 609 17 511 18 506 19 567 24 577 25 525 27 540 28 600
740 1.101811 0.281729 -0.401150 29 26 21 1.228879 6 30 9 19
741 1.107111 0.267079 -0.393406 132 129 115 0.515285 6 32 7 29
742 0.967973 0.109628 -0.393994 202 214 218 2.928149 6 137 7 89 9 79 11 56 13 91 15 109 17 80 18 113 22 75 23 102 24 112 25 311 26 144
743 0.967973 0.109628 -0.393994 202 214 218 2.928149 6 138 7 90 9 80 11 57 13 92 15 110 17 81 18 114 22 76 23 103 24 113 25 312 26 145
744 0.952269 0.094737 -0.397177 47 44 41 0.584794 6 178 7 134
745 1.098383 0.100460 -0.407438 161 172 172 0.502387 6 235 7 211
746 1.097220 0.076252 -0.407169 128 131 130 0.574415 6 334 8 286
747 0.923740 0.055702 -0.389337 35 40 45 1.456219 6 342 7 301 8 262 10 238 12 233 27 345
748 1.118703 0.058957 -0.407673 100 106 104 0.657247 6 391 7 365
749 1.090548 0.047264 -0.406110 121 124 125 0.632771 6 429 9 371 23 295
750 1.102274 0.045006 -0.406537 119 122 125 0.575161 6 437 7 401 8 377 9 386
751 0.936188 0.012878 -0.396218 53 48 56 2.184838 6 537 7 505 19 508 23 451
752 1.105608 0.014893 -0.405546 145 153 152 0.801146 6 550 8 501 9 500
753 1.098092 0.014025 -0.405623 122 125 128 0.677461 6 552 8 503 9 503
754 1.098092 0.014025 -0.405623 122 125 128 0.677461 6 553 8 504 9 504
755 1.096830 0.006478 -0.406618 168 176 175 0.725267 6 586 7 568 9 526
756 1.099786 -0.005808 -0.407523 106 110 105 0.429716 6 639 7 610
757 1.111478 -0.006419 -0.406404 98 101 102 0.651711 6 642 7 614 8 576 9 581
758 1.111439 -0.006480 -0.406049 98 101 102 0.718638 6 643 8 577
759 1.090476 -0.008972 -0.405989 161 167 169 0.681048 6 655 7 625 9 590
760 1.102269 -0.009708 -0.403712 96 99 98 0.800967 6 656 8 590
761 1.094931 -0.010192 -0.405398 160 168 167 0.710961 6 658 8 592 9 594
762 1.095590 -0.017436 -0.401864 108 114 116 0.582931 6 690 7 653
763 1.011193 -0.036604 -0.394000 56 62 64 1.216571 6 755 9 676 13 733 17 669 19 764
764 1.017554 -0.036800 -0.404672 56 62 64 2.355656 6 756 9 677 13 734 17 670 18 688 25 1071
765 1.169814 -0.054629 -0.497417 84 90 92 1.338447 6 774 8 759
766 1.001895 -0.049173 -0.397393 197 205 206 0.387412 6 803 7 779 8 740
767 0.979425 0.107032 -0.397979 53 53 55 2.079319 7 106 24 131
768 0.948844 0.089436 -0.392552 197 203 205 1.945991 7 157 10 118 13 156 19 173 23 162
769 1.113115 0.113547 -0.426448 159 167 166 2.345617 7 196 30 225
770 1.106387 0.043517 -0.408452 152 163 161 0.363918 7 414 9 402
771 1.114918 0.022519 -0.423880 165 176 174 2.035264 7 519 8 488 30 712
772 1.102874 0.012139 -0.405791 96 99 102 0.407160 7 548 9 513
773 1.091842 -0.003457 -0.407551 181 189 188 0.276466 7 597 8 561 9 563
774 0.902987 -0.015393 -0.399888 187 195 196 0.319497 7 632 9 546
775 1.113745 -0.019061 -0.407930 107 110 109 0.421988 7 661 8 631 9 634
776 1.100064 -0.029339 -0.407886 96 96 96 0.498936 7 699 9 667
777 1.100072 -0.029340 -0.407868 96 96 96 0.356131 7 700 8 670 9 668
778 1.105438 -0.036355 -0.407355 108 108 108 0.385333 7 722 8 689 9 686
779 1.079005 -0.046550 -0.390923 135 143 144 1.323757 7 755 8 722 9 734 12 670
780 0.993293 -0.044217 -0.385140 57 62 67 1.938418 7 759 10 674 11 977 12 638 13 754
781 1.101808 -0.047677 -0.406747 127 135 136 0.454533 7 761 8 723 9 744
782 1.096547 -0.050571 -0.402955 91 91 95 0.519106 7 771 8 743 9 751
783 0.869669 -0.046778 -0.387378 189 189 191 7.211319 7 793 9 700 12 631 13 775 17 702 18 699 22 656 24 764 25 886 26 722 29 646 31 1106
784 0.948350 -0.088532 -0.394163 32 35 34 0.506463 7 906 9 899
785 0.880751 0.081986 -0.393572 35 34 34 2.193047 8 106 12 116 14 162 15 183 19 165
786 0.917200 0.086476 -0.393663 37 37 39 0.508983 8 116 9 104
787 0.971061 0.080347 -0.399522 34 45 43 3.372539 8 193 10 178 11 170 27 307 29 199 31 355
788 1.093196 0.087385 -0.400953 167 175 172 0.217200 8 232 9 241
789 0.965275 0.070213 -0.411926 40 48 49 1.962718 8 250 9 232 21 327 26 328
790 1.111722 0.091924 -0.426117 114 117 116 1.880698 8 257 30 349
791 0.984864 0.030265 -0.399777 53 59 59 3.145244 8 394 9 395 10 379 12 350 17 398 18 431 19 440 24 458 26 509 27 551
792 1.119006 0.034070 -0.405529 99 103 98 0.184625 8 419 9 443
793 1.107447 0.005909 -0.404018 110 113 114 0.305891 8 528 9 529
794 1.111706 0.000977 -0.408184 105 113 114 0.187945 8 547 9 544
795 1.102186 -0.003549 -0.404876 117 123 121 0.327359 8 562 9 564
796 1.113390 -0.003371 -0.408540 104 111 115 0.339531 8 567 9 568
797 1.092692 -0.008057 -0.406818 110 113 116 0.280812 8 580 9 583
798 1.100541 -0.013278 -0.408994 105 108 109 0.332657 8 604 9 611
799 1.100541 -0.013278 -0.408994 105 108 109 0.332657 8 605 9 612
800 1.095211 -0.018768 -0.406352 165 178 175 0.352977 8 626 9 627
801 1.115555 -0.026859 -0.409647 107 107 109 0.387765 8 661 9 659
802 1.103976 -0.036497 -0.405871 119 119 121 0.232599 8 690 9 687
803 1.093344 -0.052146 -0.406174 92 94 100 0.472434 8 752 9 766
804 1.097438 -0.054480 -0.407089 132 138 138 0.371450 8 767 9 774
805 1.099362 -0.055835 -0.406234 94 94 98 0.301756 8 774 9 777
806 1.111501 -0.058598 -0.401125 82 85 88 0.345311 8 783 9 782
807 1.074979 -0.058964 -0.386073 131 139 140 0.591184 8 785 12 713
808 0.970335 -0.072072 -0.379906 202 210 211 0.619156 8 846 12 747
809 1.129608 0.339022 -0.419882 112 109 104 2.008448 9 12 23 16
810 0.917080 0.060060 -0.389390 37 37 37 0.691608 9 210 18 239
811 0.985555 0.031057 -0.388360 55 66 66 0.158176 9 367 18 411
812 0.991066 0.031911 -0.408533 60 63 64 1.367844 9 389 25 724
813 0.983623 0.024601 -0.385671 192 200 201 0.135800 9 397 18 436
814 0.907348 0.013581 -0.398437 27 33 33 2.042171 9 419 23 479
815 0.923027 -0.001361 -0.386766 192 202 205 0.038298 9 487 18 522
816 0.997684 -0.059566 -0.408169 189 200 200 1.084149 9 783 26 836
817 0.997684 -0.059566 -0.408169 189 200 200 1.084149 9 784 26 837
818 0.911605 0.115682 -0.397671 195 195 197 4.848386 10 43 14 65 15 86 22 63 24 79 26 67 27 104 29 72 30 160
819 0.775041 0.078003 -0.397364 53 54 50 3.021978 10 83 25 35 26 34 28 174
820 0.770494 0.062614 -0.390134 58 59 55 2.023763 10 121 26 53
821 0.770494 0.062614 -0.390134 58 59 55 2.023763 10 122 26 54
822 0.775653 0.066179 -0.397046 61 61 61 1.322028 10 125 11 158 28 262
823 0.851812 0.074771 -0.397443 200 200 200 1.538068 10 135 28 220
824 0.775838 0.060699 -0.390884 59 60 54 1.913887 10 141 11 167 25 59 26 72 27 108
825 0.772492 0.048000 -0.395556 69 69 71 1.527843 10 216 28 374
826 0.778524 0.043774 -0.387336 75 76 70 1.167270 10 221 25 114 27 162
827 0.781364 0.038960 -0.394081 70 77 71 2.519902 10 249 11 326 26 186 27 209
828 0.778587 0.034156 -0.387839 75 79 74 1.032469 10 259 11 344 25 141
829 0.781337 0.068598 -0.484563 69 72 71 1.544943 11 347 28 342
830 0.778751 0.031465 -0.389458 72 78 76 1.222246 10 273 11 377 25 160
831 0.782851 0.032074 -0.393385 71 76 66 0.170342 10 275 27 244
832 0.774630 0.018078 -0.387366 65 71 69 1.272106 10 348 11 452 25 225
833 0.833831 -0.009439 -0.305486 139 146 150 62.029611 10 360 10 532 11 461 12 493 13 622 16 661 17 563 18 380 18 560 19 630 24 625 25 403 25 583 26 553 27 414 27 589 31 1007
834 0.781057 0.002248 -0.388193 60 67 59 5.587235 10 451 11 602 11 629 25 323
835 0.841270 -0.010495 -0.392272 191 196 201 1.256535 10 523 12 480 15 664
836 0.941977 -0.012781 -0.405917 30 36 34 4.809740 10 569 11 799 12 532 18 603 28 634 30 891 31 905
837 0.965052 -0.020658 -0.395032 185 193 192 1.546325 10 589 12 565 13 655 27 740 28 654
838 0.924611 -0.037772 -0.382482 34 37 38 1.333609 10 650 17 673
839 0.880575 -0.065770 -0.364082 28 31 32 1.462416 10 755 19 874
840 0.880575 -0.065770 -0.364082 28 31 32 1.462416 10 756 19 875
841 0.776780 0.060984 -0.398095 74 75 71 3.517237 11 195 25 65 26 78 27 119 28 301
842 0.777340 0.055579 -0.397011 69 75 73 2.113178 11 226 27 127 28 331
843 0.777180 0.053044 -0.390947 69 75 73 0.899907 11 227 27 128
844 0.768571 0.047259 -0.396605 74 78 73 1.483114 11 279 28 378
845 0.978656 0.058586 -0.402106 57 60 63 3.223776 11 308 12 261 26 402 30 505 31 465
846 0.965596 0.052974 -0.397210 203 204 200 3.856245 11 318 12 268 14 325 27 435 29 290 30 521 31 496
847 0.839314 0.037819 -0.394574 158 161 164 1.035022 11 364 13 347 15 402 17 311 26 283
848 0.837472 0.138103 -0.393227 122 121 123 1.193313 15 36 16 18 25 19
849 0.781062 0.006803 -0.390014 62 70 67 1.770200 11 563 25 308
850 0.781057 0.002248 -0.388193 76 83 77 1.865562 11 601 25 322
851 1.003644 0.013158 -0.401793 200 203 204 2.336469 11 620 12 433 29 431 31 686
852 0.838973 0.133139 -0.398721 139 133 137 4.466698 12 31 26 13 27 30 30 93
853 0.837749 0.120723 -0.387864 186 180 182 2.274540 12 38 19 53 25 31 26 19 28 36
854 0.917974 0.061702 -0.390664 30 30 30 0.702687 12 212 17 233 27 302
855 0.991377 0.062109 -0.399618 47 53 55 1.405111 12 251 18 311 19 315
856 0.965024 -0.017423 -0.392579 43 46 49 0.356520 12 543 13 638 27 728
857 0.837412 0.146211 -0.393194 121 112 115 1.337622 13 9 14 9 15 6 16 7 25 9
858 0.839215 0.118832 -0.395259 122 116 118 0.670948 13 41 14 34 15 59 16 43 18 45
859 0.838172 0.118047 -0.394518 185 186 182 0.713408 13 42 14 38 15 60 16 44 17 26 18 46 19 55
860 0.838049 0.117925 -0.394015 185 186 182 0.513173 13 43 14 39 16 45 19 56
861 0.837972 0.111766 -0.383609 177 173 174 1.414023 13 44 27 47
862 0.838451 0.116131 -0.393498 190 186 187 0.591981 13 46 14 41 15 65 16 48 17 29 25 40
863 0.838976 0.101118 -0.389682 133 129 134 1.756513 13 60 28 74
864 0.963418 0.106504 -0.394410 165 171 171 3.930777 13 101 14 92 15 125 18 120 21 152 24 126 26 156 27 178 28 89 31 184
865 0.840465 0.077743 -0.395660 175 175 177 0.962208 13 147 14 182 15 199 16 164
866 0.840465 0.077743 -0.395660 175 175 177 0.962208 13 148 14 183 15 200 16 165
867 0.832382 0.030656 -0.290403 178 181 182 1.476603 14 409 17 129
868 0.838898 0.061875 -0.394045 102 102 102 0.909585 13 227 15 278 16 255 17 187 19 224
869 0.839884 0.059940 -0.394151 162 165 164 2.329919 13 243 15 289 19 235 24 234 25 214 28 318
870 0.840412 0.056986 -0.394452 122 123 119 1.166898 13 260 15 311 19 252 25 234
871 0.925480 0.359546 -1.538276 121 124 125 1.687853 13 311 14 120
872 0.841124 0.037389 -0.394936 167 174 178 1.083734 13 353 15 406 16 374 17 316 18 305 19 338
873 0.840854 0.036315 -0.395747 170 173 174 0.927634 13 356 15 412
874 0.984009 0.044445 -0.409237 144 159 156 1.426691 13 377 17 355 29 321
875 0.893822 0.035706 -0.414726 15 21 19 96.730171 13 395 18 656 19 724 29 353
876 0.839817 0.014735 -0.395672 97 105 104 2.087752 13 461 14 490 15 529 16 497 24 465 25 431
877 0.839829 0.014733 -0.396041 97 105 104 0.688778 13 462 15 530 16 498 17 415 18 414 25 430
878 0.840707 0.014115 -0.394735 164 167 170 0.785850 13 465 15 532 16 503 19 455
879 0.841397 0.009809 -0.394342 98 101 100 0.477055 13 493 15 559 16 531
880 0.841483 0.004828 -0.395036 118 118 120 0.713867 13 527 15 586 16 561 17 470 19 515
881 0.840674 -0.000860 -0.396086 92 91 95 1.161975 13 560 15 613 16 592 17 494 18 492 19 544 25 497
882 0.840862 -0.004270 -0.395957 162 167 172 1.387150 13 577 15 633 16 613 17 518 18 511 19 573 25 526 26 501
883 0.837932 -0.001354 -0.360209 162 167 172 27.710045 13 578 14 516 14 589 15 634 15 642 16 538 16 614 17 519 17 523 18 512 18 517 19 487 19 586 24 503 24 582 24 588 25 527 25 534 26 506 27 474 27 543 28 547 31 959
884 0.840772 -0.008511 -0.395391 156 159 162 0.691328 13 601 16 634 17 538
885 0.841789 -0.020208 -0.397225 162 162 164 2.219780 13 657 17 595 18 597 19 660 25 627 26 591
886 0.839642 -0.022615 -0.398585 127 133 135 1.627361 13 677 14 663 16 713 19 673 25 634 26 598
887 0.839844 -0.024085 -0.394802 124 127 128 1.136296 13 680 15 719 17 614 19 677
888 0.839733 -0.023360 -0.398555 124 127 128 1.477042 13 681 19 678 25 644 26 603
889 0.841306 -0.025350 -0.396681 100 100 102 0.832452 13 684 15 723 16 719 17 618
890 0.842611 -0.027034 -0.397981 109 112 113 3.153523 13 702 14 688 16 736 18 626 19 701 24 691
891 0.843105 -0.027695 -0.401085 109 112 113 2.903694 13 703 14 689 16 737 24 692
892 0.841017 -0.029636 -0.398009 102 105 106 3.466643 13 716 14 698 15 743 16 752 17 652 18 641 19 712 24 713 25 693
893 0.954944 -0.065448 -0.399015 21 27 25 0.377230 13 844 17 770 18 797
894 0.836841 0.136337 -0.382624 193 193 197 5.279830 14 19 15 22 16 13 17 11 20 7 21 4 24 30 24 35 25 11 26 2 28 24
895 0.837442 0.138459 -0.393775 124 123 123 1.108993 14 23 15 35 16 17 25 18
896 0.839541 0.118160 -0.393877 168 168 168 0.589338 14 35 25 38
897 0.838536 0.094815 -0.395452 179 182 185 0.502378 14 99 16 87 25 76
898 0.923785 0.095445 -0.395430 26 32 30 0.234027 14 121 25 277
899 0.877393 0.071804 -0.383643 175 183 182 1.367301 14 219 28 238
900 0.898185 0.067376 -0.393386 21 25 20 0.184140 14 254 26 222
901 0.849089 0.075406 -0.503450 181 184 183 1.831374 14 277 20 158
902 0.841074 0.049401 -0.402805 176 176 178 2.070329 14 332 16 331 24 305
903 0.840266 0.035719 -0.396196 111 111 115 0.022064 15 415 16 379
904 0.840551 0.030037 -0.395771 179 179 179 0.255644 15 444 16 405
905 0.841141 0.008553 -0.399751 169 169 169 1.450798 14 527 16 548 17 449 18 449
906 0.840393 0.003544 -0.408332 163 166 167 0.726979 14 547 16 567
907 0.841465 0.002003 -0.395452 112 113 109 4.377337 14 557 15 603 16 583 17 483 19 530 24 541 25 489 28 580 29 473 30 847
908 0.841379 0.002045 -0.395157 112 113 109 4.682715 14 558 15 604 16 584 19 531 24 542 25 490 28 581 29 474 30 848
909 0.840670 -0.002128 -0.395664 96 95 95 1.199368 15 625 16 602 17 505 19 558 25 506
910 0.840630 -0.005663 -0.396390 171 171 173 1.289733 15 641 16 620 17 522 18 516 19 585 25 535 26 507
911 0.959044 -0.033422 -0.396434 25 31 33 2.276416 14 678 16 739 27 773
912 0.843482 -0.028652 -0.409692 165 165 165 1.397334 14 680 16 730
913 0.912279 -0.073717 -0.401701 158 161 164 5.171666 14 837 15 874 18 819 31 1155
914 0.838031 0.104487 -0.386038 196 195 197 1.415977 15 76 16 53 28 64
915 0.839347 0.106832 -0.393098 190 190 192 1.230695 15 77 19 62
916 0.839874 0.119609 -0.430685 200 203 206 2.200957 21 29 30 170
917 0.838912 0.098786 -0.394341 191 197 199 0.679614 15 101 25 66
918 0.838911 0.079653 -0.394383 188 187 189 0.878978 15 180 17 108
919 1.085658 0.091350 -0.397918 96 96 100 0.184302 15 217 16 230
920 0.840515 0.068402 -0.396610 124 120 123 0.688811 15 252 25 172
921 1.089021 0.082251 -0.401359 107 107 109 0.111122 15 259 17 256
922 1.089121 0.077446 -0.401765 132 131 133 0.295187 15 275 17 273
923 1.094881 0.071277 -0.409503 190 191 185 0.247120 15 300 18 344
924 0.840718 0.057305 -0.396262 120 119 121 0.455164 15 312 16 280 25 235
925 0.849613 0.066493 -0.546554 141 144 147 2.373180 15 340 19 443
926 0.841314 0.038314 -0.397442 134 137 138 2.447722 15 401 24 355
927 0.833126 0.029627 -0.288761 111 107 108 86.598155 15 440 16 191 16 402 17 131 18 337 21 140 24 409 25 145
928 1.088558 0.028121 -0.401841 106 105 107 0.365365 15 454 17 435
929 0.840691 0.014101 -0.394786 168 169 165 0.919378 15 531 16 502 19 454
930 0.840606 0.009129 -0.395209 169 172 175 1.119403 15 567 16 537 19 486 25 448
931 0.841093 -0.001400 -0.395284 150 149 158 0.691328 15 616 19 551
932 0.900556 -0.018766 -0.388099 162 165 164 0.817545 15 684 16 673
933 0.837362 0.147310 -0.403906 116 110 112 1.654562 16 11 24 33
934 1.014708 0.162620 -0.380304 48 37 41 1.158381 16 19 26 39
935 0.837610 0.105092 -0.394735 183 183 179 2.471137 19 68 21 35
936 0.838748 0.094586 -0.392457 132 127 125 0.867180 16 86 19 95
937 0.884976 0.078228 -0.399352 23 27 22 1.156991 16 200 25 261
938 0.839363 0.048902 -0.397373 131 130 134 0.237580 16 326 25 272
939 1.088043 0.065677 -0.400486 84 84 88 0.038629 16 330 17 314
940 0.841079 0.048933 -0.401348 179 179 181 2.186830 16 332 24 306
941 1.099327 0.062152 -0.412167 103 103 103 0.017441 16 349 17 333
942 0.840862 0.027696 -0.401612 106 105 109 2.155247 16 432 24 410
943 0.894242 0.025362 -0.391487 21 24 25 0.267390 16 451 27 463
944 0.894242 0.025362 -0.391487 21 24 25 0.267390 16 452 27 464
945 0.841307 0.005024 -0.401670 115 115 115 2.477976 16 560 24 524
946 0.837458 0.086401 -0.393630 135 131 132 1.761289 17 75 24 105
947 0.838384 0.070672 -0.390658 193 193 195 1.650005 17 136 18 142 19 178 24 176 25 151
948 0.839389 0.051264 -0.392259 143 143 139 0.799757 17 238 18 226 19 277
949 0.840665 0.036557 -0.392455 193 193 193 0.928440 17 315 19 337
950 0.840403 0.026058 -0.395084 184 183 185 0.594821 17 364 18 359
951 0.841906 0.015162 -0.394385 182 181 183 0.808632 17 410 18 409
952 0.841736 -0.008842 -0.393757 179 182 185 1.093483 17 541 18 533 19 601
953 1.090197 -0.011346 -0.403752 112 112 114 0.274030 17 582 18 621
954 1.088302 -0.018341 -0.401825 125 124 124 0.397978 17 605 18 649
955 0.962357 -0.028785 -0.415944 28 31 30 1.210404 17 644 25 977
956 0.969782 -0.061767 -0.416072 29 35 33 1.410155 17 748 25 1081
957 1.596484 0.865813 -0.872290 28 28 22 1.889439 18 0 22 0
958 0.838905 0.128358 -0.394062 200 194 200 2.318496 18 33 28 34
959 0.955987 0.089988 -0.393052 29 32 33 1.604921 18 163 27 238
960 0.945073 0.087316 -0.402361 185 189 184 2.371880 18 183 21 221 23 185 24 204
961 0.840445 0.015671 -0.396634 186 186 188 0.104286 18 410 25 429
962 0.841166 0.008792 -0.396624 129 126 123 0.840562 18 445 19 488 25 454
963 0.841166 0.008792 -0.396624 129 126 123 0.840562 18 446 19 490 25 455
964 0.842015 -0.008897 -0.396005 127 123 126 1.248311 18 535 19 609 25 566
965 0.839682 0.029575 -0.393534 180 180 184 0.106940 19 365 25 354
966 0.839682 0.029575 -0.393534 180 180 184 0.106940 19 366 25 355
967 0.839266 0.025326 -0.394273 126 126 128 0.037040 19 398 25 382
968 0.839266 0.025326 -0.394273 126 126 128 0.037040 19 399 25 383
969 1.011939 0.028495 -0.396623 72 75 74 2.019145 19 456 28 469
970 0.919859 -0.035331 -0.399873 22 25 24 0.787657 19 754 25 942
971 0.919859 -0.035331 -0.399873 22 25 24 0.787657 19 755 25 943
972 0.903455 0.036018 -0.441640 194 197 198 1.719351 20 393 23 398
973 1.101780 0.014718 -0.469095 211 210 212 2.418198 20 604 23 397
974 0.939292 0.080432 -0.332234 64 70 70 1.211727 21 200 28 119
975 0.939292 0.080432 -0.332234 64 70 70 1.211727 21 201 28 118
976 1.013609 0.097013 -0.399588 94 97 98 1.877388 21 255 26 263
977 0.975339 -0.006334 -0.395211 44 50 52 0.572087 21 595 26 660
978 0.890537 -0.044107 -0.424416 28 24 27 1.320487 21 663 23 670
979 0.950987 -0.052629 -0.426850 181 177 178 1.957856 21 700 23 648
980 0.867406 0.067276 -0.379676 200 200 204 1.071741 23 270 28 255
981 0.928424 0.011891 -0.385935 184 190 188 1.702744 23 456 27 567
982 0.839110 0.123717 -0.393929 177 174 171 2.046173 25 32 27 40 28 38
983 0.993170 -0.053505 -0.393537 42 41 45 0.510833 25 1115 26 825
